# .PCD v0.7 - Point Cloud Data file format
VERSION 0.7
FIELDS x y z
SIZE 4 4 4
TYPE F F F
COUNT 1 1 1
WIDTH 1386
HEIGHT 1
VIEWPOINT 0 0 0 1 0 0 0
POINTS 1386
DATA ascii
0.072394758 0.032347616 0.41629437
0.072745465 0.032340001 0.41618106
0.073090903 0.03233014 0.41603869
0.073459432 0.032330539 0.41602832
0.073798858 0.032318186 0.41585386
0.074163772 0.032317061 0.41582376
0.074521631 0.032312896 0.41575447
0.074877501 0.032307912 0.41567454
0.075207375 0.032291807 0.41545162
0.075577661 0.03229313 0.41545275
0.075916573 0.032281104 0.4152821
0.07625404 0.032268576 0.41510502
0.076597653 0.03225876 0.41496268
0.076956622 0.032255471 0.4149043
0.077328958 0.032257788 0.41491801
0.077692069 0.032256257 0.41488209
0.078034706 0.032246277 0.41473749
0.078367762 0.032232448 0.41454336
0.078715265 0.032224666 0.41442689
0.07906545 0.03221805 0.41432542
0.079392657 0.032202169 0.4141047
0.079751216 0.032199096 0.41404867
0.080121927 0.032200933 0.41405573
0.080457859 0.03218884 0.4138836
0.080814973 0.032185294 0.41382134
0.081186265 0.032187402 0.41383168
0.081527278 0.032177534 0.41368806
0.081879877 0.032172307 0.41360402
0.082216442 0.032160863 0.41343996
0.082591631 0.032164555 0.41347048
0.08290758 0.032145243 0.4132053
0.083289169 0.032151446 0.41326797
0.083622247 0.032138947 0.4130902
0.083965883 0.032130595 0.41296571
0.084332608 0.032131113 0.41295519
0.084666066 0.032119013 0.4127824
0.085017607 0.032113846 0.41269863
0.085385941 0.032115031 0.41269654
0.085707068 0.032098535 0.41246709
0.086037621 0.032085691 0.41228461
0.086392999 0.03208217 0.41222188
0.086755589 0.032081343 0.41219375
0.087116458 0.032079894 0.41215754
0.087458782 0.032071657 0.41203403
0.087811075 0.032067131 0.41195816
0.088141106 0.032054543 0.41177872
0.088470802 0.032041941 0.41159904
0.088843048 0.032044787 0.41161773
0.08921463 0.032047372 0.41163301
0.089521475 0.032026771 0.41135055
0.089877985 0.032024033 0.41129738
0.090236455 0.032022022 0.41125348
0.090600513 0.032021996 0.41123506
0.0909824 0.032028243 0.4112972
0.091337383 0.032025013 0.41123751
0.091726691 0.032033794 0.41133204
0.092125475 0.0320458 0.41146794
0.092500255 0.032049391 0.41149572
0.092867233 0.032050271 0.41148859
0.093203664 0.032040637 0.41134647
0.093536101 0.032029718 0.41118774
0.093862943 0.032016963 0.41100556
0.094216391 0.032013353 0.41094062
0.094585508 0.03201507 0.41094413
0.095315754 0.032015793 0.41091597
0.095643915 0.032003775 0.41074303
0.095901579 0.031968351 0.41026965
0.096159875 0.031933412 0.40980241
0.096475564 0.031917717 0.40958217
0.096799247 0.031904776 0.40939721
0.0971485 0.031900324 0.40932122
0.097495995 0.031895336 0.40923825
0.097839266 0.031889003 0.40913802
0.098164588 0.031876892 0.40896362
0.098480441 0.031861804 0.40875098
0.098811172 0.031851623 0.40860128
0.099167377 0.031849697 0.40855747
0.099499427 0.03184006 0.40841463
0.099876702 0.03184491 0.40845764
0.10022555 0.031840689 0.40838426
0.10053828 0.031825073 0.40816465
0.10090394 0.031826261 0.4081606
0.10121892 0.031811509 0.40795204
0.1015438 0.031799965 0.40778458
0.10188911 0.031794876 0.40769994
0.10225196 0.031795282 0.40768564
0.1026136 0.031795304 0.40766644
0.10294757 0.031786788 0.4075377
0.10331308 0.031788029 0.40753403
0.10367414 0.031787902 0.40751275
0.10405511 0.031793863 0.4075695
0.10444753 0.031803261 0.40767029
0.10480518 0.031802051 0.407635
0.056104984 0.033086978 0.42165715
0.056475732 0.033086255 0.42163542
0.056775589 0.033044282 0.42108801
0.0571278 0.033033125 0.42093328
0.057470046 0.033016387 0.42070735
0.057854101 0.03302373 0.42078817
0.058204815 0.03301207 0.42062682
0.058557145 0.033001468 0.42047888
0.05890701 0.032989621 0.42031497
0.059263624 0.032981675 0.42020077
0.059638567 0.032983962 0.42021692
0.059995916 0.032976553 0.42010936
0.060352713 0.032968938 0.41999915
0.060699631 0.032956041 0.41982165
0.061058737 0.032949887 0.41972992
0.061399803 0.032934129 0.41951579
0.0617682 0.032933131 0.41948962
0.062134046 0.032930791 0.41944626
0.062493294 0.032925002 0.419359
0.062846966 0.032916363 0.41923532
0.063212976 0.032914251 0.41919467
0.063584559 0.032915045 0.419191
0.06390661 0.032890335 0.41886252
0.064243697 0.032873608 0.41863558
0.064616702 0.032875344 0.41864368
0.064981438 0.032872874 0.41859826
0.065332204 0.032863412 0.41846365
0.065696187 0.032860667 0.41841456
0.066050537 0.032853153 0.41830462
0.066411637 0.03284907 0.41823834
0.066752732 0.032835182 0.41804722
0.067107104 0.032827955 0.41794071
0.067455284 0.032817785 0.41779679
0.067812391 0.032812051 0.41770926
0.068177268 0.032810107 0.41766995
0.068531103 0.03280291 0.41756362
0.0688961 0.032801099 0.41752589
0.069244422 0.03279141 0.41738772
0.06960094 0.032785684 0.41729999
0.069954924 0.032778833 0.41719791
0.070294 0.032765102 0.41700822
0.070665702 0.032766644 0.41701278
0.071014032 0.03275739 0.41687992
0.071362123 0.032748118 0.4167468
0.071723506 0.032745015 0.41669208
0.072082706 0.032740947 0.41662505
0.072421111 0.032727528 0.41643897
0.072767943 0.032718029 0.41630274
0.073124252 0.032712873 0.41622165
0.073484674 0.032709587 0.41616437
0.073830575 0.032699909 0.41602567
0.074176803 0.032690469 0.41588995
0.074528769 0.032683641 0.41578743
0.074883997 0.032678299 0.41570374
0.075239763 0.032673247 0.41562369
0.075597227 0.032668974 0.41555351
0.075959399 0.032666769 0.41550949
0.076282755 0.032647971 0.41525447
0.076647893 0.032647155 0.4152281
0.076989055 0.032636177 0.41507232
0.077344365 0.032631274 0.41499388
0.077695906 0.032624837 0.4148958
0.078065336 0.032625932 0.41489351
0.078432642 0.032626133 0.41487977
0.078776307 0.032616552 0.41474155
0.079103045 0.032600079 0.41451564
0.079438522 0.032587342 0.41433725
0.079800472 0.032585524 0.41429767
0.080154411 0.03258048 0.41421691
0.080496959 0.032570861 0.41407803
0.080858432 0.032568961 0.41403717
0.081209809 0.032563027 0.41394502
0.081572615 0.032561708 0.41391143
0.081924118 0.032555904 0.41382086
0.08224991 0.032539982 0.41360161
0.082613684 0.032539167 0.41357425
0.082931951 0.03252051 0.41332015
0.083295658 0.032519765 0.41329357
0.083651513 0.032515962 0.41322815
0.083997354 0.032508317 0.41311389
0.084356405 0.032505836 0.41306517
0.084690742 0.032493889 0.4128961
0.085058823 0.032494936 0.4128921
0.085421525 0.032493927 0.41286194
0.085740186 0.032476254 0.41261995
0.086092569 0.032471441 0.41254133
0.086421758 0.032457959 0.41235256
0.086784758 0.032457232 0.4123258
0.087126069 0.032448441 0.41219646
0.087491572 0.032448687 0.412182
0.087852232 0.032447152 0.41214475
0.088200934 0.032441225 0.41205174
0.088504702 0.032418888 0.41175023
0.08888343 0.032424081 0.41179833
0.089199968 0.032406636 0.4115589
0.089559287 0.032404806 0.4115178
0.089915588 0.032401912 0.41146305
0.090270035 0.03239838 0.41140008
0.090642996 0.032401487 0.41142148
0.090985872 0.032393858 0.41130647
0.09134388 0.032391656 0.41126034
0.09171059 0.032392543 0.41125339
0.092090487 0.032398064 0.41130525
0.092446588 0.032395203 0.41125059
0.092813775 0.032396235 0.41124529
0.093178853 0.032396525 0.41123059
0.093522757 0.032389481 0.41112268
0.093868054 0.032382973 0.41102159
0.094226621 0.032381073 0.41097888
0.09458746 0.032379963 0.41094622
0.094944298 0.0323775 0.4108963
0.095293321 0.032372404 0.41081291
0.09563262 0.032364052 0.41068819
0.095834993 0.032309595 0.40997848
0.096143536 0.032291219 0.40972647
0.096505299 0.032290783 0.40970215
0.096826635 0.032276876 0.4095068
0.097174913 0.032272011 0.40942624
0.097523667 0.032267354 0.40934813
0.097863592 0.032259814 0.40923354
0.098199554 0.03225103 0.40910307
0.098529436 0.032240316 0.40894812
0.098836362 0.032222204 0.40869927
0.099201955 0.032223273 0.40869376
0.099557273 0.032221016 0.4086459
0.099910058 0.03221795 0.40858787
0.10025692 0.032213014 0.40850595
0.10059153 0.032204177 0.40837464
0.10096597 0.032208122 0.40840533
0.10129394 0.032197263 0.40824825
0.10157982 0.032173149 0.40792313
0.10194024 0.032172728 0.4078984
0.10228741 0.032168157 0.40782088
0.10263481 0.032163676 0.40774462
0.10299025 0.032161739 0.40770054
0.10334747 0.032160375 0.40766367
0.10368745 0.03215367 0.40755904
0.10406741 0.032159366 0.40761164
0.10444143 0.032163199 0.40764052
0.10481267 0.032166146 0.40765807
0.1051875 0.032170169 0.40768933
0.1055722 0.03217718 0.40775836
0.10599431 0.032195505 0.40797067
0.055766534 0.033479288 0.4219158
0.056107938 0.033460923 0.42167193
0.056463338 0.033451088 0.42153552
0.056791324 0.033425245 0.42119738
0.057125781 0.033403523 0.42091107
0.057505667 0.033408478 0.42096081
0.057874043 0.033406716 0.42092595
0.058228452 0.03339697 0.42079031
0.058587927 0.033390235 0.42069262
0.058948487 0.033384196 0.42060363
0.059298508 0.033372305 0.42044082
0.059654597 0.033363953 0.42032254
0.060019668 0.033360697 0.42026845
0.060367268 0.03334783 0.42009315
0.060729306 0.033343047 0.42001963
0.061055444 0.033318728 0.41969997
0.061426546 0.033319101 0.41969126
0.06178207 0.033311058 0.41957653
0.062152039 0.03331086 0.41956052
0.062523291 0.033311345 0.41955307
0.062868789 0.033298183 0.41937366
0.063234597 0.033295877 0.41933084
0.063576236 0.033280939 0.41912892
0.063938364 0.033276837 0.41906345
0.064292885 0.033268843 0.41894892
0.064664841 0.033269916 0.41894841
0.065012626 0.033258609 0.41879201
0.065354474 0.033244412 0.41859916
0.065723829 0.033244286 0.41858339
0.066109583 0.033252407 0.41867146
0.066447198 0.033236366 0.41845518
0.066781498 0.033218849 0.41822028
0.067153484 0.033220161 0.4182224
0.067481212 0.033199694 0.41795027
0.067842193 0.033195719 0.41788572
0.068209127 0.033194687 0.41785806
0.068545029 0.033178639 0.4176414
0.068929188 0.033185996 0.4177193
0.069274254 0.033174552 0.41756049
0.069630876 0.033168741 0.41747245
0.069990717 0.033164509 0.41740432
0.070338704 0.033154745 0.4172664
0.070674449 0.033139329 0.41705739
0.071037076 0.033136625 0.41700825
0.071394973 0.033131737 0.41693163
0.071739972 0.033120956 0.4167808
0.072113648 0.033123456 0.41679692
0.072472557 0.033119179 0.41672781
0.072805911 0.033103324 0.41651294
0.073146351 0.033090841 0.41634038
0.073492609 0.033081099 0.41620237
0.073859252 0.033080585 0.41618034
0.074229389 0.033081632 0.4161779
0.074570805 0.033069931 0.41601503
0.074919611 0.033061605 0.41589451
0.075275071 0.033056285 0.41581181
0.075618394 0.033045709 0.41566291
0.075985849 0.033045735 0.41564733
0.076334752 0.03303773 0.41553071
0.076684169 0.033030018 0.41541767
0.077044353 0.033026997 0.41536358
0.077367708 0.033008292 0.41511229
0.077737615 0.033009533 0.41511166
0.078080364 0.032999285 0.41496652
0.078447267 0.032999288 0.41495028
0.078793481 0.032990631 0.41482511
0.079158023 0.032989696 0.41479692
0.079490423 0.032975432 0.41460115
0.079848282 0.032971818 0.4145391
0.080183916 0.032959096 0.41436258
0.080530159 0.03295083 0.41424206
0.080885448 0.032946318 0.41416872
0.081228264 0.032936797 0.41403228
0.081610292 0.032943193 0.41409585
0.08194644 0.032931093 0.4139269
0.082307957 0.032929245 0.41388682
0.082661457 0.03292422 0.41380671
0.082979321 0.032905109 0.41354954
0.083309509 0.032891031 0.41335556
0.083678707 0.032892413 0.4133558
0.084042773 0.032891773 0.41333058
0.084403366 0.032889783 0.41328841
0.084714167 0.03286849 0.41300359
0.085091881 0.032873236 0.41304591
0.085463271 0.032875504 0.41305706
0.085792683 0.032861676 0.41286594
0.086147927 0.032857813 0.41279995
0.086463183 0.032838799 0.41254354
0.086824231 0.032837264 0.41250676
0.087168708 0.032829501 0.4123916
0.08750838 0.032820001 0.4122546
0.087874368 0.032820407 0.412242
0.088234022 0.032818455 0.41219974
0.088572733 0.032808755 0.41206014
0.088916726 0.032801092 0.41194603
0.089249656 0.03278942 0.41178161
0.089589082 0.032780223 0.41164815
0.089947641 0.032778077 0.41160318
0.090293296 0.03277126 0.41149956
0.090665154 0.032773968 0.4115155
0.091031343 0.032774612 0.41150549
0.091373451 0.032766622 0.41138697
0.091744453 0.032769013 0.41139877
0.092066839 0.03275409 0.41119313
0.09242405 0.032751624 0.4111439
0.092785448 0.032750651 0.41111335
0.093144983 0.032749034 0.41107464
0.093498789 0.032745425 0.41101089
0.093856908 0.03274335 0.41096634
0.094223604 0.03274427 0.41095933
0.094576009 0.032740235 0.41089007
0.094939634 0.032740097 0.41086972
0.09525758 0.032724269 0.41065246
0.095553644 0.032701075 0.41034266
0.095818534 0.032667428 0.40990174
0.096152969 0.032657653 0.40976033
0.096492723 0.032649752 0.40964237
0.096836939 0.032643419 0.40954405
0.097221464 0.032650664 0.40961605
0.097575173 0.03264755 0.40955806
0.097899176 0.032634553 0.409376
0.098234527 0.032625422 0.40924245
0.098587558 0.032622207 0.40918308
0.098930694 0.032615758 0.40908307
0.09923891 0.032597877 0.4088397
0.099612288 0.032601461 0.40886545
0.099929854 0.032586817 0.40866256
0.10030128 0.032589775 0.40868044
0.10064499 0.032583743 0.40858552
0.10099508 0.032579809 0.40851685
0.10134012 0.032574281 0.40842816
0.10166066 0.032560948 0.40824157
0.1019963 0.032552522 0.40811652
0.10232675 0.032542512 0.40797156
0.10265912 0.032533176 0.40783504
0.10302489 0.032534458 0.40783155
0.10337821 0.032531805 0.40777874
0.10372242 0.032526322 0.40769041
0.10407336 0.032522976 0.4076288
0.10445759 0.032530021 0.40769744
0.10483804 0.032535851 0.4077507
0.055776361 0.033857662 0.42198271
0.056124378 0.03384304 0.42178807
0.056456417 0.033819035 0.42147642
0.056822408 0.033815548 0.42142048
0.05717564 0.033804562 0.421271
0.057541225 0.033800978 0.42121366
0.057881493 0.033782661 0.42097268
0.058231547 0.033770252 0.42080531
0.058612689 0.033775918 0.42086303
0.058968455 0.033766977 0.42073873
0.059329629 0.033761229 0.42065409
0.059704639 0.033763379 0.4206678
0.060103577 0.033778943 0.42084861
0.060467601 0.033774819 0.420784
0.060769495 0.033736251 0.42029026
0.061092861 0.033709999 0.41994989
0.061434489 0.033694081 0.41973823
0.061794508 0.033688378 0.41965371
0.062180262 0.033696689 0.41974375
0.062548861 0.033695661 0.41971731
0.062900737 0.033685688 0.41957948
0.063264221 0.033682019 0.41952002
0.063616842 0.033672635 0.41938937
0.063960291 0.033658531 0.41919988
0.064314261 0.0336501 0.419081
0.064691313 0.033653766 0.41911271
0.065021165 0.033632979 0.41883978
0.0653909 0.033632942 0.41882524
0.065748617 0.033626754 0.41873404
0.066117696 0.033626419 0.41871563
0.066477738 0.033621516 0.41864029
0.066800065 0.033597693 0.41832933
0.067166083 0.033595994 0.41829374
0.067523144 0.033589855 0.41820285
0.067875497 0.033581451 0.41808367
0.068234496 0.033576414 0.41800633
0.068599202 0.03357422 0.41796434
0.068957828 0.033569083 0.41788572
0.069304563 0.033558249 0.41773605
0.069663957 0.033553626 0.41766366
0.07001856 0.033546757 0.41756326
0.07037811 0.03354232 0.41749305
0.070726521 0.033532642 0.41735756
0.071070231 0.033520851 0.41719571
0.071439661 0.033521246 0.41718552
0.071787156 0.033511408 0.41704783
0.07216154 0.033514146 0.41706663
0.072486877 0.033494197 0.41680309
0.072822742 0.033479296 0.41660219
0.07318645 0.033477269 0.4165616
0.073543474 0.033472229 0.41648337
0.073902063 0.033467945 0.41641453
0.074254908 0.033461113 0.41631389
0.074610196 0.033455454 0.41622776
0.074954689 0.033445019 0.41608223
0.075321436 0.033444572 0.41606089
0.07565362 0.033428859 0.41584957
0.076007694 0.033422925 0.41575983
0.076373525 0.033422194 0.41573477
0.076708943 0.033408221 0.41554496
0.077074595 0.033407483 0.41551968
0.077403523 0.033390913 0.41529751
0.077762112 0.03338724 0.41523561
0.078120381 0.033383459 0.41517231
0.078462556 0.033372864 0.41502428
0.078814618 0.033366557 0.41492954
0.079186514 0.033368669 0.41493934
0.079530038 0.033358857 0.41480088
0.079876654 0.033350427 0.41467953
0.080214687 0.03333851 0.41451475
0.080552801 0.03332673 0.41435167
0.080910623 0.033323172 0.41429082
0.081279591 0.033324219 0.41428709
0.081616029 0.033311982 0.41411814
0.081976511 0.03330962 0.41407195
0.082320586 0.033300646 0.41394347
0.082686104 0.033300381 0.41392329
0.083017543 0.033286456 0.41373318
0.083382234 0.033285927 0.41370958
0.083725087 0.033276729 0.41357815
0.084064268 0.033266153 0.41342956
0.084414855 0.033260159 0.41333789
0.084750012 0.033248171 0.41317165
0.085121654 0.033250529 0.41318369
0.085477635 0.033246785 0.41311976
0.085802592 0.03323105 0.41290686
0.086175054 0.033233777 0.41292325
0.086524129 0.033227492 0.4128277
0.086868294 0.033219378 0.41270939
0.0871953 0.033204809 0.41251072
0.087553322 0.033202119 0.41245964
0.087905541 0.033197258 0.41238159
0.088246271 0.033188116 0.41225028
0.088607058 0.033186562 0.41221321
0.088964686 0.033183847 0.41216159
0.089300096 0.033172894 0.41200769
0.089637943 0.033162933 0.41186607
0.089996487 0.033160679 0.41182011
0.090333201 0.033150431 0.4116748
0.090687938 0.033146858 0.41161233
0.091068655 0.033152767 0.41166762
0.091399007 0.033140372 0.41149551
0.091750205 0.0331356 0.41141802
0.092098504 0.033129822 0.41132805
0.092426918 0.033116963 0.4111501
0.092775442 0.03311139 0.41106251
0.093126357 0.0331067 0.41098598
0.093480244 0.033103108 0.41092288
0.093848906 0.033104748 0.41092476
0.094199531 0.033100042 0.41084784
0.094558552 0.03309831 0.41080773
0.094916381 0.033096176 0.41076264
0.095256604 0.033087939 0.41064179
0.095528901 0.033056267 0.41022998
0.095883101 0.033053063 0.41017151
0.096139088 0.03301616 0.40969476
0.096519381 0.033022057 0.40974915
0.096850306 0.033011083 0.40959415
0.097243212 0.033021241 0.40970129
0.097576991 0.033011317 0.40955928
0.097951494 0.033015203 0.40958843
0.098266795 0.032999169 0.40937051
0.098585553 0.032984413 0.40916842
0.098950893 0.032985292 0.40916023
0.099283144 0.032975174 0.40901563
0.099640742 0.03297352 0.40897593
0.099980056 0.03296585 0.40886158
0.1003122 0.032955874 0.40871862
0.10066663 0.03295327 0.40866706
0.10102052 0.032950513 0.4086135
0.101378 0.032948937 0.40857458
0.1017215 0.032942839 0.4084796
0.10206766 0.032937653 0.40839586
0.10235143 0.032912433 0.40806371
0.10271992 0.032914538 0.40807033
0.10305678 0.032906536 0.40795156
0.10340171 0.032901149 0.40786523
0.10376094 0.032900345 0.4078356
0.10410728 0.032895461 0.40775546
0.10448292 0.032899845 0.40779009
0.10484339 0.032899432 0.40776527
0.10523853 0.032909866 0.40787485
0.10564791 0.032924671 0.40803853
0.055457927 0.034263398 0.42239755
0.055797894 0.034243353 0.42213809
0.056119598 0.034212433 0.42174456
0.056488223 0.034210343 0.42170635
0.056827601 0.034190677 0.42145145
0.057217889 0.034201704 0.42157477
0.05753972 0.034171928 0.42119512
0.057913367 0.034173116 0.42119703
0.058275115 0.034167312 0.42111266
0.058628496 0.034156699 0.42096907
0.059005726 0.034160025 0.42099717
0.059363104 0.034151897 0.42088398
0.061793916 0.034058664 0.4196423
0.062191047 0.034073304 0.41980916
0.062939189 0.034077086 0.41982862
0.063287884 0.034065291 0.41966957
0.063656531 0.034064308 0.41964367
0.06397792 0.034038194 0.4193081
0.064348519 0.034038406 0.41929683
0.064697064 0.034027029 0.41914266
0.065043673 0.034014754 0.41897747
0.065427706 0.034022078 0.41905361
0.065779328 0.034012575 0.41892233
0.066141821 0.034008756 0.41886112
0.066499583 0.034002565 0.41877058
0.066839039 0.033987131 0.41856617
0.067184038 0.03397467 0.41839829
0.067541987 0.033968858 0.41831225
0.067919187 0.03397274 0.41834551
0.068263069 0.033960003 0.41817406
0.068621397 0.033954557 0.41809231
0.068963878 0.033941362 0.41791514
0.069340147 0.033944853 0.41794333
0.069671333 0.033926349 0.41770071
0.070042998 0.033927646 0.41770178
0.070396587 0.033920225 0.41759539
0.070752613 0.033914052 0.41750437
0.071099572 0.03390361 0.41736075
0.071460441 0.033899877 0.41729969
0.071819507 0.033895336 0.41722855
0.072172552 0.033888016 0.41712317
0.072516106 0.03387633 0.41696402
0.072865933 0.03386768 0.41684216
0.073222563 0.033862263 0.41676003
0.073580742 0.03385761 0.41668728
0.073924705 0.033846501 0.41653499
0.074282043 0.033841591 0.41645896
0.074640796 0.033837367 0.41639131
0.075000927 0.033833813 0.41633183
0.075350486 0.033825547 0.41621432
0.075692482 0.033813976 0.41605613
0.076043569 0.033806566 0.41594905
0.076421745 0.033811208 0.41599017
0.076771855 0.033803448 0.41587868
0.077119216 0.03379456 0.41575328
0.077442959 0.033775456 0.41550207
0.077765569 0.03375604 0.41524705
0.078143723 0.033760797 0.41528934
0.078495748 0.033754282 0.41519287
0.078846738 0.033747375 0.4150916
0.079240903 0.033758935 0.41521737
0.07955648 0.033737056 0.41493183
0.079887055 0.033721711 0.41472656
0.080234058 0.033713404 0.41460788
0.080607802 0.033716366 0.41462764
0.080955438 0.033708427 0.41451335
0.081285439 0.03369325 0.41431001
0.081640996 0.033688754 0.41423795
0.081984892 0.033679504 0.41410738
0.082324438 0.033668563 0.41395596
0.082688145 0.033667553 0.4139266
0.083064951 0.033671863 0.4139626
0.083410896 0.033663683 0.41384494
0.083761446 0.033657417 0.41375086
0.084104404 0.033648174 0.41362008
0.084442757 0.033637177 0.41346768
0.084788688 0.033629276 0.41335335
0.085157402 0.033630442 0.4133504
0.085511744 0.033625949 0.4132778
0.085869856 0.033622965 0.41322374
0.086219266 0.033616617 0.41312829
0.086556584 0.033605631 0.41297576
0.086907506 0.033599995 0.41288891
0.087243348 0.033588596 0.41273126
0.087577067 0.033576481 0.41256475
0.087934345 0.033573464 0.41250998
0.088292994 0.033570986 0.41246182
0.088632017 0.033561107 0.41232264
0.088979408 0.033554453 0.41222307
0.089342877 0.033553902 0.41219839
0.089658275 0.033535365 0.41195276
0.090027146 0.033536911 0.41195375
0.090358771 0.033524621 0.41178474
0.0907076 0.03351878 0.41169494
0.091068335 0.033517372 0.41165951
0.091442987 0.033521071 0.41168684
0.091793284 0.033515859 0.41160455
0.092107244 0.033497468 0.41136044
0.092465594 0.0334953 0.41131553
0.092790157 0.033480957 0.4111211
0.093136154 0.033474434 0.41102257
0.093492799 0.033471771 0.41097146
0.093850464 0.033469494 0.41092503
0.094202556 0.033465251 0.41085443
0.094564177 0.033464421 0.41082561
0.09494549 0.03347053 0.41088206
0.095283091 0.033461247 0.41074941
0.095608391 0.033447735 0.41056481
0.095864981 0.03341037 0.4100875
0.096195228 0.033398859 0.40992749
0.096542656 0.033393387 0.40984148
0.096905142 0.033393141 0.4098196
0.097284168 0.033398576 0.40986741
0.097631074 0.033392977 0.40977982
0.097989127 0.03339123 0.40973935
0.098339885 0.033387009 0.40966853
0.098634996 0.033364002 0.40936717
0.098987274 0.033360429 0.40930426
0.099329434 0.033353481 0.40919992
0.099697478 0.033355247 0.4092024
0.10001277 0.033339415 0.40898898
0.10035556 0.033332832 0.40888894
0.10069408 0.033324882 0.40877217
0.10105705 0.033325046 0.40875489
0.10140444 0.033320095 0.40867478
0.10177491 0.03332274 0.40868777
0.10209074 0.03330753 0.40848187
0.10240882 0.033293162 0.40828618
0.1027635 0.033290759 0.40823722
0.10310271 0.033283375 0.4081271
0.10346977 0.033284996 0.40812743
0.10379477 0.033273127 0.40796232
0.10413229 0.033265341 0.4078472
0.1045234 0.033274665 0.40794185
0.10486116 0.033267003 0.40782818
0.10521723 0.033265181 0.4077861
0.10563359 0.033282366 0.40797696
0.10603194 0.033293784 0.40809709
0.055483256 0.034652047 0.42258283
0.055795059 0.034614209 0.42210904
0.05613618 0.034594927 0.42186156
0.056510162 0.034596026 0.42186251
0.05687682 0.034592655 0.42180887
0.057228535 0.034580298 0.42164564
0.057596531 0.034577873 0.42160341
0.057945859 0.034564346 0.42142576
0.058303591 0.034555972 0.42131084
0.05868287 0.034560394 0.42135191
0.05897852 0.034515813 0.4207955
0.063669547 0.034442011 0.41972202
0.06400384 0.034422517 0.41947055
0.06436386 0.034416996 0.41938937
0.064722419 0.034410764 0.41929942
0.065090731 0.034409754 0.41927317
0.065449134 0.034403555 0.41918352
0.065814331 0.034400973 0.4191379
0.066168621 0.034392752 0.41902348
0.066524275 0.034385324 0.4189187
0.066883996 0.034380067 0.41884029
0.067217246 0.03436134 0.41859779
0.067559868 0.034347579 0.41841567
0.067935333 0.034350578 0.41843766
0.068302862 0.034349553 0.41841054
0.068649724 0.034338191 0.41825756
0.068990998 0.034324184 0.41807219
0.06935975 0.034323916 0.41805416
0.069712237 0.034315642 0.41793856
0.070066161 0.034308173 0.41783267
0.070399724 0.034290854 0.41760677
0.070769832 0.034291424 0.41759869
0.071126007 0.034285273 0.41750872
0.07149183 0.034283813 0.41747576
0.071841531 0.034274675 0.41734928
0.072200119 0.034269847 0.41727525
0.07254827 0.034260139 0.41714177
0.072918177 0.034260754 0.41713378
0.073270068 0.034252938 0.41702321
0.073621444 0.034244966 0.41691062
0.073955894 0.034229234 0.41670355
0.074327268 0.034230664 0.41670534
0.074657522 0.034213234 0.4164775
0.075024217 0.034212597 0.41645399
0.075365566 0.03420046 0.41629043
0.075722791 0.034195613 0.4162156
0.07606972 0.034186181 0.41608495
0.076435529 0.034185287 0.41605809
0.076792002 0.03418025 0.41598073
0.077146992 0.034174599 0.41589591
0.077503145 0.034169514 0.41581792
0.077838644 0.034155414 0.41563013
0.078196123 0.034151051 0.41556075
0.078548506 0.03414451 0.41546488
0.078890152 0.034133382 0.41531312
0.079287894 0.034146514 0.41545653
0.07967408 0.034154575 0.4155381
0.080991358 0.034090344 0.41469029
0.081315733 0.034072574 0.41445744
0.081705563 0.034082267 0.41455853
0.082076833 0.034084167 0.41456482
0.082405403 0.034068398 0.41435611
0.082713053 0.034044154 0.41404432
0.083070531 0.034040552 0.41398349
0.083430223 0.034037877 0.41393393
0.083804853 0.034041293 0.41395837
0.084128231 0.034023952 0.41373035
0.084493294 0.034023546 0.41370821
0.084823728 0.034009263 0.4135173
0.085170083 0.034001458 0.41340509
0.08551459 0.033992976 0.41328466
0.085880011 0.03399286 0.41326579
0.086244479 0.033992354 0.41324225
0.086584337 0.033982206 0.41310132
0.086925805 0.033972759 0.41296899
0.087300241 0.033976234 0.41299361
0.087631002 0.033962745 0.41281205
0.087984815 0.033958275 0.41273996
0.088302113 0.033939797 0.41249764
0.088644922 0.03393124 0.41237587
0.089010261 0.033931341 0.41235927
0.08937797 0.033932339 0.41235352
0.089695767 0.033914458 0.41211832
0.090057068 0.033913106 0.41208386
0.090390921 0.033901475 0.41192451
0.090743043 0.033896748 0.41184905
0.091090128 0.033890195 0.4117513
0.091466561 0.033894569 0.41178626
0.091822773 0.033891443 0.41173011
0.092159636 0.033881225 0.41158774
0.092486963 0.033867605 0.41140389
0.092814885 0.033854298 0.41122401
0.093168445 0.033850413 0.41115844
0.093490779 0.033835262 0.41095594
0.09385775 0.033836316 0.41095027
0.094223738 0.033837009 0.41094023
0.094596788 0.03384022 0.41096067
0.094951183 0.033836771 0.41090009
0.095270403 0.033820849 0.4106881
0.09563449 0.03382092 0.41067028
0.095951572 0.033804424 0.41045129
0.096240304 0.033778109 0.41011301
0.09658771 0.03377251 0.41002619
0.096930228 0.033765245 0.40991917
0.097297803 0.033766732 0.40991834
0.097678423 0.033772714 0.40997201
0.098006912 0.0337607 0.40980718
0.098371677 0.033761218 0.40979451
0.098731913 0.03376019 0.40976295
0.099036761 0.033740297 0.40950242
0.099393651 0.033738218 0.40945801
0.099714257 0.033723872 0.4092648
0.100091 0.033728555 0.40930241
0.10039938 0.033710256 0.40906107
0.10075553 0.033708058 0.40901518
0.10111345 0.033706475 0.40897661
0.10144656 0.033696659 0.40883815
0.10181479 0.033698533 0.40884152
0.10211093 0.033676624 0.40855628
0.10247423 0.033676937 0.40854061
0.1028282 0.033674192 0.4084878
0.10314503 0.03365935 0.40828824
0.10351744 0.033662681 0.40830907
0.10384551 0.033651631 0.40815541
0.10417797 0.033642065 0.40801978
0.10453951 0.033641927 0.40799841
0.10491905 0.033647556 0.40804699
0.10525965 0.033640712 0.40794423
0.10563884 0.033646204 0.40799102
0.10603365 0.033656612 0.40809742
0.10640909 0.033660822 0.40812856
0.055155791 0.035053864 0.42293501
0.055478621 0.035022125 0.42253983
0.055806037 0.034993686 0.42218438
0.056165103 0.034985334 0.42207122
0.056534477 0.034983471 0.42203635
0.056893706 0.034975398 0.42192644
0.057241566 0.034960482 0.42173395
0.057625242 0.034967497 0.42180589
0.058003582 0.034971207 0.42183793
0.058341186 0.034950461 0.42157489
0.05869963 0.034942381 0.42146459
0.064039923 0.034812666 0.41969955
0.064379491 0.034795921 0.41948375
0.064738363 0.034789741 0.41939533
0.065100476 0.034785364 0.41932848
0.065469049 0.034784466 0.4193036
0.065826833 0.034777876 0.41921002
0.066215165 0.034787409 0.41931072
0.066563286 0.034775838 0.41915691
0.066897191 0.034756996 0.41891551
0.067252308 0.034749329 0.41880867
0.067614086 0.034745168 0.41874403
0.067955263 0.03473052 0.41855294
0.068321295 0.034728665 0.41851601
0.068686344 0.034726337 0.4184733
0.069047667 0.034722157 0.41840822
0.06943012 0.034728594 0.41847098
0.069745921 0.034701791 0.41813317
0.070097812 0.034693137 0.41801405
0.0704761 0.03469757 0.41805246
0.07080473 0.034677643 0.4177973
0.071151502 0.034666754 0.41765106
0.071533121 0.034672868 0.41770953
0.07186012 0.034652583 0.41745001
0.072229624 0.034652893 0.41743848
0.072584197 0.034646075 0.41734102
0.072931238 0.034635749 0.41720122
0.073292159 0.034632087 0.41714171
0.073646963 0.034625582 0.41704786
0.073997214 0.034617018 0.4169291
0.074338317 0.034604274 0.41676003
0.074701667 0.034601968 0.41671655
0.075040452 0.034588352 0.41653687
0.075400174 0.034584481 0.41647443
0.075748265 0.034575332 0.41634843
0.076105557 0.034570452 0.41627377
0.076442532 0.034556434 0.41608906
0.076810688 0.034556579 0.41607472
0.077177875 0.034556285 0.41605514
0.085195974 0.034377903 0.41352379
0.08554662 0.03437176 0.41343257
0.085903704 0.034368243 0.41337287
0.08626169 0.034365118 0.41331777
0.086613141 0.034359422 0.41323182
0.086969107 0.034355558 0.4131678
0.087314397 0.034347534 0.41305369
0.087641716 0.034332529 0.4128556
0.088015758 0.034335878 0.41287819
0.088349253 0.034323443 0.41271096
0.088711634 0.034322295 0.41267931
0.089044392 0.034309741 0.41251057
0.089413144 0.034311093 0.41250893
0.089745991 0.034298718 0.41234225
0.090099946 0.034294479 0.41227329
0.090422012 0.03427818 0.41205934
0.090796493 0.034281805 0.41208488
0.091133945 0.034271475 0.41194257
0.09151724 0.0342784 0.41200766
0.091839962 0.034262668 0.41180035
0.092189372 0.034256984 0.41171378
0.092529766 0.034248006 0.4115876
0.092878386 0.034242127 0.41149861
0.093221016 0.034234095 0.41138369
0.093527146 0.034212776 0.41110906
0.093900308 0.034216046 0.41112992
0.094244078 0.034208626 0.41102222
0.094633929 0.034217924 0.41111532
0.09498781 0.034214187 0.4110519
0.095313996 0.034200545 0.41086939
0.095642999 0.034188017 0.41070017
0.095924728 0.034158751 0.41032988
0.09627039 0.034152381 0.4102346
0.096685417 0.034170575 0.41043434
0.096996501 0.034152035 0.41019279
0.097351573 0.034149062 0.41013822
0.097679816 0.034136746 0.40997133
0.098066099 0.034144718 0.4100481
0.098408625 0.03413745 0.40994182
0.098757192 0.034132332 0.4098613
0.099109046 0.034128379 0.40979478
0.099451393 0.034121193 0.40968934
0.099762142 0.034103259 0.40945482
0.10010084 0.034094971 0.40933615
0.10044508 0.034088627 0.40924075
0.10078492 0.034080841 0.40912798
0.10115644 0.03408378 0.40914395
0.10148099 0.034070935 0.40897039
0.10184103 0.034070052 0.40894043
0.10217685 0.034061104 0.40881357
0.10250876 0.034050912 0.40867183
0.1028668 0.034049451 0.40863472
0.1032065 0.034041941 0.40852514
0.10353383 0.034030426 0.40836737
0.10386814 0.034021277 0.40823796
0.10421841 0.034017395 0.40817174
0.10456037 0.034010842 0.40807346
0.10493942 0.034016348 0.40811989
0.10528096 0.034009717 0.40802047
0.10565446 0.034013405 0.40804499
0.10603457 0.034019191 0.40809458
0.10641664 0.034025565 0.40815118
0.10677867 0.034025509 0.40813062
0.10716876 0.034034375 0.40821698
0.054849684 0.035470501 0.42345667
0.055150561 0.035423812 0.42288709
0.055481177 0.035396721 0.42255145
0.055812627 0.035370521 0.4222264
0.056195412 0.035376992 0.42229122
0.056543149 0.035361454 0.42209333
0.056907162 0.035356231 0.42201847
0.057272661 0.035351995 0.42195532
0.05766882 0.03536661 0.42211711
0.058065984 0.035381656 0.42228398
0.064013846 0.03516908 0.41952106
0.064411722 0.035184085 0.41968617
0.064776927 0.03518118 0.41963753
0.065131523 0.035172578 0.41952088
0.065488644 0.035165429 0.41942155
0.065860614 0.035166282 0.41941756
0.066224977 0.035163093 0.41936532
0.06657543 0.035152595 0.41922584
0.066946886 0.03515324 0.41921917
0.067298397 0.035143465 0.41908816
0.067638434 0.035127837 0.41888732
0.067990765 0.035118725 0.41876417
0.068338856 0.035107538 0.41861612
0.068701603 0.035103951 0.41855875
0.069075294 0.035105973 0.4185681
0.06944149 0.035104182 0.41853198
0.069789335 0.035093185 0.41838601
0.070147708 0.035087567 0.41830415
0.070496574 0.035077274 0.41816646
0.070821084 0.035055038 0.41788635
0.071196638 0.035058167 0.41790858
0.071554072 0.035052385 0.41782451
0.071907163 0.035044543 0.41771585
0.072249152 0.035031404 0.41754392
0.072613589 0.035029221 0.41750261
0.072959036 0.035017952 0.41735291
0.07332474 0.035016466 0.41731974
0.073688649 0.035014141 0.41727656
0.074015856 0.034994487 0.41702679
0.074371725 0.034988515 0.41694
0.074730702 0.03498406 0.41687119
0.075084023 0.034977 0.41677138
0.075457908 0.034979556 0.41678602
0.075794853 0.034965035 0.41659716
0.085925497 0.034743063 0.41347072
0.08628168 0.03473914 0.41340655
0.086635359 0.034734249 0.41333085
0.086970784 0.034722105 0.41316882
0.087336935 0.034722283 0.41315332
0.08770255 0.034722243 0.41313523
0.088051133 0.034715489 0.41303718
0.088400975 0.03470929 0.41294566
0.088733651 0.034696423 0.4127748
0.089118458 0.034703963 0.41284671
0.089423038 0.034680329 0.41254768
0.089770958 0.034673635 0.41245008
0.090113103 0.034664765 0.4123266
0.090461239 0.034658264 0.41223124
0.090825662 0.034658022 0.41221035
0.091175638 0.0346523 0.41212419
0.091513179 0.034641914 0.41198251
0.091903508 0.034651522 0.4120785
0.092235871 0.034639269 0.41191462
0.092560276 0.034624148 0.41171646
0.092903011 0.034615967 0.41160086
0.0932796 0.034620423 0.41163543
0.093561441 0.034589808 0.41125304
0.093963854 0.034603842 0.41140136
0.094296604 0.034592204 0.41124454
0.09464179 0.034585204 0.41114277
0.095005468 0.034584988 0.41112158
0.095336281 0.034572858 0.41095871
0.095705256 0.034574602 0.41096079
0.096043199 0.034565166 0.4108299
0.096380055 0.034555413 0.4106952
0.096663639 0.034526698 0.41033518
0.097009189 0.034520261 0.41023979
0.097364053 0.034517165 0.41018414
0.097727433 0.034517102 0.41016445
0.098084383 0.034514777 0.41011789
0.098444253 0.034513492 0.41008362
0.098802038 0.034511495 0.4100408
0.099121064 0.034496013 0.40983781
0.099481449 0.034494992 0.40980652
0.099833608 0.034491133 0.40974155
0.10015345 0.03447618 0.40954471
0.10050064 0.034470711 0.40946048
0.10083219 0.034459945 0.40931332
0.10117279 0.03445233 0.40920356
0.10152132 0.034447465 0.40912643
0.10188223 0.034446817 0.40909934
0.10222021 0.034438446 0.40898052
0.10256726 0.034433182 0.40889853
0.10288467 0.034418043 0.40869924
0.10325492 0.034420621 0.40871033
0.10360913 0.034417849 0.40865791
0.10390672 0.034396362 0.40838316
0.10425472 0.034391645 0.40830752
0.10460187 0.034386687 0.40822899
0.10496246 0.034386165 0.4082031
0.10531974 0.034384564 0.40816432
0.10566654 0.034379568 0.40808523
0.10604227 0.034383979 0.40811783
0.10642941 0.034392051 0.4081938
0.10679801 0.034394097 0.40819818
0.054844912 0.035841145 0.42341191
0.05516601 0.035807107 0.42299762
0.055477466 0.035767313 0.42251533
0.055840619 0.035761163 0.42243034
0.056231052 0.035772443 0.42255121
0.056575526 0.035754528 0.42232716
0.05694231 0.035750858 0.42227128
0.057312988 0.035749663 0.42224461
0.057714239 0.035767429 0.42244175
0.058108397 0.035780601 0.42258459
0.064059198 0.035564847 0.41981056
0.064445324 0.035573382 0.4198975
0.064777777 0.035552364 0.41963544
0.065152258 0.035554517 0.41964683
0.065523058 0.035554651 0.41963428
0.065877289 0.035545841 0.41951618
0.066263035 0.035554044 0.41959873
0.066598281 0.035535205 0.41936213
0.066974156 0.035538137 0.41938236
0.067318015 0.035524137 0.41920272
0.067680679 0.035520162 0.41914135
0.06800808 0.035497822 0.41886321
0.068362959 0.035489991 0.41875622
0.068728305 0.035487644 0.4187139
0.06909579 0.035486426 0.41868478
0.069456793 0.035481907 0.41861674
0.069815069 0.035476051 0.41853279
0.070170961 0.035469048 0.41843525
0.070526421 0.035461906 0.41833603
0.070882924 0.035455361 0.41824377
0.071204416 0.035431456 0.41794676
0.071560219 0.035424791 0.41785291
0.071922906 0.03542158 0.41779986
0.072274275 0.035412852 0.41768169
0.072668791 0.035425249 0.41781256
0.072972499 0.03539348 0.41742244
0.073348537 0.03539693 0.41744775
0.073694617 0.035385966 0.41730294
0.07405822 0.035383482 0.41725808
0.074429296 0.035384573 0.41725534
0.074778296 0.035375215 0.41712928
0.075139619 0.035371739 0.41707256
0.087701254 0.035087608 0.41312209
0.088067643 0.03508788 0.4131076
0.088425092 0.035084601 0.41305131
0.08879222 0.035085179 0.41304028
0.089142554 0.03507914 0.41295135
0.089466698 0.035062887 0.41274214
0.08982797 0.035061255 0.412705
0.090155795 0.035046633 0.41251495
0.090510733 0.035042632 0.41244984
0.090844393 0.035030454 0.41228843
0.091190629 0.035023205 0.41218498
0.091588967 0.035035942 0.41231674
0.091930479 0.03502693 0.41219249
0.092278123 0.035020314 0.41209638
0.092598878 0.035003591 0.41188127
0.09294425 0.034996256 0.41177669
0.093275674 0.034983762 0.41161123
0.093626156 0.034978479 0.41153067
0.093974888 0.034972578 0.41144285
0.094340228 0.034972884 0.41142792
0.094675019 0.034961909 0.41128024
0.095024303 0.034956347 0.41119623
0.095370263 0.034949616 0.41109839
0.095723867 0.034945719 0.4110339
0.096059524 0.034935329 0.41089293
0.096407317 0.034929413 0.4108046
0.096719511 0.03491069 0.41056561
0.097079791 0.034909397 0.41053158
0.097398147 0.034893099 0.41032106
0.097776912 0.034898486 0.4103654
0.098120622 0.03489136 0.4102627
0.098476067 0.034888446 0.41020945
0.098832734 0.034885988 0.41016147
0.099164851 0.034874912 0.41001219
0.09952075 0.034872252 0.40996176
0.099872723 0.03486824 0.40989542
0.10018653 0.034850977 0.4096733
0.10054564 0.034849543 0.40963724
0.10088214 0.034840308 0.40950942
0.10123608 0.034837145 0.40945292
0.10157357 0.034828361 0.40933034
0.10191893 0.03482233 0.40924007
0.10225939 0.034814678 0.40913069
0.1025703 0.03479705 0.40890408
0.10293616 0.034798123 0.40889722
0.10325825 0.034784444 0.40871695
0.10360709 0.034779839 0.40864331
0.10398554 0.03478517 0.40868637
0.1043035 0.034770306 0.40849206
0.1046482 0.03476442 0.40840325
0.10498883 0.03475723 0.40829909
0.10535311 0.034757894 0.40828717
0.10569352 0.034750707 0.40818292
0.10606761 0.034754593 0.40820882
0.10643447 0.034756109 0.40820676
0.10681587 0.034762334 0.40826002
0.10717142 0.034760136 0.4082143
0.1075619 0.034769244 0.40830129
0.054500472 0.036234215 0.42364219
0.054848649 0.036217339 0.42343274
0.055152856 0.036171857 0.42288879
0.05550541 0.036158476 0.42272019
0.055871703 0.03615417 0.42265752
0.056238856 0.036150474 0.42260191
0.05659961 0.036142737 0.42249903
0.05698403 0.036150109 0.4225727
0.05734859 0.036144879 0.42249897
0.057768863 0.036174595 0.42283365
0.05817268 0.036193699 0.42304417
0.064307131 0.03607478 0.42142764
0.06444405 0.035943616 0.41988146
0.06482514 0.035949349 0.41993448
0.06519223 0.035947304 0.41989657
0.065553814 0.03594226 0.41982359
0.06590692 0.035932653 0.41969717
0.066290401 0.035939619 0.41976431
0.066631734 0.035923783 0.41956508
0.06700176 0.035923507 0.41954753
0.067329802 0.03590085 0.41926849
0.06771078 0.035906509 0.41932011
0.068043716 0.035886768 0.41907504
0.068395443 0.035877101 0.41894758
0.06874676 0.035867322 0.41881868
0.06912151 0.035869807 0.41883305
0.069482319 0.035865072 0.41876295
0.069830492 0.035853893 0.41861758
0.070205592 0.035856586 0.41863415
0.07055968 0.035848584 0.41852573
0.070916891 0.035842236 0.41843662
0.071254015 0.035825856 0.4182303
0.071618475 0.035823319 0.4181855
0.071977861 0.035818279 0.4181115
0.072333626 0.035811506 0.41801712
0.072674118 0.035797272 0.41783565
0.073018789 0.035785228 0.41767976
0.073364399 0.035773769 0.41753054
0.07375069 0.035782158 0.41761294
0.074113853 0.035779301 0.41756403
0.07449463 0.035784926 0.4176141
0.088437647 0.035455484 0.41310284
0.088818252 0.035461418 0.41315427
0.089173838 0.035457365 0.41308919
0.089510329 0.035445783 0.41293636
0.089869522 0.035443246 0.41288885
0.090199962 0.035429433 0.41270998
0.090527423 0.035414565 0.41251883
0.090913437 0.035422638 0.41259477
0.091248885 0.035411019 0.41244131
0.091649093 0.035424523 0.41258043
0.091957159 0.035402447 0.41230515
0.092308134 0.035397001 0.41222346
0.092631742 0.035381142 0.4120205
0.092982091 0.035375584 0.41193745
0.093339883 0.035372883 0.41188765
0.093687437 0.035366349 0.41179308
0.094017483 0.035353277 0.41162241
0.094373614 0.035350069 0.41156659
0.094721481 0.035343811 0.41147518
0.095067807 0.035337027 0.41137764
0.095411867 0.035329461 0.41127086
0.095748447 0.035319183 0.41113254
0.096092418 0.035311703 0.41102678
0.096431211 0.035302386 0.41089958
0.096784592 0.035298463 0.41083506
0.09711311 0.035285525 0.41066569
0.097446389 0.035274409 0.41051745
0.097817212 0.035276923 0.41052777
0.098175511 0.035274915 0.41048542
0.098540649 0.035275366 0.41047171
0.098876849 0.035265498 0.41033781
0.099230044 0.035261739 0.41027495
0.099558473 0.035249237 0.41011038
0.09990605 0.035243582 0.41002545
0.10022106 0.035226524 0.4098078
0.10059308 0.035229549 0.40982378
0.10090895 0.035212964 0.40961158
0.101272 0.0352129 0.40959153
0.10160952 0.03520399 0.40946856
0.10196044 0.035199776 0.40940011
0.10232557 0.035200469 0.40938878
0.10263994 0.035183765 0.40917504
0.10297849 0.035175439 0.40905872
0.10327351 0.035152353 0.40877074
0.10366075 0.035160709 0.40884832
0.10401937 0.035159327 0.4088127
0.1043414 0.035145637 0.40863392
0.1047037 0.035145562 0.40861335
0.10503071 0.035133675 0.40845543
0.10539209 0.035133328 0.40843168
0.10573853 0.03512802 0.40835023
0.10609747 0.035126891 0.4083173
0.10646107 0.035127301 0.40830222
0.1068409 0.035133053 0.40834922
0.10719429 0.035130091 0.40829489
0.10755739 0.035130329 0.40827769
0.054520279 0.036621444 0.42378804
0.05485234 0.03659356 0.42345321
0.055169672 0.036556285 0.42300969
0.055545282 0.036557864 0.42301577
0.055891529 0.036540233 0.42279944
0.05626446 0.036540162 0.42278627
0.056621794 0.036530029 0.42265657
0.056988847 0.036526259 0.42260045
0.057381455 0.03653881 0.42273304
0.057801303 0.036568437 0.4230631
0.058200639 0.036584783 0.42323947
0.064332813 0.036461622 0.42158806
0.064540565 0.036368933 0.42050245
0.064863011 0.036341559 0.42017204
0.065212563 0.036329597 0.42001969
0.065571859 0.036323175 0.41993132
0.065935664 0.036319301 0.4198724
0.066297583 0.036314446 0.41980204
0.066663466 0.036311798 0.41975713
0.067038618 0.036314201 0.41977057
0.067377865 0.036297232 0.41956002
0.067736141 0.036290649 0.41946948
0.068100877 0.036287572 0.41941935
0.068433389 0.036267456 0.41917226
0.068765603 0.036247399 0.41892579
0.069140218 0.03624979 0.41893873
0.069505729 0.036247402 0.41889632
0.069859117 0.036238752 0.41878152
0.070235804 0.036242213 0.41880664
0.07056848 0.036223058 0.41857028
0.070924193 0.036215853 0.41847205
0.071271718 0.036204569 0.41832659
0.071634106 0.036200911 0.41826919
0.072002418 0.036200266 0.41824651
0.072352044 0.036190286 0.41811594
0.072706141 0.036182627 0.41801214
0.073086366 0.036187988 0.41805869
0.073453158 0.036186676 0.41802809
0.073799185 0.036175203 0.41788
0.089539386 0.0358232 0.41306323
0.089902312 0.035822079 0.41303238
0.090237424 0.03580993 0.41287434
0.0906085 0.035812087 0.4128812
0.090929493 0.035794515 0.41266054
0.091289908 0.035792537 0.41261965
0.091667734 0.03579738 0.41265729
0.092013106 0.035789557 0.41254893
0.092343882 0.035776142 0.41237605
0.092688687 0.035768244 0.41226673
0.09301877 0.035754751 0.41209286
0.093352549 0.035742778 0.41193649
0.093714751 0.035741743 0.41190612
0.094074242 0.035739679 0.41186389
0.094411038 0.035729043 0.41172284
0.094774634 0.035728596 0.41169912
0.095132962 0.035726175 0.41165262
0.095480062 0.035719566 0.41155785
0.095834613 0.035715781 0.41149557
0.096148863 0.035697076 0.41126129
0.096487433 0.035687495 0.41113222
0.096831322 0.035679951 0.41102648
0.09716247 0.035667788 0.41086751
0.097513482 0.035662975 0.41079322
0.097868368 0.035659615 0.41073558
0.098206155 0.035650071 0.41060665
0.098557703 0.035645571 0.41053587
0.098901242 0.035638221 0.41043219
0.099277616 0.035642717 0.41046485
0.099584915 0.035622466 0.41021252
0.0999391 0.035619073 0.41015428
0.10031804 0.035624497 0.41019753
0.100656 0.035615377 0.41007334
0.10096319 0.035595477 0.40982494
0.10127629 0.0355778 0.40960211
0.10166486 0.035586663 0.40968481
0.10198319 0.035570964 0.40948471
0.1023385 0.035568234 0.40943384
0.1026819 0.035561394 0.40933564
0.1030136 0.035550561 0.40919146
0.10337536 0.03555014 0.40916714
0.10371412 0.035541855 0.40905219
0.10404909 0.035532318 0.40892288
0.10436302 0.035515688 0.40871188
0.10473879 0.035520151 0.40874359
0.10508529 0.035514694 0.40866107
0.10543308 0.035509702 0.40858388
0.10577301 0.03550211 0.40847677
0.10612535 0.03549872 0.40841797
0.10646947 0.03549261 0.40832788
0.10684951 0.035498478 0.4083755
0.10722902 0.035504129 0.40842062
0.10759711 0.035505973 0.40842187
0.10797001 0.035509393 0.40844122
0.054532446 0.037003767 0.42387447
0.054834466 0.036955286 0.42330703
0.05519332 0.036945511 0.4231829
0.055557918 0.036939681 0.4231039
0.055938721 0.036944639 0.4231483
0.056280315 0.0369238 0.42289731
0.056655191 0.036924928 0.42289776
0.057015177 0.036916401 0.42278761
0.057407852 0.036929008 0.42291942
0.057811256 0.03694832 0.42312789
0.058213837 0.036966853 0.42332739
0.064337656 0.036836825 0.42161188
0.064672261 0.036815386 0.4213526
0.064867325 0.036715206 0.42019203
0.065236054 0.036713906 0.42016315
0.06558419 0.036701094 0.42000243
0.065962546 0.036705244 0.42003578
0.066335462 0.036706336 0.42003405
0.066688247 0.036696337 0.41990536
0.067057386 0.036695398 0.41988024
0.067427494 0.036694992 0.4198612
0.067767441 0.036678273 0.41965541
0.068127938 0.036672793 0.41957822
0.0684506 0.036647119 0.41926986
0.068829715 0.036651783 0.41930857
0.069173813 0.036637846 0.41913447
0.069527924 0.036629338 0.41902232
0.069890618 0.036625415 0.4189626
0.070254341 0.036622074 0.41890946
0.070602536 0.036610711 0.41876453
0.070969522 0.036609158 0.41873175
0.071326211 0.036602341 0.41863868
0.071677633 0.036592908 0.41851562
0.07202059 0.036579266 0.41834441
0.07238014 0.036574148 0.41827059
0.072787076 0.036592908 0.41846982
0.089890867 0.036183376 0.41297263
0.090273291 0.036190081 0.41303122
0.090646848 0.036193199 0.41304877
0.090964571 0.036174089 0.41281256
0.091341101 0.036178418 0.41284391
0.091688141 0.036171082 0.41274202
0.092021503 0.036158424 0.41257945
0.092390075 0.036159657 0.41257519
0.092747591 0.036156558 0.4125216
0.093084924 0.036145654 0.41237885
0.093415797 0.036132339 0.41220853
0.09376099 0.036124635 0.41210225
0.094084375 0.036108632 0.41190118
0.094447903 0.036108091 0.41187659
0.094817303 0.036109794 0.41187745
0.095163159 0.036102552 0.41177624
0.095520169 0.036099579 0.4117237
0.095848277 0.036085747 0.41154724
0.09616629 0.036068235 0.41132882
0.096501656 0.036057338 0.41118583
0.096890397 0.036066391 0.41127026
0.097207233 0.036048714 0.41104984
0.097538389 0.036036458 0.41089121
0.097912379 0.036040056 0.41091332
0.098240159 0.036026683 0.41074193
0.09859971 0.036025021 0.41070393
0.098951466 0.036020532 0.41063368
0.099298283 0.036014277 0.41054335
0.0996297 0.036002509 0.41039008
0.099948876 0.03598642 0.41018754
0.10034212 0.035997022 0.41028917
0.10067659 0.035986532 0.41015035
0.10100219 0.03597296 0.40997645
0.10137218 0.03597524 0.4099831
0.10165936 0.035948217 0.40965581
0.10204081 0.035954606 0.40970924
0.10240927 0.035956386 0.40971011
0.10275332 0.035949618 0.40961355
0.10306959 0.035933208 0.40940711
0.10340671 0.035924159 0.4092845
0.10372351 0.03590814 0.40908247
0.10410307 0.035913885 0.40912828
0.10442546 0.03589993 0.4089497
0.1047845 0.035898637 0.40891528
0.10511416 0.035887308 0.4087666
0.10545087 0.035878468 0.40864614
0.10579586 0.035872489 0.40855831
0.10616704 0.035875406 0.40857175
0.1065084 0.035868257 0.40847051
0.10687536 0.035869747 0.40846762
0.10723534 0.035868902 0.40843809
0.1075932 0.035867341 0.40840042
0.054212347 0.037415069 0.42429969
