# .PCD v0.7 - Point Cloud Data file format
VERSION 0.7
FIELDS x y z
SIZE 4 4 4
TYPE F F F
COUNT 1 1 1
WIDTH 1335
HEIGHT 1
VIEWPOINT 0 0 0 1 0 0 0
POINTS 1335
DATA ascii
-0.010034077 0.04544057 0.41955817
-0.0096625965 0.045431081 0.41947216
-0.0092919916 0.045425113 0.41941863
-0.0089226756 0.045425225 0.41942114
-0.0085539501 0.045428477 0.41945258
-0.0081861885 0.045437377 0.41953608
-0.0078192437 0.045451868 0.41967112
-0.062280431 0.047625523 0.43520185
-0.061841361 0.04758317 0.43482712
-0.061484966 0.047604304 0.43503243
-0.061069828 0.047579929 0.43482184
-0.060655944 0.047556236 0.43461737
-0.060256619 0.047543731 0.43451509
-0.059867196 0.047538921 0.43448302
-0.059469827 0.047527701 0.43439236
-0.059081465 0.047523588 0.43436652
-0.058695722 0.047521535 0.43435946
-0.058330379 0.047536083 0.43450409
-0.057967469 0.047552817 0.4346686
-0.057595909 0.047562633 0.43476984
-0.057221092 0.047569878 0.43484747
-0.051949527 0.047310419 0.43261692
-0.05149642 0.047244728 0.43202651
-0.051096402 0.047227126 0.4318758
-0.05069511 0.047208074 0.43171176
-0.050309446 0.047203396 0.43167907
-0.049918335 0.047193497 0.4315986
-0.049511414 0.047168385 0.43137887
-0.049117833 0.047155689 0.43127266
-0.04872163 0.047140263 0.43114135
-0.048324652 0.047123838 0.43100086
-0.047926612 0.04710611 0.43084836
-0.047545381 0.04710475 0.4308455
-0.04715497 0.047094204 0.43075851
-0.046758052 0.047076933 0.43060994
-0.046352468 0.047050584 0.43037823
-0.045979116 0.04705679 0.43044427
-0.045585476 0.047042165 0.43031964
-0.045203943 0.047039885 0.43030792
-0.044832595 0.047048271 0.43039361
-0.024706539 0.046304908 0.42395017
-0.02432894 0.046296973 0.42388234
-0.023947638 0.046281643 0.42374668
-0.023564385 0.046261992 0.42357138
-0.023185201 0.046249833 0.4234646
-0.022810124 0.046245597 0.42343029
-0.022434466 0.046240028 0.42338365
-0.02205541 0.046227146 0.42327008
-0.021681136 0.04622402 0.42324567
-0.021303644 0.046213806 0.42315629
-0.020920221 0.046190131 0.42294359
-0.020533428 0.046158027 0.42265359
-0.020162378 0.04616078 0.42268267
-0.01978768 0.046155129 0.42263478
-0.019406885 0.04613477 0.42245209
-0.019027788 0.04611773 0.42229971
-0.018649453 0.046101894 0.4221583
-0.018270662 0.046084262 0.42200038
-0.017896796 0.046078578 0.42195171
-0.017520159 0.046065379 0.42183417
-0.017144155 0.046053305 0.42172688
-0.016770102 0.046046052 0.42166364
-0.016397065 0.046041328 0.42162344
-0.016019516 0.046023421 0.42146251
-0.015642939 0.046007525 0.42131984
-0.015266752 0.045992039 0.42118087
-0.01489546 0.045990888 0.42117313
-0.014517104 0.045967318 0.42095995
-0.01414082 0.045949247 0.42079705
-0.013767017 0.045938484 0.42070103
-0.013396583 0.045938674 0.42070523
-0.013019257 0.045914579 0.4204869
-0.012643222 0.045893755 0.42029849
-0.012272502 0.045891553 0.42028052
-0.01190112 0.045886666 0.4202379
-0.011527144 0.045871135 0.42009774
-0.011152556 0.045852073 0.41992512
-0.010784341 0.045858797 0.41998854
-0.010410435 0.045840941 0.41982684
-0.010036367 0.045821041 0.41964629
-0.0096653029 0.045813855 0.41958213
-0.0092943916 0.045806855 0.41951957
-0.0089228032 0.045795795 0.41941977
-0.008556434 0.045811739 0.41956714
-0.0081864269 0.045808762 0.41954121
-0.0078195576 0.045823891 0.41968101
-0.062308524 0.048031636 0.43538871
-0.061877638 0.047995422 0.43507272
-0.061496399 0.047997504 0.43510386
-0.061101221 0.047988672 0.43503588
-0.060704481 0.047978491 0.43495566
-0.060298655 0.047960956 0.4348087
-0.05988786 0.047939211 0.43462351
-0.059487965 0.047925975 0.43451536
-0.059099466 0.04792181 0.43448934
-0.058721587 0.047926266 0.4345414
-0.05832215 0.047913056 0.43443328
-0.057962663 0.047932714 0.43462306
-0.0575982 0.047948491 0.43477762
-0.05721125 0.047945637 0.43476316
-0.056830414 0.047947902 0.43479508
-0.056453526 0.04795355 0.43485755
-0.052419692 0.047773145 0.43332994
-0.051957253 0.047699429 0.43267173
-0.051507518 0.047636379 0.43211013
-0.051119659 0.047630042 0.43206289
-0.050750867 0.047641505 0.43217707
-0.050326649 0.047600724 0.4318172
-0.049934532 0.047589906 0.43172914
-0.049516883 0.047554407 0.43141705
-0.049124826 0.047543131 0.43132454
-0.048752442 0.047550861 0.4314045
-0.048352744 0.047531873 0.43124193
-0.047965806 0.047525216 0.43119121
-0.047566071 0.047505677 0.43102348
-0.047166754 0.047486246 0.43085665
-0.046779528 0.047478773 0.43079826
-0.04638939 0.047468189 0.43071157
-0.046000693 0.047458932 0.43063682
-0.045619309 0.047457118 0.43062955
-0.045249924 0.047467865 0.43073618
-0.024333764 0.046680022 0.42395732
-0.023958357 0.046676196 0.42392725
-0.023577811 0.046662074 0.42380366
-0.023193369 0.046639677 0.42360473
-0.022813734 0.046626363 0.42348829
-0.022446321 0.046638004 0.42359841
-0.022064978 0.0466206 0.42344466
-0.021690968 0.046618372 0.42342865
-0.021304928 0.046589751 0.42317283
-0.02092476 0.046573188 0.42302647
-0.020546846 0.046561129 0.42292091
-0.020171987 0.046555672 0.42287526
-0.019792479 0.046539087 0.42272839
-0.0194171 0.046531763 0.4226656
-0.019041235 0.046522956 0.4225893
-0.018663457 0.046509039 0.42246643
-0.018282175 0.046485648 0.42225751
-0.017910527 0.046486292 0.42226675
-0.01753518 0.046477158 0.42218709
-0.017149944 0.046440858 0.42186064
-0.01677393 0.046428468 0.42175123
-0.016401025 0.046424318 0.42171663
-0.016024401 0.046409212 0.42158243
-0.015648939 0.046396833 0.42147291
-0.015276362 0.046392616 0.42143747
-0.01489918 0.046373863 0.42126986
-0.014526282 0.046367817 0.42121765
-0.014147485 0.046342146 0.42098704
-0.01377915 0.046350278 0.42106345
-0.013401393 0.046326291 0.42084798
-0.013024301 0.046303306 0.42064157
-0.012653417 0.046301693 0.42062917
-0.01227907 0.046286937 0.42049733
-0.011905557 0.046274502 0.42038646
-0.011534747 0.046272114 0.42036685
-0.011157971 0.046244837 0.42012101
-0.010787797 0.046244003 0.42011529
-0.010412742 0.046221443 0.41991213
-0.010041988 0.046217017 0.41987365
-0.0096708704 0.046210513 0.4198162
-0.0092992634 0.046201061 0.41973191
-0.0089284088 0.046194732 0.41967589
-0.0085576633 0.046188448 0.41962016
-0.0081888642 0.046192564 0.4196589
-0.0078205513 0.046199955 0.41972727
-0.0074528139 0.04621166 0.4198347
-0.062317971 0.048423596 0.43544513
-0.061923172 0.048415359 0.43538332
-0.061547235 0.048421856 0.43545398
-0.061143834 0.048406694 0.43532974
-0.060740367 0.048391283 0.43520325
-0.060333855 0.048373237 0.43505296
-0.059901714 0.048334282 0.4347145
-0.059519246 0.048335165 0.43473428
-0.059119776 0.048322164 0.43462911
-0.058721472 0.048309948 0.43453094
-0.058337484 0.048309434 0.43453795
-0.057949588 0.048305657 0.43451551
-0.057592455 0.048327636 0.43472469
-0.057218362 0.048335582 0.43480763
-0.056829765 0.048331305 0.43478048
-0.056452386 0.048336577 0.43483916
-0.056068685 0.048336476 0.43484944
-0.053259585 0.048224159 0.4339152
-0.05286308 0.048211556 0.43381238
-0.052441444 0.048175693 0.43350014
-0.051955353 0.048079651 0.43264636
-0.051536348 0.048044726 0.43234241
-0.051160146 0.048049487 0.43239552
-0.050759785 0.048031457 0.43224344
-0.050369624 0.048022885 0.43217638
-0.049957663 0.047993232 0.43191957
-0.049560685 0.047977626 0.4317891
-0.049166981 0.047964983 0.43168515
-0.048778426 0.047957204 0.43162492
-0.04837998 0.047939491 0.43147525
-0.047988158 0.047928128 0.4313826
-0.047579978 0.047900103 0.43113995
-0.047195539 0.04789573 0.43111005
-0.046790574 0.047870282 0.43089038
-0.04640422 0.047863621 0.43083975
-0.046023108 0.047862295 0.43083706
-0.04565398 0.047873516 0.43094727
-0.023963071 0.047059305 0.42400154
-0.023582809 0.047045778 0.42388436
-0.023207216 0.047041297 0.42384854
-0.022829548 0.04703239 0.42377272
-0.022456331 0.047032513 0.42377824
-0.022079404 0.047024738 0.42371249
-0.021694837 0.047000144 0.42349511
-0.021309774 0.046973597 0.42326006
-0.020938234 0.046976447 0.42328981
-0.020554315 0.046951126 0.42306563
-0.020173347 0.04693174 0.42289484
-0.019806752 0.046945684 0.42302433
-0.019427771 0.04693025 0.42288893
-0.01904724 0.04691039 0.42271367
-0.018666694 0.046889711 0.42253089
-0.018288061 0.046873089 0.42238465
-0.017917251 0.046876244 0.42241648
-0.017541338 0.046865899 0.42232659
-0.017166201 0.046857227 0.4222517
-0.016792003 0.046850797 0.42219692
-0.016415069 0.046836264 0.4220691
-0.016033461 0.046807423 0.42181218
-0.015656529 0.046791185 0.42166877
-0.015281945 0.046781346 0.42158291
-0.014906635 0.046768736 0.4214721
-0.014533806 0.046763472 0.42142734
-0.01415553 0.046739951 0.42121798
-0.013780572 0.046726417 0.42109853
-0.013406378 0.046714786 0.42099616
-0.013033118 0.046705857 0.42091802
-0.012657424 0.046687417 0.42075416
-0.012284545 0.046678565 0.42067662
-0.011909701 0.046661478 0.42052469
-0.01153718 0.046652675 0.42044741
-0.011165475 0.046646703 0.42039558
-0.010791753 0.046631616 0.42026144
-0.010417545 0.046613276 0.42009801
-0.010044632 0.046599597 0.41997641
-0.0096734101 0.046593025 0.41991884
-0.0093006566 0.046578251 0.41978723
-0.0089299269 0.046572823 0.41973975
-0.0085585201 0.046563242 0.41965482
-0.0081904475 0.04657175 0.41973281
-0.007822088 0.046579365 0.41980267
-0.0074527608 0.046581686 0.41982475
-0.0070850221 0.046594705 0.41994315
-0.062327594 0.04881582 0.43550277
-0.06194694 0.048818711 0.43554083
-0.061565876 0.048821308 0.43557623
-0.061159998 0.048804145 0.43543524
-0.060749952 0.048783407 0.43526226
-0.06035509 0.048774686 0.43519643
-0.059941236 0.048750401 0.43499166
-0.059550714 0.048744906 0.43495449
-0.059151463 0.04873215 0.43485245
-0.058752187 0.048719205 0.43474859
-0.058358964 0.048711147 0.4346883
-0.057952046 0.048691466 0.43452427
-0.057575364 0.04869711 0.43458605
-0.057208255 0.048710972 0.4347212
-0.056823462 0.048709862 0.43472263
-0.056430832 0.048701979 0.4346635
-0.05604535 0.048700195 0.4346588
-0.055679072 0.048715197 0.43480378
-0.054510631 0.048699267 0.43469453
-0.054088198 0.048664156 0.43439195
-0.053664565 0.048627466 0.43407515
-0.053258855 0.048606601 0.43389952
-0.052861713 0.048593313 0.43379152
-0.052433454 0.048551016 0.43342441
-0.05195773 0.048463829 0.4326565
-0.051556285 0.048445143 0.43250003
-0.051178306 0.048448402 0.43253937
-0.050781414 0.048433665 0.43241796
-0.050390907 0.048424847 0.43234932
-0.049991801 0.048407566 0.43220508
-0.049578551 0.048376221 0.43193516
-0.049186949 0.048365667 0.43185079
-0.048803683 0.048363224 0.43183878
-0.048388459 0.048328821 0.43154126
-0.048015002 0.048335914 0.43161425
-0.047614269 0.048315443 0.43144104
-0.047221567 0.048302867 0.43133819
-0.046815354 0.048276145 0.43110898
-0.046418935 0.048259173 0.43096673
-0.046091054 0.048313763 0.43146351
-0.045723606 0.048327442 0.43159485
-0.023213854 0.047428638 0.42396057
-0.022838747 0.04742521 0.42393437
-0.022460716 0.04741548 0.42385185
-0.022083955 0.04740816 0.42379069
-0.021703817 0.047393214 0.42366132
-0.021326881 0.047384862 0.42359075
-0.020946357 0.047368098 0.42344499
-0.020564428 0.047347493 0.42326474
-0.020184197 0.047330104 0.42311323
-0.019813858 0.047335707 0.42316708
-0.019434452 0.047319435 0.4230254
-0.019056832 0.047306973 0.42291763
-0.018675901 0.047285624 0.42273039
-0.018294426 0.047262009 0.42252272
-0.017922455 0.047262471 0.42253029
-0.017544752 0.047247522 0.42239997
-0.017173512 0.047249697 0.42242271
-0.016796032 0.047234438 0.42228946
-0.016419908 0.047222391 0.42218482
-0.016041314 0.047202501 0.42201003
-0.015665559 0.047190227 0.42190322
-0.015291505 0.047182616 0.42183802
-0.014911951 0.047157228 0.42161381
-0.014541649 0.047160551 0.42164618
-0.014165383 0.047144197 0.42150259
-0.013792569 0.047138765 0.42145661
-0.013416872 0.047122911 0.42131725
-0.01303806 0.047094908 0.42106923
-0.01266567 0.047089145 0.42102
-0.012288635 0.047065228 0.42080837
-0.011916311 0.047058448 0.42074987
-0.011541284 0.047040209 0.42058885
-0.011170624 0.047039155 0.42058137
-0.010793868 0.04701148 0.4203358
-0.010425307 0.047018804 0.42040306
-0.010049894 0.046994623 0.42018858
-0.0096769314 0.046980496 0.42006391
-0.00930297 0.046960205 0.41988403
-0.008933166 0.046960093 0.41988456
-0.008561898 0.046951938 0.41981301
-0.0081919497 0.046950623 0.41980255
-0.0078237876 0.046959896 0.41988671
-0.0074551739 0.046967261 0.41995373
-0.0070870579 0.046978693 0.420057
-0.0067183659 0.046987358 0.42013547
-0.062353455 0.049220983 0.4356738
-0.06197558 0.049226228 0.43573248
-0.061602067 0.049235024 0.43582258
-0.061192732 0.049215127 0.43565857
-0.060795985 0.049205162 0.43558243
-0.060388483 0.049186312 0.43542755
-0.059977084 0.049164023 0.43524215
-0.059576839 0.049150649 0.43513563
-0.059170604 0.049132135 0.43498343
-0.058779765 0.049126249 0.43494299
-0.058379486 0.049112335 0.43483144
-0.058000896 0.049116608 0.43488082
-0.057571415 0.049077552 0.4345465
-0.057189237 0.049078573 0.43456692
-0.056806538 0.049079154 0.4345834
-0.056429673 0.049084827 0.43464488
-0.056055993 0.049093362 0.43473163
-0.055682294 0.04910199 0.43481916
-0.055296436 0.049099956 0.43481216
-0.054889705 0.049079228 0.43463954
-0.054481603 0.049056962 0.43445328
-0.054070923 0.049032051 0.43424347
-0.053663313 0.049009595 0.4340553
-0.053255357 0.048986487 0.43386132
-0.052848201 0.048963796 0.43367091
-0.052438207 0.048938118 0.43345398
-0.05197449 0.048861567 0.43278635
-0.051571138 0.048841048 0.43261492
-0.051190417 0.048841815 0.432632
-0.050805353 0.048838422 0.43261209
-0.050410341 0.048825346 0.43250635
-0.049992014 0.048789311 0.43219718
-0.049615096 0.04879345 0.43224376
-0.049210496 0.048770215 0.43204781
-0.048813432 0.048754156 0.43191531
-0.048419427 0.048740909 0.4318077
-0.048036985 0.048739191 0.43180212
-0.04764707 0.048729811 0.43172857
-0.047233257 0.048695631 0.43143523
-0.046845797 0.048688296 0.43137965
-0.046477899 0.048701324 0.43150443
-0.046104092 0.048708338 0.43157583
-0.022842113 0.047806118 0.4239876
-0.022465503 0.047799457 0.42393294
-0.022094594 0.047804918 0.42398566
-0.021713475 0.047788091 0.42384064
-0.021336483 0.047779921 0.42377234
-0.020953303 0.04775735 0.42357621
-0.020572361 0.047739163 0.42341888
-0.020191234 0.047719862 0.42325163
-0.0198182 0.047719333 0.42325073
-0.019442715 0.047712766 0.4231962
-0.019064644 0.047699474 0.42308196
-0.018690009 0.047694411 0.42304066
-0.018302185 0.047654815 0.42269292
-0.017929554 0.047653954 0.42268872
-0.017550975 0.047636915 0.4225409
-0.017178209 0.04763525 0.4225294
-0.016804148 0.047629844 0.42248461
-0.016424056 0.047606725 0.42228267
-0.016054083 0.047612533 0.42233717
-0.015673194 0.04758548 0.42210016
-0.015296575 0.047570392 0.42196915
-0.014919961 0.047554575 0.42183161
-0.01454055 0.047528803 0.42160571
-0.014168458 0.04752624 0.42158556
-0.013794541 0.047517251 0.42150834
-0.013419742 0.047504634 0.42139891
-0.013043012 0.047484286 0.42122075
-0.012672571 0.047486309 0.42124096
-0.012296579 0.047467027 0.42107213
-0.011920838 0.047447547 0.42090145
-0.011547325 0.047435977 0.42080083
-0.011173516 0.047422372 0.42068213
-0.010802311 0.04741928 0.42065656
-0.010427289 0.047398612 0.42047504
-0.010052281 0.047376487 0.42028049
-0.0096802888 0.04736745 0.4202019
-0.0093087908 0.047360197 0.4201391
-0.0089364322 0.047347773 0.42003042
-0.0085660173 0.047345039 0.42000753
-0.0081944857 0.04733561 0.41992521
-0.0078252843 0.047339384 0.4199599
-0.007455972 0.047342829 0.41999164
-0.0070862011 0.047343578 0.41999933
-0.0067182439 0.047357194 0.42012113
-0.0063506332 0.04737499 0.42027992
-0.062701881 0.049577381 0.43540132
-0.062366344 0.049616143 0.43575406
-0.061999898 0.049630642 0.43589371
-0.061612491 0.049628433 0.43588653
-0.061209612 0.049613662 0.43576893
-0.060814038 0.049604669 0.43570197
-0.060412828 0.04959093 0.43559331
-0.060002498 0.04956948 0.43541679
-0.059594873 0.049550001 0.43525749
-0.059198391 0.049539603 0.43517795
-0.058801632 0.04952883 0.43509501
-0.058410458 0.049522653 0.43505234
-0.058026478 0.04952253 0.4350628
-0.057631887 0.049513303 0.43499321
-0.057189241 0.049462371 0.43455717
-0.056800667 0.049457844 0.43452868
-0.05642432 0.049463976 0.4345938
-0.056046195 0.049468629 0.43464583
-0.055665918 0.049471419 0.43468145
-0.055280261 0.049469449 0.43467516
-0.054893807 0.049466722 0.43466216
-0.05447448 0.049434129 0.43438667
-0.054077554 0.049421553 0.43428692
-0.053649116 0.049379785 0.43393064
-0.053255294 0.049369514 0.43385103
-0.0528211 0.049321391 0.43343869
-0.052439641 0.049322173 0.43345606
-0.05197975 0.049248658 0.43282038
-0.05158538 0.049236588 0.4327246
-0.051199287 0.0492323 0.43269718
-0.050815225 0.049229916 0.43268636
-0.050411317 0.049208123 0.43250492
-0.050024811 0.049203116 0.43247095
-0.049631607 0.049191393 0.43237787
-0.049229387 0.049170479 0.43220389
-0.048844051 0.049166244 0.43217644
-0.048437294 0.049140204 0.43195727
-0.048041902 0.049125377 0.43183658
-0.047661494 0.049125757 0.43184945
-0.047260195 0.049104437 0.43167153
-0.046886258 0.049111433 0.43174243
-0.046509873 0.049115956 0.43179154
-0.022472022 0.048187312 0.4240467
-0.022100056 0.048190743 0.42408118
-0.02172346 0.048184026 0.42402631
-0.021349637 0.048183329 0.42402431
-0.020971509 0.048172727 0.42393506
-0.020582421 0.0481361 0.42361674
-0.020204399 0.048124485 0.42351842
-0.019825442 0.048110165 0.4233962
-0.019453019 0.048111461 0.42341134
-0.019071128 0.048088934 0.42321676
-0.018699121 0.048090924 0.42323786
-0.018316031 0.048063915 0.42300367
-0.017941877 0.048059728 0.42297021
-0.017558955 0.048031371 0.42272398
-0.017181268 0.048016425 0.42259571
-0.016806157 0.048008177 0.42252627
-0.016433852 0.048007742 0.42252555
-0.01605737 0.047994822 0.42241484
-0.015683429 0.047989052 0.42236698
-0.015302999 0.047962666 0.42213762
-0.014925784 0.047945295 0.42198744
-0.014548056 0.047925353 0.42181465
-0.014175504 0.047921866 0.42178655
-0.01380383 0.047921237 0.42178357
-0.013424587 0.047893573 0.42154253
-0.013049682 0.047880255 0.42142764
-0.012675978 0.047870696 0.4213458
-0.012302692 0.047862187 0.42127311
-0.011926188 0.047840241 0.42108205
-0.011551131 0.047822878 0.42093125
-0.011177042 0.047808509 0.42080677
-0.010807398 0.047812816 0.42084652
-0.010434837 0.047804072 0.42077136
-0.010057877 0.04777379 0.42050654
-0.0096851857 0.047762249 0.42040658
-0.0093149822 0.04776255 0.42041081
-0.0089401435 0.04773812 0.42019725
-0.0085693439 0.047734085 0.42016312
-0.0081977304 0.047724951 0.42008406
-0.0078275902 0.047723949 0.42007646
-0.0074578295 0.047725264 0.42008919
-0.0070890342 0.047733225 0.42016032
-0.006718934 0.0477328 0.42015755
-0.0063510519 0.047749005 0.42030108
-0.0059815808 0.04775453 0.42035055
-0.062872216 0.050097793 0.43657428
-0.06242409 0.050047427 0.43614775
-0.062071908 0.050073832 0.4363901
-0.061648022 0.050042361 0.43612805
-0.061259955 0.050039757 0.4361175
-0.060841437 0.050012089 0.43588841
-0.060434628 0.049993757 0.43574059
-0.060051437 0.049994849 0.43576205
-0.059640929 0.049973071 0.43558404
-0.059228074 0.049949031 0.43538627
-0.058830649 0.049937773 0.43529984
-0.058438208 0.049930628 0.43524918
-0.058052558 0.049929235 0.43524852
-0.057659302 0.049921226 0.43519023
-0.057217915 0.049871165 0.43476519
-0.056802187 0.04984295 0.4345305
-0.056419354 0.049843404 0.4345457
-0.056029737 0.049837835 0.43450829
-0.055648204 0.04983943 0.4345333
-0.055258155 0.049833365 0.43449146
-0.054870974 0.049829826 0.43447155
-0.054468289 0.049812052 0.43432745
-0.054051753 0.049781278 0.43406984
-0.053634353 0.049749259 0.43380138
-0.053252056 0.049749572 0.43381479
-0.052857697 0.049738545 0.43372914
-0.052447684 0.049712516 0.43351266
-0.052020043 0.049669273 0.433146
-0.051626939 0.049658615 0.43306336
-0.051231842 0.049645867 0.43296245
-0.050834555 0.049630795 0.43284112
-0.050453026 0.049630988 0.43285292
-0.050058421 0.049618226 0.43275166
-0.049660843 0.049602296 0.43262264
-0.049250789 0.04957357 0.43238196
-0.048858277 0.049562182 0.43229246
-0.048476655 0.049561758 0.43229842
-0.048072223 0.049537819 0.43209928
-0.04769364 0.049540345 0.43213087
-0.047308572 0.049536124 0.43210351
-0.046993162 0.049605366 0.43271694
-0.02210452 0.048574567 0.42415753
-0.021733163 0.048579678 0.42420638
-0.021354437 0.048568208 0.42411035
-0.020981941 0.048570756 0.42413667
-0.020593906 0.04853677 0.42384386
-0.020215271 0.048524093 0.42373708
-0.019835809 0.048508927 0.42360845
-0.019463431 0.048510827 0.42362878
-0.01908108 0.048487462 0.42342842
-0.018705415 0.048480496 0.42337117
-0.018326571 0.048464842 0.42323798
-0.017950153 0.048455097 0.42315626
-0.017572479 0.048441466 0.42304057
-0.017193535 0.048423667 0.42288837
-0.016813945 0.048403233 0.42271307
-0.016437495 0.048391107 0.42261025
-0.016062561 0.048382986 0.42254239
-0.015688969 0.048378635 0.42250729
-0.015307698 0.048349813 0.42225841
-0.014934534 0.048345789 0.42222607
-0.014557987 0.048330337 0.42209381
-0.014181154 0.048313111 0.42194596
-0.013806857 0.048303824 0.42186737
-0.013433966 0.048299085 0.42182839
-0.013054065 0.048268158 0.42156067
-0.012682483 0.048267074 0.42155349
-0.012305632 0.048245281 0.42136535
-0.011933761 0.048242252 0.42134103
-0.011556876 0.04821812 0.4211323
-0.011187281 0.048223812 0.42118397
-0.01081008 0.048195984 0.42094281
-0.010437714 0.048188508 0.4208793
-0.010064683 0.048177298 0.4207831
-0.0096909236 0.048161618 0.42064777
-0.0093189022 0.048153665 0.42057985
-0.0089448476 0.048134126 0.42041066
-0.0085730292 0.04812545 0.42033631
-0.0081995167 0.048106045 0.42016813
-0.0078302752 0.04811107 0.42021322
-0.0074587557 0.048101891 0.42013422
-0.0070909192 0.048116747 0.42026508
-0.0067209797 0.048118196 0.4202787
-0.0063518537 0.048125979 0.4203476
-0.062896587 0.050503094 0.43673357
-0.062472027 0.050471496 0.43647268
-0.06208384 0.050469078 0.43646404
-0.061672624 0.050447792 0.43629217
-0.061287854 0.050448012 0.43630621
-0.06087796 0.050427418 0.43614015
-0.060477097 0.050414089 0.43603685
-0.060058545 0.050385755 0.43580368
-0.059663132 0.050376594 0.4357363
-0.059257567 0.050358687 0.43559316
-0.058857981 0.050345656 0.43549213
-0.058449022 0.050324392 0.43531978
-0.058079358 0.050336894 0.4354395
-0.057669628 0.050314613 0.43525821
-0.057258204 0.050290547 0.4350614
-0.05683662 0.050257172 0.43478397
-0.056429602 0.050236311 0.43461472
-0.056036614 0.050227735 0.43455169
-0.055662435 0.050236024 0.43463448
-0.05526264 0.050221149 0.43451682
-0.054861851 0.050205156 0.43438935
-0.054446988 0.050175965 0.43414766
-0.054028258 0.050142776 0.43387124
-0.053639609 0.050137226 0.43383396
-0.053267337 0.050147019 0.43392932
-0.052874506 0.05013746 0.43385711
-0.052467395 0.050114121 0.43366566
-0.052054957 0.050085314 0.43342677
-0.051657666 0.050070763 0.43331119
-0.0512533 0.050049089 0.43313384
-0.050866421 0.050044287 0.43310252
-0.050461903 0.050021939 0.43291914
-0.050060518 0.05000237 0.43275979
-0.049668767 0.049992204 0.43268177
-0.049272176 0.049976967 0.43255976
-0.048885319 0.04997145 0.43252179
-0.048498448 0.049965829 0.43248281
-0.048107009 0.049955379 0.43240201
-0.047716983 0.049946241 0.43233246
-0.047369808 0.049982164 0.43265289
-0.046974011 0.049966954 0.43253064
-0.02136327 0.048962492 0.42427641
-0.020984732 0.048951332 0.42418373
-0.020605808 0.048938848 0.42407951
-0.020224111 0.048919197 0.42391312
-0.019849831 0.048917077 0.42389855
-0.019472528 0.048907295 0.42381755
-0.0190887 0.048880417 0.42358828
-0.018711548 0.048869912 0.42350081
-0.018333567 0.048856761 0.42339036
-0.017955303 0.048842303 0.4232685
-0.01757797 0.04882982 0.42316359
-0.017202238 0.048821334 0.42309335
-0.016824281 0.048806027 0.42296383
-0.01645023 0.048801612 0.42292869
-0.016072061 0.048784487 0.42278332
-0.015696051 0.048773274 0.42268902
-0.015322191 0.048768353 0.42264923
-0.014944595 0.048751008 0.42250168
-0.014564797 0.048725408 0.42228249
-0.01418815 0.048709281 0.42214537
-0.01381353 0.048699439 0.42206258
-0.013439624 0.048691634 0.42199737
-0.013064733 0.048679721 0.42189652
-0.012688337 0.048661351 0.42173952
-0.012313749 0.048648998 0.4216347
-0.011937065 0.048627358 0.42144924
-0.011561489 0.048608977 0.42129204
-0.011191901 0.0486154 0.42134961
-0.010815128 0.048589975 0.42113113
-0.010443932 0.048588701 0.4211219
-0.010067378 0.048561484 0.42088774
-0.0096957805 0.048557013 0.4208506
-0.0093251402 0.048557173 0.42085356
-0.0089502558 0.048534341 0.4206571
-0.0085745696 0.048504993 0.42040417
-0.0082035726 0.048500728 0.42036849
-0.0078316117 0.048490096 0.4202776
-0.0074609448 0.048486818 0.4202503
-0.0070918459 0.048493929 0.42031303
-0.0067212754 0.048491199 0.42029038
-0.0063529569 0.048505358 0.42041397
-0.062492207 0.050873574 0.43660372
-0.062103268 0.050870616 0.43659067
-0.061705604 0.050860438 0.43651551
-0.061314352 0.050855454 0.43648484
-0.060923137 0.050850432 0.43645379
-0.060513556 0.050829925 0.43628976
-0.060100313 0.050806057 0.43609679
-0.05968279 0.050778236 0.43586984
-0.059276983 0.05076009 0.43572584
-0.058883343 0.050752204 0.43566981
-0.058477357 0.050733492 0.43552077
-0.058100495 0.050739966 0.43558791
-0.057698682 0.050724603 0.43546745
-0.057293992 0.050706487 0.4353233
-0.056880627 0.050680391 0.4351106
-0.056459457 0.050646935 0.4348346
-0.056064826 0.050637003 0.43476051
-0.055680688 0.05063647 0.43476701
-0.055298813 0.050638009 0.43479118
-0.05488503 0.050610136 0.43456283
-0.054485761 0.050595358 0.43444678
-0.054080922 0.050575159 0.43428412
-0.053662956 0.05054231 0.43401277
-0.053289078 0.050550815 0.4340964
-0.052892469 0.050537717 0.43399447
-0.052501466 0.050529826 0.43393722
-0.052105565 0.050517078 0.4338381
-0.051696479 0.050491266 0.43362674
-0.051288497 0.05046615 0.43342128
-0.050888885 0.05044895 0.43328375
-0.05048326 0.050425492 0.43309236
-0.050108775 0.05043301 0.43316695
-0.049707484 0.050413467 0.43300903
-0.049305134 0.050392535 0.43283913
-0.048904944 0.050373502 0.43268543
-0.048522659 0.050372761 0.43268874
-0.048129175 0.050360277 0.4325912
-0.047756471 0.050369531 0.43268019
-0.047396429 0.050392378 0.43288597
-0.020991834 0.049342152 0.42431787
-0.020619737 0.049346216 0.42435679
-0.020232126 0.049312614 0.42407176
-0.019855462 0.049304932 0.4240095
-0.019479344 0.049298339 0.42395654
-0.019098828 0.049280144 0.42380372
-0.018720968 0.049268216 0.42370471
-0.01833909 0.049245011 0.42350864
-0.01796606 0.049245104 0.42351288
-0.017585361 0.049223728 0.42333233
-0.01720464 0.049201366 0.42314327
-0.016834807 0.049209841 0.42321932
-0.016457744 0.049197093 0.42311278
-0.016078332 0.049176566 0.42293927
-0.015701987 0.049164668 0.42283988
-0.015327395 0.049157821 0.42278382
-0.014949091 0.049138431 0.42261982
-0.014574315 0.049129948 0.42254955
-0.014196114 0.049109168 0.42237344
-0.013820496 0.049096454 0.42226663
-0.01344167 0.049071316 0.42205286
-0.013067852 0.049063563 0.42198855
-0.012694116 0.049055673 0.42192295
-0.012320197 0.04904658 0.42184696
-0.011941176 0.049015976 0.42158586
-0.011569074 0.049012735 0.42155999
-0.011193871 0.048995696 0.42141542
-0.010820569 0.048986096 0.42133468
-0.010446355 0.048971549 0.42121139
-0.010072456 0.04895746 0.42109188
-0.0096987877 0.048943464 0.42097315
-0.0093256049 0.048930902 0.42086664
-0.0089531355 0.048921194 0.42078465
-0.0085814139 0.048914924 0.42073208
-0.0082087666 0.048902571 0.42062718
-0.00783474 0.048880443 0.42043808
-0.0074643674 0.048880059 0.42043588
-0.0070923679 0.048868414 0.42033681
-0.0067240628 0.048882365 0.42045781
-0.0063544507 0.048887882 0.42050618
-0.0059866346 0.048908763 0.4206866
-0.062905669 0.051282264 0.43677658
-0.062529668 0.051290065 0.43685538
-0.062118147 0.051268648 0.4366852
-0.061724991 0.051262211 0.43664259
-0.061336156 0.051259305 0.43662995
-0.060936376 0.051247157 0.43653855
-0.060539853 0.05123762 0.43646926
-0.060136274 0.051221941 0.4363476
-0.059724264 0.051198836 0.43616262
-0.059306983 0.051170893 0.4359363
-0.058896851 0.05114878 0.43575963
-0.058512021 0.051148504 0.43576887
-0.05812538 0.05114663 0.43576443
-0.057709284 0.051118638 0.4355374
-0.057312764 0.051107727 0.4354558
-0.056909353 0.05109049 0.43532026
-0.056483772 0.051052965 0.43501177
-0.056106638 0.051059034 0.43507463
-0.055707537 0.051045049 0.43496653
-0.055327523 0.05104848 0.4350068
-0.054901585 0.051009297 0.4346838
-0.054508891 0.051000662 0.4346211
-0.054091878 0.050969001 0.43436202
-0.053697627 0.050958481 0.43428308
-0.053316932 0.050960764 0.43431321
-0.052907113 0.050935049 0.43410456
-0.05251357 0.050924737 0.43402717
-0.052110739 0.050905209 0.43387112
-0.051717181 0.050894521 0.43379033
-0.051307879 0.050868053 0.43357497
-0.050902978 0.050845586 0.43339366
-0.050526805 0.050851699 0.43345585
-0.050122749 0.050829623 0.43327767
-0.049733907 0.050822757 0.43322909
-0.049329311 0.050799564 0.43304127
-0.048928998 0.050780453 0.43288812
-0.048546098 0.050779253 0.43288764
-0.048154868 0.050769266 0.43281206
-0.047779929 0.050776426 0.43288267
-0.047424551 0.050804649 0.43313277
-0.020999407 0.049734332 0.42446142
-0.020620411 0.04972212 0.42436114
-0.020240678 0.049707644 0.42424151
-0.019865619 0.049704328 0.42421702
-0.01949133 0.049702834 0.42420802
-0.019112159 0.049688593 0.42409012
-0.018729916 0.049665652 0.42389789
-0.018354174 0.04965936 0.42384768
-0.017972101 0.049635325 0.42364597
-0.017592877 0.0496183 0.42350399
-0.017212443 0.049597058 0.42332593
-0.016839972 0.049598332 0.42333996
-0.016463635 0.049588028 0.42325509
-0.01608992 0.049585313 0.42323491
-0.015706161 0.04955079 0.42294317
-0.015331127 0.049542785 0.42287773
-0.01495476 0.049529973 0.4227711
-0.01457799 0.049515136 0.42264715
-0.014204 0.049509212 0.42259923
-0.013828903 0.049499001 0.42251456
-0.013453169 0.049485896 0.42240515
-0.013076752 0.04946946 0.4222672
-0.012696492 0.049437098 0.42199326
-0.012321016 0.049421974 0.42186636
-0.011951421 0.04943024 0.42193902
-0.011574089 0.049406007 0.42173421
-0.011199511 0.049392316 0.4216193
-0.010828205 0.049392615 0.42162371
-0.010453282 0.049375858 0.42148244
-0.010078966 0.049360827 0.4213559
-0.0097005302 0.049323712 0.42104068
-0.0093296301 0.049323488 0.42104033
-0.0089604361 0.049332634 0.42111987
-0.0085840896 0.049301501 0.42085549
-0.0082124043 0.049295537 0.4208059
-0.0078379586 0.049271666 0.42060333
-0.0074688778 0.049280819 0.42068264
-0.0070965262 0.049268223 0.42057618
-0.0067256032 0.04926471 0.42054719
-0.0063576703 0.04928397 0.42071253
-0.0059875017 0.049287215 0.42074105
-0.0056191026 0.049306415 0.42090571
-0.0052507771 0.049329031 0.42109942
-0.062938415 0.051695101 0.43699384
-0.062553786 0.051695995 0.43701372
-0.06217226 0.051699482 0.43705544
-0.061770733 0.051686279 0.43695602
-0.061363209 0.051667858 0.4368124
-0.060965061 0.051657148 0.4367339
-0.060558371 0.05163902 0.43659261
-0.060168229 0.051634852 0.43656933
-0.059740443 0.051598135 0.43627068
-0.05934263 0.051586982 0.43618813
-0.058930643 0.051563293 0.43599951
-0.058538478 0.051556747 0.43595576
-0.05814423 0.051548265 0.43589556
-0.057737015 0.0515281 0.43573651
-0.057337455 0.051514544 0.43563327
-0.056924239 0.051488455 0.43542394
-0.056523718 0.051473573 0.43530929
-0.056122553 0.051457893 0.43518788
-0.055740941 0.05146005 0.43521717
-0.055328354 0.051433444 0.43500316
-0.054934941 0.051424414 0.43493775
-0.054525383 0.051400043 0.43474245
-0.054129843 0.051388633 0.43465671
-0.053715255 0.051358849 0.43441549
-0.053330846 0.051357698 0.43441635
-0.052940544 0.051350817 0.4343687
-0.052536715 0.051330615 0.4342083
-0.05214411 0.051321167 0.4341388
-0.051726766 0.051287051 0.43386051
-0.05133488 0.051277854 0.43379298
-0.050943989 0.051269531 0.43373266
-0.05055058 0.051258519 0.43364963
-0.050140653 0.051230464 0.4334223
-0.049748108 0.051219877 0.43334267
-0.049350362 0.051203728 0.43321589
-0.048967201 0.051202584 0.43321598
-0.048551843 0.051167484 0.43292871
-0.04819281 0.051191662 0.4331429
-0.04782914 0.05121126 0.43331829
-0.047465034 0.05123071 0.43349233
-0.020628676 0.050116498 0.42452168
-0.020254044 0.050114911 0.42451215
-0.019878305 0.050110474 0.42447838
-0.019495467 0.050087623 0.42428854
-0.019121587 0.050087355 0.42428994
-0.018741949 0.05007169 0.42416081
-0.018361351 0.050052766 0.42400399
-0.017982498 0.050037924 0.42388168
-0.017600007 0.050012112 0.42366636
-0.01722599 0.050009783 0.42364988
-0.01684632 0.049990572 0.42349029
-0.016467176 0.049972091 0.42333686
-0.016091594 0.049963824 0.42326981
-0.015716188 0.049955718 0.42320406
-0.015338657 0.049940307 0.42307636
-0.014962456 0.049928561 0.42297962
-0.014583735 0.049907595 0.42280465
-0.014208785 0.049898773 0.42273253
-0.013833856 0.049889565 0.42265701
-0.013459996 0.049883794 0.42261058
-0.013081111 0.049858559 0.42239913
-0.012707665 0.049853176 0.42235583
-0.012332236 0.049839463 0.42224187
-0.011955708 0.049820311 0.42208174
-0.011583502 0.049818531 0.42206866
-0.011204668 0.049787167 0.42180493
-0.010827408 0.049760908 0.42158428
-0.010456882 0.049764827 0.4216193
-0.010086335 0.049768925 0.42165574
-0.0097082919 0.049734939 0.42136943
-0.0093364026 0.049731039 0.42133796
-0.0089627169 0.049716845 0.42121917
-0.0085902093 0.049708247 0.4211477
-0.0082149971 0.049682528 0.42093113
-0.0078428704 0.049673915 0.42085937
-0.0074699176 0.049658965 0.42073387
-0.0070988545 0.049655672 0.42070702
-0.0067291292 0.049661893 0.42076072
-0.0063590896 0.04966639 0.4207997
-0.0059894547 0.049674798 0.42087179
-0.0056198826 0.049684875 0.42095792
-0.0052501415 0.049694784 0.42104253
-0.0048807403 0.049709667 0.42116922
-0.062976114 0.052112445 0.4372454
-0.062593482 0.052115198 0.43728086
-0.062192753 0.05210283 0.43718931
-0.061792687 0.052090857 0.43710107
-0.061400477 0.052085411 0.43706745
-0.061014734 0.052085411 0.43707949
-0.060584545 0.05204723 0.43677109
-0.060197681 0.052046012 0.43677279
-0.059767738 0.052007303 0.43645975
-0.059369199 0.051995594 0.4363732
-0.058957167 0.051971842 0.43618551
-0.058568265 0.051968288 0.43616736
-0.058166914 0.05195358 0.43605539
-0.057790786 0.051961347 0.43613207
-0.057366405 0.051925551 0.43584302
-0.056950253 0.051896766 0.43561271
-0.056551326 0.051883392 0.43551165
-0.056154154 0.051871464 0.43542266
-0.055765647 0.051867425 0.43539983
-0.055358451 0.051845834 0.43522957
-0.054957349 0.051829677 0.43510491
-0.054566011 0.051822573 0.43505612
-0.054158438 0.051799845 0.43487608
-0.053751253 0.051777165 0.43469635
-0.053363647 0.051773153 0.43467331
-0.052961249 0.051754631 0.43452835
-0.052567337 0.051744189 0.43445116
-0.052172221 0.051732402 0.43436259
-0.051762581 0.051705938 0.43415067
-0.051360995 0.051687181 0.43400341
-0.050957367 0.05166607 0.43383634
-0.050566975 0.051658165 0.43378001
-0.050177723 0.05165131 0.43373248
-0.049772631 0.051627927 0.43354604
-0.049376916 0.051613972 0.43343875
-0.048974447 0.051592696 0.43326983
-0.048579637 0.051579211 0.4331663
-0.048202351 0.051584274 0.43321845
-0.047855113 0.051621828 0.43354338
-0.047510322 0.051662646 0.43389568
-0.020259401 0.05050271 0.42461485
-0.019880993 0.050491713 0.42452618
-0.019501828 0.050478335 0.42441744
-0.019132998 0.050491713 0.42453361
-0.01874716 0.050459851 0.42426926
-0.01836971 0.050449722 0.4241876
-0.017989686 0.050431959 0.42404166
-0.017615866 0.050431211 0.42403868
-0.017238634 0.050420448 0.42395145
-0.016853815 0.050386529 0.4236694
-0.016478516 0.050380182 0.42361912
-0.016100723 0.050365739 0.42350066
-0.015722895 0.050350498 0.42337546
-0.015346272 0.050338473 0.4232772
-0.014970401 0.050328381 0.42319509
-0.01458881 0.05029805 0.42294273
-0.014214323 0.050291266 0.42288828
-0.013840457 0.050286375 0.42284968
-0.013464388 0.050272994 0.42273962
-0.013088356 0.05025899 0.4226242
-0.012714365 0.05025224 0.42256972
-0.012339233 0.050240435 0.42247266
-0.011961273 0.050216023 0.42226949
-0.011589496 0.050216842 0.4222784
-0.011212252 0.050193239 0.42208189
-0.010838243 0.050183006 0.42199773
-0.010459624 0.050149936 0.42172143
-0.010088257 0.050150495 0.42172781
-0.0097146584 0.050139569 0.42163756
-0.0093397042 0.050120506 0.42147881
-0.0089675961 0.050115775 0.42144051
-0.0085918093 0.050089192 0.42121837
-0.0082202731 0.050086111 0.42119375
-0.0078454046 0.050061475 0.42098778
-0.0074724462 0.050047196 0.42086887
-0.0071010282 0.050042283 0.42082861
-0.0067299395 0.05003928 0.42080435
-0.006359959 0.050044652 0.42085043
-0.0059905425 0.0500554 0.42094168
-0.0056196107 0.050054081 0.42093131
-0.005251185 0.050076474 0.42112026
-0.0048793736 0.050067537 0.42104572
-0.0045104185 0.050088856 0.42122549
-0.063020483 0.05253581 0.43754315
-0.062601015 0.052507915 0.43732318
-0.062224157 0.052515637 0.43739974
-0.061830647 0.052509319 0.4373593
-0.061429322 0.05249624 0.43726248
-0.061027717 0.05248275 0.43716219
-0.06062464 0.05246783 0.43704987
-0.060226273 0.052456807 0.43696994
-0.05980248 0.052423354 0.43670312
-0.0594167 0.052423012 0.43671203
-0.058991645 0.052387789 0.43643031
-0.058597784 0.052379988 0.4363769
-0.058193911 0.052363075 0.4362475
-0.057788797 0.052344806 0.43610674
-0.057394478 0.052336145 0.43604594
-0.05699724 0.052324682 0.43596175
-0.056581907 0.05229634 0.43573684
-0.056185707 0.052285418 0.43565699
-0.055776298 0.052261975 0.43547273
-0.055402052 0.05227137 0.43556201
-0.054986134 0.052241318 0.43532252
-0.054573927 0.052214392 0.43510896
-0.054177299 0.052202091 0.43501723
-0.053781528 0.052190449 0.43493092
-0.053383388 0.052176315 0.43482378
-0.052972272 0.052149214 0.43460846
-0.052591387 0.052151699 0.43463963
-0.0521846 0.052128337 0.43445534
-0.051789559 0.052116454 0.43436661
-0.05138379 0.052093521 0.43418571
-0.050992034 0.052084561 0.43412116
-0.050588004 0.052062832 0.43395013
-0.050199393 0.052056756 0.43390951
-0.049801327 0.052040711 0.43378568
-0.049406894 0.052028239 0.43369159
-0.04899288 0.051994793 0.43342257
-0.048627242 0.05201257 0.43358049
-0.048218291 0.051983941 0.4333514
-0.047870547 0.052021354 0.43367288
-0.019889787 0.050888687 0.42470437
-0.019510329 0.050874878 0.42459285
-0.019137572 0.050878353 0.42462555
-0.018755268 0.05085608 0.42444322
-0.018375661 0.050840363 0.42431551
-0.017992206 0.050813127 0.42409161
-0.017617993 0.050811384 0.4240804
-0.017241158 0.050801851 0.42400408
-0.016865071 0.050794147 0.42394295
-0.016488533 0.050784703 0.42386723
-0.016107088 0.050759364 0.42365876
-0.015732616 0.050755322 0.42362794
-0.01535762 0.05074935 0.42358094
-0.014977621 0.050726138 0.42338994
-0.014599637 0.050708748 0.42324746
-0.014219426 0.050682496 0.42303097
-0.013846564 0.050681744 0.42302722
-0.013467908 0.050659154 0.4228411
-0.013093286 0.050650891 0.42277446
-0.012715213 0.050628394 0.422589
-0.01234345 0.050630432 0.42260823
-0.011965261 0.05060542 0.42240152
-0.011591266 0.050597105 0.42233419
-0.011218853 0.050595392 0.4223218
-0.010840977 0.050568067 0.4220956
-0.010470361 0.050573874 0.4221459
-0.010092288 0.050542768 0.42188793
-0.0097185737 0.05053195 0.42179924
-0.0093426052 0.050508086 0.42160162
-0.0089696199 0.050499044 0.42152762
-0.0085967239 0.050489742 0.42145136
-0.0082251076 0.050487466 0.42143366
-0.0078488933 0.050455425 0.42116746
-0.0074775089 0.050452784 0.42114657
-0.0071031237 0.050428573 0.42094553
-0.0067327651 0.050431866 0.42097399
-0.006360712 0.050422102 0.42089343
-0.0059923427 0.050442159 0.42106161
-0.0056219469 0.050446659 0.42109996
-0.0052511618 0.050448075 0.42111242
-0.0048822691 0.050469272 0.42128998
-0.063035458 0.05293503 0.43763676
-0.062644504 0.052931104 0.43761662
-0.062273726 0.052944288 0.43773785
-0.061861761 0.052922394 0.43756902
-0.061460372 0.05290933 0.43747315
-0.061038323 0.052878201 0.43722782
-0.060656887 0.05288209 0.43727195
-0.060241859 0.052856557 0.43707269
-0.059833668 0.052836727 0.43692052
-0.059439298 0.052828927 0.43686777
-0.059024233 0.052802514 0.43666101
-0.058611564 0.052777909 0.43646914
-0.058205906 0.052759331 0.43632704
-0.057817247 0.052756015 0.43631107
-0.057428408 0.052752495 0.43629333
-0.05700399 0.052716032 0.43600303
-0.056624044 0.052720465 0.43605095
-0.056204442 0.052687794 0.43579188
-0.055811554 0.052679893 0.43573758
-0.055409189 0.052662872 0.43560779
-0.055013362 0.052651871 0.43552771
-0.054623064 0.052646033 0.43549031
-0.0542087 0.052616771 0.43525898
-0.053793345 0.052586116 0.4350161
-0.053401172 0.052577842 0.43495825
-0.053003684 0.052564181 0.43485582
-0.052621573 0.052565686 0.43487871
-0.052207161 0.052534707 0.43463278
-0.051809095 0.052519836 0.43452007
-0.051395819 0.052489214 0.43427694
-0.051007982 0.052484311 0.43424654
-0.050603744 0.052462325 0.43407473
-0.050216261 0.052457515 0.43404496
-0.049821857 0.052445341 0.43395412
-0.049444359 0.052450914 0.43401006
-0.049021825 0.05240842 0.43366829
-0.048645146 0.052414682 0.43372974
-0.04829409 0.052448861 0.43402222
-0.047929429 0.052468691 0.43419594
-0.019894928 0.051276572 0.42480445
-0.019520948 0.051277317 0.42481434
-0.019144261 0.051270835 0.42476428
-0.018767286 0.051263314 0.42470554
-0.01838498 0.051240627 0.42452109
-0.018002961 0.051217817 0.42433551
-0.017621376 0.051195305 0.42415234
-0.017244719 0.051186446 0.42408219
-0.016871048 0.051186252 0.42408374
-0.016493505 0.051174033 0.42398563
-0.016116597 0.051163271 0.42389947
-0.015742062 0.051159721 0.42387295
-0.015363342 0.051142056 0.42372942
-0.01498314 0.051118467 0.42353675
-0.014603126 0.05109432 0.42333937
-0.014229904 0.051093306 0.42333359
-0.013854227 0.051083189 0.42325222
-0.013472355 0.051049024 0.42297161
-0.013102525 0.051059861 0.42306376
-0.012723847 0.05103584 0.422867
-0.012348599 0.051024541 0.42277557
-0.011971803 0.051005956 0.42262369
-0.011596038 0.050990701 0.42249933
-0.011220978 0.050977647 0.42239311
-0.010845303 0.050960802 0.42225543
-0.01047254 0.050956938 0.42222521
-0.010099858 0.050953202 0.42219597
-0.0097220065 0.050922107 0.42193994
-0.0093470598 0.05090436 0.42179444
-0.0089760721 0.050907601 0.42182276
-0.0086000785 0.050881498 0.42160788
-0.0082280571 0.050877616 0.42157704
-0.0078542475 0.050861787 0.42144707
-0.0074799405 0.050841004 0.421276
-0.0071057705 0.050819043 0.4210951
-0.006734902 0.050819568 0.42110047
-0.0063631269 0.050812922 0.42104629
-0.0059912498 0.050804604 0.42097819
-0.0056216102 0.050815403 0.42106843
-0.0052531371 0.050839033 0.42126486
-0.0048837289 0.050856516 0.42141032
-0.063063063 0.053345133 0.43781799
-0.062684394 0.053351767 0.43788484
-0.062301479 0.053354859 0.43792245
-0.061884206 0.053328384 0.43771732
-0.061464936 0.053299844 0.43749517
-0.06107375 0.053295445 0.43747112
-0.060689304 0.053296916 0.43749514
-0.060260635 0.053259324 0.43719846
-0.059866704 0.053252134 0.43715128
-0.059449453 0.053223982 0.43693191
-0.059050653 0.053212095 0.43684599
-0.058663897 0.053210977 0.4368484
-0.058238663 0.053174701 0.43656209
-0.057847511 0.053169273 0.43652898
-0.057447761 0.053155825 0.43642992
-0.057045709 0.05314004 0.43631163
-0.056642279 0.053122751 0.43618095
-0.056243882 0.053109981 0.43608722
-0.055834092 0.053086206 0.43590304
-0.055461951 0.05309815 0.43601212
-0.055016853 0.053039916 0.43554485
-0.05463944 0.053046577 0.43561041
-0.054246996 0.053038638 0.43555596
-0.053824294 0.053000793 0.43525589
-0.05343027 0.05299085 0.43518481
-0.053034481 0.052978992 0.43509799
-0.052632906 0.052961145 0.43496189
-0.052249297 0.052961245 0.43497312
-0.051837157 0.052932214 0.43474495
-0.051439241 0.052917384 0.43463343
-0.051032461 0.052893151 0.43444452
-0.050613124 0.052855432 0.43414477
-0.050251894 0.052878272 0.43434244
-0.049853101 0.05286165 0.43421578
-0.049450848 0.052841067 0.43405658
-0.049061708 0.052834284 0.43401062
-0.048701074 0.052858338 0.43421793
-0.048324332 0.052865151 0.43428352
-0.019521603 0.051653791 0.42481881
-0.019151136 0.05166408 0.42490712
-0.018775437 0.051660389 0.42488027
-0.018395269 0.051644005 0.42474902
-0.01801376 0.051623091 0.42458045
-0.017637489 0.051616628 0.4245306
-0.017253632 0.051587198 0.42429179
-0.016875932 0.051575292 0.42419702
-0.016500952 0.051571339 0.4241676
-0.016120818 0.05155072 0.42400104
-0.015746625 0.051548589 0.42398638
-0.015370197 0.051538844 0.42390913
-0.014990536 0.05151752 0.42373648
-0.014612501 0.051500827 0.42360187
-0.014235499 0.051487003 0.42349079
-0.013857329 0.051468097 0.42333779
-0.013480526 0.051453367 0.42321905
-0.013105983 0.051446669 0.42316633
-0.012730518 0.051435858 0.42307967
-0.012352672 0.05141449 0.4229061
-0.011977567 0.051403552 0.42281827
-0.011603498 0.051396508 0.42276233
-0.011225831 0.051372532 0.42256707
-0.010852115 0.051365618 0.42251205
-0.01047391 0.051336195 0.42227185
-0.010101932 0.051336274 0.4222742
-0.0097280191 0.051326148 0.42219254
-0.009353172 0.051310085 0.42206198
-0.0089776516 0.051288858 0.42188883
-0.008601455 0.051261764 0.42166737
-0.0082304645 0.051264662 0.42169249
-0.0078578945 0.051257521 0.421635
-0.007484192 0.051241934 0.42150792
-0.0071109501 0.051228035 0.42139462
-0.0067395419 0.051226553 0.42138341
-0.0063644811 0.05119551 0.42112896
-0.0059934929 0.051195424 0.42112908
-0.0056234668 0.051204085 0.42120111
-0.0052544256 0.051223576 0.4213621
-0.0048851017 0.051243074 0.42152303
-0.0045148581 0.051255345 0.42162451
-0.063094638 0.053758945 0.4380267
-0.062719777 0.053769071 0.43812153
-0.062329311 0.053765856 0.43810758
-0.061929815 0.053754762 0.43802938
-0.061514713 0.053729907 0.43783897
-0.061092384 0.053698383 0.43759409
-0.060693916 0.053687561 0.43751788
-0.060301993 0.053682435 0.43748799
-0.059887782 0.053657267 0.43729472
-0.059473764 0.053631943 0.43710005
-0.059072454 0.053617831 0.4369967
-0.058685992 0.053617105 0.43700239
-0.058280554 0.053598907 0.43686557
-0.057875507 0.053580835 0.43672976
-0.057470843 0.053562876 0.43659472
-0.057077453 0.053555261 0.43654391
-0.05666437 0.053528931 0.43634054
-0.056267001 0.053517189 0.43625596
-0.055872716 0.053508244 0.43619409
-0.055466335 0.053487498 0.43603599
-0.055069946 0.053476177 0.43595463
-0.054656781 0.05344829 0.43573809
-0.054269865 0.053445861 0.43572906
-0.053863093 0.053423703 0.43555912
-0.0534622 0.053407095 0.43543431
-0.053063128 0.053392082 0.43532249
-0.052666046 0.053378873 0.43522519
-0.052257948 0.053354219 0.43503457
-0.051857647 0.053337216 0.43490627
-0.051462922 0.053325746 0.43482298
-0.051043719 0.053288549 0.43452978
-0.050653759 0.053281542 0.43448275
-0.050250947 0.053260814 0.43432373
-0.049869668 0.053262763 0.43434954
-0.049482856 0.053258792 0.43432701
-0.049099252 0.053258233 0.43433222
-0.048714831 0.053256784 0.43433008
-0.04836781 0.053296514 0.43466371
-0.019154428 0.052047871 0.42497036
-0.018780977 0.052050568 0.42499593
-0.018403539 0.052042093 0.42493024
-0.018023808 0.052026648 0.42480755
-0.017647859 0.052021705 0.42477053
-0.017263744 0.051991954 0.42453083
-0.016883058 0.051971443 0.4243665
-0.016505398 0.051959526 0.42427227
-0.0161293 0.051952086 0.42421457
-0.015754154 0.051947448 0.42417958
-0.015378313 0.05194024 0.42412356
-0.015002483 0.051932693 0.42406473
-0.014618929 0.051897362 0.42377889
-0.014240999 0.051880661 0.42364511
-0.013861834 0.05185844 0.42346618
-0.013485881 0.051847342 0.42337799
-0.013108741 0.051830921 0.42324626
-0.012735712 0.051830273 0.42324322
-0.012359517 0.051816307 0.42313141
-0.011985942 0.051812813 0.42310497
-0.011602468 0.05176492 0.4227159
-0.011230751 0.051768053 0.42274347
-0.010857534 0.051764257 0.42271429
-0.010481293 0.051745258 0.42256096
-0.010107224 0.051735975 0.42248687
-0.0097291339 0.051704619 0.42223245
-0.0093579106 0.051708717 0.42226747
-0.0089832228 0.051693231 0.42214242
-0.0086081782 0.051674254 0.4219889
-0.008234526 0.051662307 0.42189261
-0.0078607742 0.051648587 0.42178181
-0.0074864072 0.051629256 0.42162508
-0.0071137659 0.051620435 0.42155412
-0.0067423172 0.051619779 0.42154974
-0.0063682017 0.051597439 0.42136818
-0.0059961462 0.051590066 0.42130882
-0.0056255404 0.051595017 0.42134997
-0.005254698 0.051598348 0.42137784
-0.0048860051 0.051624898 0.42159528
-0.0045165136 0.051646695 0.42177376
-0.063108437 0.054157894 0.4381119
-0.062738113 0.054172084 0.43823901
-0.062333629 0.054156769 0.43812734
-0.06195806 0.054166537 0.43821859
-0.061558872 0.054155659 0.43814266
-0.061132312 0.054120403 0.43786949
-0.06073479 0.054110572 0.43780193
-0.060327441 0.054091807 0.43766198
-0.05992952 0.054081306 0.43758884
-0.059514858 0.054055471 0.43739152
-0.059107114 0.054035615 0.43724254
-0.058702849 0.05401871 0.43711731
-0.058299739 0.054002643 0.43699881
