# .PCD v0.7 - Point Cloud Data file format
VERSION 0.7
FIELDS x y z
SIZE 4 4 4
TYPE F F F
COUNT 1 1 1
WIDTH 1339
HEIGHT 1
VIEWPOINT 0 0 0 1 0 0 0
POINTS 1339
DATA ascii
-0.075058684 0.028275792 0.34758121
-0.074714452 0.028261835 0.34742382
-0.074387766 0.028254433 0.34734693
-0.074061073 0.028246969 0.34726921
-0.073757082 0.028248137 0.34729755
-0.073407002 0.028231587 0.34710804
-0.07306888 0.028219519 0.34697354
-0.072768874 0.028222132 0.34701952
-0.072449654 0.028217282 0.34697372
-0.072087392 0.028195556 0.34672034
-0.071764119 0.028188964 0.34665295
-0.071424536 0.028175876 0.34650567
-0.071114302 0.028174307 0.34650001
-0.070795521 0.028169323 0.34645227
-0.070464723 0.028159488 0.34634486
-0.07015527 0.028158143 0.34634176
-0.069816783 0.028145077 0.34619445
-0.069477379 0.028131528 0.34604117
-0.069159403 0.028126569 0.34599349
-0.068839937 0.028120965 0.34593782
-0.068522111 0.02811598 0.34588972
-0.06821017 0.028113374 0.34587085
-0.067900002 0.028111482 0.34586069
-0.067594849 0.028111659 0.34587595
-0.067273207 0.028104946 0.34580639
-0.066966958 0.028104637 0.34581554
-0.079773411 0.028731849 0.34917653
-0.079443537 0.028724279 0.34909928
-0.079117872 0.028718177 0.34903985
-0.078762919 0.028701352 0.34885007
-0.078414463 0.028686777 0.34868753
-0.078069776 0.02867347 0.3485404
-0.077719994 0.028658178 0.34836909
-0.077399746 0.0286537 0.3483291
-0.077042714 0.028635513 0.34812251
-0.076729856 0.028633665 0.34811443
-0.076374032 0.028615702 0.34791043
-0.076067224 0.028616033 0.34792876
-0.075720735 0.028601382 0.34776488
-0.075367272 0.028583966 0.34756735
-0.075013198 0.028566176 0.3473652
-0.074704036 0.028565411 0.34737003
-0.074378215 0.028558243 0.34729692
-0.074062034 0.028554734 0.34726831
-0.073717095 0.028540064 0.34710389
-0.073398255 0.028535414 0.34706128
-0.073066384 0.028525643 0.34695631
-0.072741359 0.028518466 0.34688291
-0.072404765 0.028506679 0.34675333
-0.072072476 0.028496498 0.34664318
-0.071742505 0.028487144 0.34654316
-0.071416855 0.028479435 0.34646299
-0.071113974 0.028480778 0.34649295
-0.070769869 0.028465554 0.34632125
-0.070442945 0.028457137 0.34623238
-0.070107855 0.028445333 0.34610224
-0.069795839 0.028442834 0.34608519
-0.069470763 0.02843496 0.34600279
-0.06915988 0.028432855 0.34599048
-0.0688283 0.028422186 0.34587389
-0.068504915 0.028414816 0.34579745
-0.068193443 0.02841235 0.34578058
-0.06787686 0.028407723 0.3457374
-0.067572467 0.028408173 0.34575596
-0.067248769 0.028400483 0.34567535
-0.066936046 0.028397368 0.34565043
-0.066611268 0.028389094 0.34556267
-0.066303402 0.028387992 0.34556207
-0.065981351 0.028380768 0.34548697
-0.065674253 0.028379939 0.34548968
-0.065374322 0.028382214 0.34553009
-0.065049425 0.028373629 0.34543824
-0.081821546 0.029110365 0.34991357
-0.080799654 0.029076938 0.34955677
-0.080451556 0.029062927 0.34940323
-0.080116659 0.029053599 0.34930593
-0.079772845 0.029040946 0.34916863
-0.079447322 0.029034881 0.34911051
-0.079098523 0.029020237 0.34894913
-0.078774251 0.029014507 0.34889492
-0.078398146 0.028989565 0.34860963
-0.078076735 0.028984727 0.34856609
-0.077728011 0.028969679 0.34839961
-0.077389844 0.028958458 0.34827918
-0.077035859 0.028941207 0.34808612
-0.076715007 0.02893631 0.34804165
-0.076354869 0.028916501 0.34781772
-0.076038852 0.028913304 0.34779358
-0.075676218 0.028892288 0.34755504
-0.075355887 0.028887317 0.34750944
-0.075041972 0.028884774 0.34749302
-0.074716203 0.028877627 0.34742117
-0.074381083 0.02886679 0.34730491
-0.074020371 0.028845895 0.34706751
-0.073701337 0.02884114 0.34702426
-0.073395588 0.028841559 0.34704322
-0.073030651 0.028818624 0.34678116
-0.072720036 0.028817028 0.3467758
-0.072405957 0.028814042 0.3467536
-0.072054237 0.028795982 0.34655002
-0.071744263 0.028794523 0.34654617
-0.07142099 0.028787693 0.3464776
-0.071081251 0.028774137 0.34632805
-0.070752181 0.028764803 0.34622926
-0.070433617 0.028759677 0.34618106
-0.070122458 0.028757548 0.34616885
-0.069797628 0.028749766 0.34608859
-0.069470093 0.028740795 0.34599397
-0.069144413 0.028732514 0.34590757
-0.068830475 0.028729066 0.34587932
-0.068498015 0.028717821 0.34575713
-0.068187296 0.028715631 0.34574392
-0.067874238 0.028712431 0.3457185
-0.067551471 0.028705075 0.34564301
-0.067222349 0.028694943 0.345534
-0.066908434 0.028691238 0.34550235
-0.06659545 0.028687904 0.34547511
-0.066281818 0.028684251 0.34544396
-0.065963216 0.028678412 0.34538648
-0.065658614 0.028678635 0.34540188
-0.065351434 0.028677721 0.34540361
-0.065049209 0.028678989 0.34543154
-0.064718328 0.028667573 0.34530663
-0.064426713 0.028673518 0.34539086
-0.082894944 0.02947174 0.35047331
-0.082583316 0.029471232 0.35048246
-0.08221063 0.029448852 0.35023141
-0.081879556 0.029441262 0.35015625
-0.081519209 0.029423049 0.34995469
-0.081158556 0.029404588 0.3497501
-0.080791481 0.02938365 0.349516
-0.080447383 0.029370937 0.34937966
-0.080105714 0.02935902 0.34925279
-0.079764731 0.029347263 0.34912771
-0.079420961 0.029334389 0.34898928
-0.079085335 0.029324427 0.34888551
-0.078728557 0.029306516 0.34868711
-0.078385986 0.029293777 0.34855014
-0.078064539 0.029288858 0.34850618
-0.077716053 0.029273719 0.34834054
-0.077374063 0.029260915 0.34820271
-0.077036873 0.029249832 0.34808522
-0.076663099 0.029224712 0.34780073
-0.076373324 0.029231539 0.34789631
-0.076012969 0.029211303 0.34766978
-0.075716242 0.029215451 0.34773341
-0.075375453 0.029202562 0.34759417
-0.075038858 0.029191202 0.34747311
-0.074707232 0.029181691 0.34737399
-0.074357636 0.029165048 0.34718996
-0.074039444 0.029160637 0.34715146
-0.07371413 0.029153371 0.34707895
-0.073389657 0.029146384 0.34700972
-0.073079482 0.029145043 0.34700757
-0.072723843 0.029125474 0.34678847
-0.072393328 0.029115845 0.34668756
-0.072045028 0.029098956 0.34650019
-0.071707383 0.029086243 0.3463625
-0.071396194 0.0290842 0.34635177
-0.071065739 0.029074257 0.34624699
-0.070762254 0.029075308 0.34627301
-0.070401549 0.029052755 0.34601793
-0.070102088 0.029055391 0.34606275
-0.069783129 0.029049931 0.3460111
-0.069453128 0.029039806 0.34590387
-0.069133326 0.029033883 0.34584659
-0.068831556 0.029035507 0.3458792
-0.068500914 0.029024914 0.34576622
-0.068184674 0.029020358 0.34572506
-0.067861475 0.029012782 0.34564793
-0.067539379 0.029005611 0.34557557
-0.067225866 0.029002085 0.34554651
-0.066906594 0.028996022 0.34548727
-0.066585809 0.028989252 0.34541947
-0.066279426 0.028988715 0.34542596
-0.065961927 0.028983291 0.34537411
-0.065642379 0.028976914 0.34531087
-0.06533841 0.028977381 0.34532917
-0.065015972 0.028969627 0.34524938
-0.06470079 0.02896505 0.34520745
-0.064405307 0.02896929 0.34527054
-0.064084485 0.028962119 0.34519756
-0.063770324 0.0289579 0.34515977
-0.0634574 0.02895421 0.34512818
-0.063172311 0.028963247 0.34524822
-0.062835373 0.02894848 0.34508455
-0.083237931 0.029794056 0.35059074
-0.082904898 0.029785899 0.35050997
-0.082541816 0.029766845 0.35030091
-0.082211696 0.029759578 0.35023049
-0.081856601 0.029743182 0.35005262
-0.0815069 0.029728629 0.34989637
-0.081133895 0.029705435 0.34963837
-0.080775663 0.029687492 0.34944209
-0.080423079 0.029671494 0.34926867
-0.080083214 0.029660081 0.3491492
-0.07974381 0.029648757 0.34903067
-0.079427332 0.029645899 0.34901178
-0.079085454 0.029633502 0.34888056
-0.07877595 0.029633185 0.34889147
-0.078409411 0.029611329 0.34864879
-0.078084514 0.029605089 0.34858987
-0.077720866 0.029584045 0.34835663
-0.077387162 0.029574282 0.34825614
-0.077075601 0.029572936 0.34825471
-0.076736212 0.029560862 0.34812692
-0.076430134 0.02956157 0.3481496
-0.076052345 0.029534435 0.34784433
-0.0757052 0.029519031 0.34767714
-0.075381644 0.029512735 0.34761721
-0.075075589 0.02951327 0.34763765
-0.074749239 0.029505795 0.34756374
-0.074414916 0.029495103 0.34745187
-0.074088961 0.029487651 0.34737808
-0.073746689 0.029473616 0.34722671
-0.073412925 0.029462878 0.34711415
-0.073092103 0.029457269 0.34706193
-0.072763674 0.029448532 0.34697282
-0.072419807 0.029433444 0.34680885
-0.072085984 0.02942233 0.34669158
-0.071766131 0.029416846 0.34664065
-0.071442008 0.029409559 0.34656847
-0.07109309 0.029391959 0.3463746
-0.070800118 0.029397437 0.34645268
-0.070453823 0.029380724 0.34626922
-0.070116192 0.029367501 0.34612679
-0.069798119 0.029362377 0.34607983
-0.069460854 0.029349109 0.34593681
-0.069146998 0.029345654 0.34590933
-0.068823591 0.029338105 0.3458336
-0.068498902 0.029329931 0.34575042
-0.068187162 0.02932726 0.34573209
-0.067844875 0.029311361 0.34555775
-0.067543335 0.029313009 0.3455902
-0.067225277 0.029307468 0.34553787
-0.066889189 0.029293979 0.34539178
-0.066582359 0.029293235 0.34539592
-0.066273369 0.029291537 0.34538874
-0.065945797 0.029281568 0.34528399
-0.065635152 0.029279063 0.34526718
-0.065318406 0.029273795 0.34521776
-0.065004438 0.029269731 0.34518251
-0.064682141 0.029261863 0.34510228
-0.064387552 0.02926651 0.34516963
-0.064057745 0.029255128 0.34504789
-0.063743688 0.029250853 0.34500992
-0.063437022 0.029249951 0.34501165
-0.063141182 0.029254055 0.34507242
-0.062829375 0.029250765 0.34504592
-0.062523648 0.029250288 0.34505251
-0.062223949 0.029252637 0.34509248
-0.083254538 0.030110767 0.3506552
-0.082892023 0.030091844 0.35045004
-0.082563534 0.030085182 0.3503876
-0.082174599 0.030056354 0.35006699
-0.081836529 0.030045988 0.34996131
-0.081480332 0.030028863 0.34977683
-0.081095681 0.030001078 0.34946817
-0.080758534 0.029990725 0.34936249
-0.080454551 0.029992655 0.34939983
-0.080128297 0.029986264 0.34934023
-0.079783373 0.02997281 0.34919831
-0.079454862 0.029965444 0.34912723
-0.07910835 0.029951205 0.34897605
-0.078777224 0.029942699 0.34889162
-0.078424394 0.029925847 0.34870988
-0.078103587 0.029921131 0.34866947
-0.077762946 0.02990875 0.34853971
-0.077425443 0.029897477 0.34842286
-0.077074952 0.029881084 0.34824622
-0.076746032 0.029872956 0.34816587
-0.076428503 0.029869216 0.3481366
-0.076128192 0.029872198 0.34818566
-0.075760454 0.029848639 0.34792534
-0.075419895 0.029835643 0.34778807
-0.075108342 0.029834058 0.34778374
-0.07478223 0.029826656 0.34771153
-0.074461758 0.029821454 0.34766498
-0.074128509 0.029811069 0.34755793
-0.073793761 0.029799992 0.34744275
-0.073426679 0.029775711 0.34717357
-0.073098123 0.029766915 0.34708491
-0.072807595 0.029773599 0.34717664
-0.072445564 0.029750969 0.34692654
-0.072117291 0.029742073 0.34683654
-0.071792692 0.029734623 0.34676334
-0.071446672 0.029718202 0.34658545
-0.071127921 0.029713027 0.34653869
-0.070796691 0.029702572 0.3464303
-0.070464201 0.029691499 0.34631461
-0.070138641 0.029683258 0.34623194
-0.069824755 0.029679911 0.34620628
-0.069487669 0.029666632 0.34606469
-0.069162518 0.029658349 0.34598139
-0.06885583 0.029657945 0.34598991
-0.068512231 0.029641569 0.34581205
-0.068198211 0.029637903 0.3457824
-0.067848325 0.029618546 0.34556967
-0.067539386 0.029616967 0.34556428
-0.067208968 0.029605918 0.34544834
-0.066890597 0.029600095 0.34539333
-0.066577382 0.029596515 0.34536445
-0.066260174 0.029591115 0.34531429
-0.065945506 0.029586807 0.3452768
-0.065631807 0.029582895 0.34524387
-0.065304302 0.029572697 0.34513754
-0.064988203 0.029567588 0.34509057
-0.064671747 0.029562272 0.3450411
-0.064357325 0.029557843 0.34500194
-0.064048104 0.029555768 0.34499016
-0.063745037 0.029556524 0.34501147
-0.063419849 0.029546987 0.34491253
-0.063114829 0.029546797 0.34492263
-0.062802382 0.029543113 0.34489194
-0.062507838 0.029547857 0.34495953
-0.062179923 0.029536793 0.34484255
-0.061884273 0.029541023 0.34490409
-0.061599001 0.029550277 0.3450242
-0.061289076 0.029547732 0.34500653
-0.085364752 0.030510124 0.35157859
-0.085065313 0.03051438 0.35164306
-0.084691286 0.030491807 0.35139835
-0.084283896 0.030457016 0.35101277
-0.083946459 0.030447336 0.35091653
-0.083587654 0.030429807 0.35072976
-0.083246686 0.030418666 0.3506166
-0.082844235 0.030384891 0.3502425
-0.082544155 0.030388549 0.35029981
-0.082177445 0.030367613 0.35007355
-0.081845984 0.030359596 0.34999618
-0.081512801 0.030350871 0.34991065
-0.081157885 0.030333962 0.34973064
-0.080816194 0.030321887 0.34960636
-0.080487296 0.030314539 0.34953651
-0.08013811 0.030299455 0.34937745
-0.079849571 0.030307284 0.34948248
-0.079447784 0.030272014 0.34909055
-0.079152495 0.030277215 0.3491652
-0.078840002 0.030275844 0.34916407
-0.078466684 0.030251013 0.3488923
-0.078129254 0.030239882 0.34877849
-0.077797577 0.030230893 0.34868932
-0.077481888 0.030228071 0.34867126
-0.077108964 0.030202806 0.34839427
-0.076805525 0.030204669 0.34843016
-0.076465845 0.03019223 0.34830102
-0.076153301 0.030190457 0.34829482
-0.075813077 0.030177649 0.34816134
-0.075487345 0.03017053 0.34809342
-0.075173825 0.03016825 0.34808129
-0.074808232 0.030144978 0.34782684
-0.074478447 0.030135993 0.34773725
-0.074160866 0.030131891 0.34770396
-0.073813654 0.030115673 0.34753075
-0.073474169 0.03010248 0.34739244
-0.073143266 0.030092709 0.34729356
-0.072801724 0.030078461 0.34714293
-0.072483897 0.030073933 0.34710443
-0.072145723 0.030060885 0.34696758
-0.071805894 0.030047035 0.3468214
-0.071488805 0.030042628 0.34678414
-0.071155682 0.030031415 0.34666827
-0.07083109 0.030023715 0.34659293
-0.070548505 0.030033834 0.34672323
-0.070196472 0.030014347 0.34651172
-0.069839478 0.029992558 0.34627357
-0.06952256 0.029987868 0.34623271
-0.069182739 0.029973211 0.34607679
-0.068862259 0.029966841 0.34601647
-0.068537265 0.029958442 0.34593269
-0.068198308 0.029943841 0.34577718
-0.067894354 0.029944537 0.34579834
-0.067543164 0.029924316 0.3455779
-0.067219317 0.029916083 0.34549576
-0.066918865 0.029918239 0.34553358
-0.066585965 0.029905831 0.34540319
-0.066266619 0.029899433 0.3453421
-0.065947779 0.029893205 0.34528294
-0.065626457 0.029885784 0.34520996
-0.065300606 0.029876225 0.3451122
-0.064978033 0.029868085 0.34503081
-0.064661667 0.029862732 0.34498158
-0.064358018 0.029863229 0.34499985
-0.064041659 0.029857807 0.34494966
-0.063734941 0.029856849 0.34495106
-0.063416265 0.029850259 0.34488726
-0.063105799 0.02984748 0.34486753
-0.062788308 0.029841341 0.34480885
-0.062477652 0.029838406 0.34478715
-0.062172409 0.029838039 0.34479508
-0.061864503 0.029836385 0.34478807
-0.061562192 0.029837428 0.34481218
-0.061264079 0.029840522 0.34486002
-0.060969565 0.029845411 0.3449285
-0.060652286 0.029839152 0.34486806
-0.06035069 0.029840583 0.3448965
-0.086112477 0.030866653 0.35205361
-0.085743509 0.030846067 0.35183436
-0.085385934 0.030829445 0.35166025
-0.085046642 0.030819327 0.35156026
-0.08465828 0.030791286 0.35125583
-0.084306404 0.030776361 0.35110092
-0.083930589 0.030752553 0.35084459
-0.083565988 0.030732688 0.35063326
-0.083208725 0.030715389 0.35045111
-0.082865804 0.030703275 0.35032806
-0.082544722 0.03069919 0.35029659
-0.082201675 0.030686876 0.35017118
-0.081874743 0.030680504 0.35011351
-0.081546538 0.03067361 0.35004985
-0.081189975 0.030655952 0.34986332
-0.080836333 0.030639272 0.34968787
-0.080506183 0.030631397 0.34961286
-0.080188125 0.030628083 0.34958988
-0.079823256 0.030606795 0.34936166
-0.079491943 0.030598255 0.34927893
-0.079184152 0.030598739 0.34929916
-0.078841321 0.030585635 0.34916425
-0.078516409 0.030579407 0.34910777
-0.078188166 0.030571826 0.34903577
-0.077817105 0.030547379 0.34877118
-0.077490255 0.030540159 0.34870321
-0.077179797 0.030539369 0.34870863
-0.076893196 0.030548051 0.34882218
-0.076484218 0.030507991 0.34837905
-0.076148212 0.030496826 0.34826586
-0.075855426 0.030502958 0.34835014
-0.075500891 0.030484207 0.34815019
-0.075182207 0.030479833 0.3481144
-0.074829638 0.030461632 0.34792063
-0.074522518 0.030461857 0.34793726
-0.074175052 0.030445527 0.34776473
-0.073857121 0.030441238 0.34772971
-0.073529631 0.030432949 0.34764895
-0.073192485 0.030420575 0.34752148
-0.072863005 0.030411309 0.34742942
-0.072528511 0.030399855 0.34731236
-0.072193488 0.030388083 0.3471916
-0.071883716 0.030386878 0.34719154
-0.071542844 0.030372471 0.34704053
-0.071224011 0.030367332 0.34699538
-0.070871875 0.030347886 0.34678671
-0.070552312 0.030342283 0.34673616
-0.070199996 0.030322483 0.34652334
-0.069867536 0.030311124 0.34640691
-0.069533683 0.030299056 0.34628236
-0.069214545 0.030293323 0.34623009
-0.06888736 0.030284002 0.34613681
-0.068569764 0.030278834 0.34609091
-0.068240136 0.03026828 0.34598342
-0.067951843 0.030276053 0.34608537
-0.067581438 0.030247144 0.34576792
-0.067242719 0.030232219 0.34561029
-0.06691771 0.030223349 0.34552178
-0.066631101 0.03023182 0.34563157
-0.066286147 0.030213775 0.34543809
-0.065965302 0.030206606 0.34536886
-0.065642036 0.030198254 0.3452861
-0.065321334 0.030191012 0.34521598
-0.064986579 0.030177172 0.34507033
-0.064667813 0.030170668 0.34500855
-0.064354956 0.030166866 0.34497759
-0.064039923 0.030162008 0.34493452
-0.06372451 0.030156922 0.34488878
-0.063404702 0.030149696 0.3448185
-0.06309633 0.030147871 0.34480995
-0.062780894 0.03014263 0.34476227
-0.062477611 0.030143201 0.34478104
-0.062157772 0.030135756 0.34470803
-0.061853152 0.030135652 0.34471896
-0.061543293 0.030132981 0.34470046
-0.061241344 0.030134177 0.34472618
-0.060939401 0.030135386 0.34475195
-0.060626853 0.03013134 0.34471759
-0.06033244 0.03013631 0.34478629
-0.060028184 0.03013639 0.34479901
-0.059717935 0.030133443 0.34477711
-0.086430289 0.031180967 0.35205716
-0.086098529 0.03117373 0.351991
-0.085734278 0.031154631 0.35179088
-0.085393496 0.031143956 0.35168579
-0.085041493 0.031129092 0.35153338
-0.084606558 0.031083651 0.35103562
-0.084264077 0.031071965 0.35091901
-0.083918259 0.031058962 0.35078743
-0.083582744 0.031049686 0.35069793
-0.08323922 0.031037357 0.35057393
-0.082899354 0.031026307 0.35046425
-0.08255747 0.031014416 0.35034508
-0.082228355 0.031007245 0.35027918
-0.081902102 0.031001104 0.35022485
-0.081555046 0.030987019 0.35008073
-0.081220217 0.030977486 0.34998798
-0.080885485 0.030967917 0.34989476
-0.080538191 0.03095345 0.3497462
-0.080209337 0.030945983 0.34967664
-0.079853244 0.030927906 0.34948719
-0.079541959 0.030927116 0.349493
-0.079228304 0.030925391 0.34948823
-0.078899711 0.030917803 0.34941712
-0.078543611 0.030899333 0.34922296
-0.078218356 0.030892896 0.34916478
-0.077902824 0.030890269 0.34914961
-0.077532381 0.030865755 0.34888706
-0.07721214 0.030861119 0.34884906
-0.0768952 0.030857764 0.34882554
-0.076567143 0.030849906 0.34875104
-0.076211192 0.030830698 0.34854817
-0.075890549 0.030825678 0.34850568
-0.075544372 0.030810202 0.34834492
-0.075229622 0.030807469 0.34832817
-0.074896611 0.03079721 0.34822628
-0.074535891 0.030775417 0.34799394
-0.074233688 0.03077771 0.34803388
-0.07390137 0.030767485 0.34793222
-0.073576391 0.03076024 0.34786424
-0.073218577 0.030739151 0.34763959
-0.07288792 0.030729335 0.34754238
-0.072562791 0.030721772 0.34747067
-0.072217859 0.030705735 0.34730297
-0.071894445 0.030698745 0.34723759
-0.071575984 0.030693816 0.34719548
-0.071224429 0.030674592 0.34699157
-0.070890449 0.030662805 0.34687179
-0.070543714 0.030645376 0.34668812
-0.070246466 0.030649383 0.34674689
-0.069945849 0.030651953 0.34678933
-0.069611266 0.030639596 0.34666288
-0.069241859 0.030611733 0.34636089
-0.068928003 0.030608289 0.34633517
-0.068599805 0.030598423 0.34623674
-0.06826932 0.030587438 0.34612554
-0.067975134 0.030592695 0.34619811
-0.067603871 0.030563151 0.34587684
-0.067275718 0.030552922 0.34577402
-0.066977225 0.030556129 0.34582323
-0.066636793 0.030540144 0.3456552
-0.066304199 0.030527618 0.34552628
-0.066013575 0.030534392 0.34561571
-0.065677568 0.030520139 0.34546712
-0.065327942 0.030499395 0.345245
-0.064993329 0.030485502 0.34510034
-0.064685285 0.030483998 0.34509587
-0.064379223 0.03048341 0.34510174
-0.064050667 0.030472124 0.34498644
-0.063736737 0.030467724 0.34494904
-0.063396655 0.030450717 0.34476882
-0.063094668 0.030451931 0.34479493
-0.062781855 0.030447908 0.34476164
-0.062468901 0.030443778 0.34472707
-0.062158026 0.030440627 0.34470353
-0.061850071 0.030438878 0.34469587
-0.061540622 0.030436378 0.34467959
-0.06123032 0.030433426 0.34465817
-0.060920641 0.030430758 0.3446399
-0.060615692 0.030430432 0.34464815
-0.060307011 0.030428231 0.34463504
-0.060006488 0.030430138 0.34466845
-0.059691064 0.030424468 0.344616
-0.059400525 0.030431492 0.34470728
-0.05908284 0.030424612 0.34464097
-0.087187797 0.031541582 0.35256204
-0.086799748 0.031514063 0.35227004
-0.086479634 0.031511098 0.35225251
-0.086096913 0.031485215 0.35197872
-0.085712634 0.031458572 0.35169637
-0.085365511 0.031445418 0.35156485
-0.085033305 0.031437691 0.35149387
-0.084630303 0.031403635 0.35112846
-0.084290311 0.031392794 0.35102257
-0.083954588 0.03138347 0.35093361
-0.083661266 0.031389982 0.35102171
-0.083267361 0.031358667 0.35068673
-0.082953796 0.031357486 0.35068873
-0.082600504 0.031341221 0.35052195
-0.082261458 0.031330261 0.35041445
-0.081896782 0.031309422 0.35019642
-0.081591278 0.031311132 0.35023052
-0.081249155 0.031298745 0.35010692
-0.080921106 0.031291708 0.35004315
-0.08058916 0.031283103 0.34996176
-0.080234274 0.031265497 0.34977961
-0.079922982 0.031264804 0.34978664
-0.079586022 0.031254027 0.34968081
-0.079259105 0.031247122 0.34961829
-0.078906327 0.031229937 0.34944063
-0.078595348 0.031229217 0.34944719
-0.078277647 0.031225819 0.34942374
-0.07794065 0.031214658 0.34931338
-0.077622369 0.031210935 0.3492862
-0.077231273 0.031177787 0.34892964
-0.076909021 0.031172279 0.34888241
-0.076596409 0.031170653 0.34887853
-0.07629469 0.03117346 0.34892425
-0.075954974 0.031160699 0.34879568
-0.075586759 0.031136103 0.34853458
-0.07525561 0.031126631 0.34844267
-0.074915014 0.031113161 0.348306
-0.074573621 0.031099249 0.34816432
-0.074296281 0.031112036 0.3483215
-0.073896334 0.03107338 0.34790269
-0.073593169 0.031075269 0.34793773
-0.07326667 0.031067275 0.34786209
-0.07290554 0.03104447 0.34762058
-0.072594263 0.03104279 0.34761554
-0.072287656 0.031043105 0.3476328
-0.071912989 0.031014064 0.34732127
-0.071624972 0.03102231 0.34742722
-0.071275227 0.031003773 0.34723321
-0.070928484 0.030986385 0.34705201
-0.070590571 0.030972723 0.34691247
-0.070278741 0.030970441 0.34690034
-0.069949515 0.030960435 0.34680164
-0.069590889 0.030937269 0.34655547
-0.06930808 0.03094776 0.34668627
-0.068969391 0.030933276 0.34653723
-0.068666905 0.030934976 0.34656948
-0.068324655 0.030918695 0.3464002
-0.068018973 0.030918889 0.34641546
-0.067648873 0.030889673 0.34610116
-0.067320071 0.030879131 0.34599602
-0.066978276 0.03086251 0.34582272
-0.066658653 0.030855998 0.34576264
-0.066338487 0.030849176 0.34569901
-0.066041417 0.030853085 0.34575558
-0.065715954 0.030843694 0.3456631
-0.065398149 0.030837838 0.34561011
-0.065048084 0.030816631 0.34538507
-0.064708821 0.030800378 0.3452155
-0.064395599 0.030796424 0.34518364
-0.064060315 0.030781824 0.34503251
-0.063765213 0.030786488 0.34509715
-0.063424252 0.030768955 0.34491301
-0.063109368 0.030763956 0.34486929
-0.062788717 0.030756088 0.34479335
-0.062469177 0.030748691 0.34472263
-0.062156849 0.030744789 0.34469101
-0.061851114 0.030744124 0.34469569
-0.061534349 0.030737948 0.34463847
-0.061226077 0.03073597 0.3446283
-0.060915507 0.030732814 0.34460485
-0.060610458 0.030732425 0.34461242
-0.060305972 0.030732321 0.34462309
-0.059991136 0.030726913 0.34457424
-0.059679039 0.030722862 0.34454057
-0.059369318 0.030720001 0.34452018
-0.059069052 0.03072203 0.34455454
-0.058771022 0.030725241 0.34460217
-0.058505215 0.030745426 0.34484008
-0.087525226 0.03186338 0.35264209
-0.087203361 0.031859901 0.35261926
-0.086820774 0.031834129 0.35234964
-0.086495601 0.031829298 0.35231179
-0.086047299 0.031778961 0.35177019
-0.085726619 0.03177556 0.35174805
-0.085358933 0.03175465 0.35153204
-0.085076042 0.031765249 0.35166478
-0.084685594 0.031735614 0.35135213
-0.084340796 0.031722937 0.35122707
-0.084012195 0.031716276 0.35116863
-0.083703667 0.031717174 0.35119385
-0.083306327 0.031684306 0.3508451
-0.082983315 0.031679563 0.35080773
-0.082619675 0.031659216 0.35059753
-0.082291842 0.031652484 0.3505381
-0.081981264 0.031652369 0.35055187
-0.081622474 0.031633567 0.35035864
-0.081306674 0.031631347 0.35034901
-0.080945224 0.031611279 0.35014167
-0.08064498 0.03161506 0.35019839
-0.080299199 0.031600941 0.35005686
-0.079958037 0.031588539 0.34993428
-0.079612345 0.031574249 0.34979069
-0.079270735 0.031561472 0.34966382
-0.078963958 0.031562515 0.34969002
-0.078606784 0.031543344 0.34949222
-0.078288421 0.031539656 0.34946597
-0.077960767 0.031532187 0.34939772
-0.07761988 0.031519283 0.34926915
-0.077285275 0.031508829 0.34916782
-0.076935701 0.031492174 0.34899759
-0.076627947 0.031492569 0.34901631
-0.076300204 0.031484716 0.34894356
-0.0759615 0.031472266 0.34881982
-0.075614177 0.03145612 0.3486551
-0.075252391 0.031433806 0.3484219
-0.074955933 0.031438705 0.34849033
-0.07462842 0.031430572 0.34841421
-0.074312784 0.031427395 0.34839296
-0.073944472 0.031401817 0.3481234
-0.073639177 0.031402897 0.34814933
-0.073313914 0.031395439 0.34808049
-0.072944857 0.031369086 0.34780213
-0.072640732 0.03137055 0.34783214
-0.072289601 0.031351641 0.34763622
-0.071926728 0.031327453 0.34738168
-0.071651727 0.031341497 0.34755105
-0.071343295 0.031340975 0.34755886
-0.070969574 0.031311646 0.34724712
-0.07062763 0.031296145 0.34708869
-0.070321783 0.031296574 0.34710684
-0.069982439 0.03128203 0.34695894
-0.06964124 0.031266522 0.3468003
-0.069345452 0.031271357 0.3468672
-0.069005504 0.031256236 0.34671271
-0.068665311 0.031240873 0.34655544
-0.068352304 0.03123779 0.3465344
-0.068050511 0.031239832 0.34657013
-0.067715518 0.031226577 0.34643611
-0.067383848 0.031214748 0.34631786
-0.067027211 0.031191189 0.34606943
-0.066714175 0.031187795 0.34604466
-0.06639991 0.031183796 0.3460131
-0.066054665 0.031165143 0.34581891
-0.065724924 0.031153668 0.34570429
-0.065403707 0.031146144 0.34563348
-0.065048911 0.031122483 0.34538352
-0.064735509 0.031118499 0.34535187
-0.064429916 0.031118244 0.34536156
-0.064126082 0.031118847 0.34538069
-0.063803576 0.031110348 0.3452988
-0.063461229 0.031092046 0.34510803
-0.063125655 0.031076904 0.34495229
-0.062794812 0.031063955 0.34482077
-0.062487997 0.031062825 0.34482044
-0.062159687 0.031050948 0.34470075
-0.061840113 0.031043338 0.34462836
-0.06153604 0.031043474 0.34464189
-0.061221056 0.031038074 0.34459397
-0.060908653 0.031033941 0.34456003
-0.060601071 0.031032236 0.34455296
-0.060296547 0.031032089 0.34456319
-0.059979632 0.031025531 0.34450215
-0.059671387 0.031023409 0.34449032
-0.059358329 0.031018753 0.34445032
-0.059061188 0.031022411 0.34450257
-0.058755402 0.031021541 0.34450448
-0.058452226 0.031022049 0.34452167
-0.058169078 0.031033251 0.34465754
-0.057857022 0.031029062 0.34462243
-0.087888993 0.032194942 0.35282716
-0.087534465 0.032179497 0.35267359
-0.08718361 0.0321653 0.35253367
-0.086827315 0.032148983 0.35237044
-0.086432904 0.032118388 0.35205072
-0.086054988 0.032093715 0.35179585
-0.085742339 0.032093305 0.35180679
-0.085398369 0.03208112 0.35168868
-0.08508642 0.032080919 0.35170192
-0.084762082 0.032076027 0.35166368
-0.084407516 0.032059621 0.35149914
-0.084011585 0.032027319 0.35116032
-0.083737262 0.032041319 0.351329
-0.083345011 0.032010119 0.35100216
-0.083034977 0.032010395 0.35102034
-0.082707047 0.032003738 0.35096246
-0.082382947 0.031998523 0.35092038
-0.081997931 0.031969517 0.35061732
-0.081652537 0.031955793 0.35048181
-0.081330866 0.031951293 0.35044739
-0.081026994 0.031953774 0.35048953
-0.080686785 0.031941894 0.35037404
-0.080351144 0.031931732 0.35027742
-0.079969518 0.031903144 0.34997863
-0.07965292 0.031900387 0.3499631
-0.079325944 0.031893428 0.34990147
-0.078967221 0.031873602 0.3496986
-0.078644916 0.031868376 0.3496559
-0.07830669 0.031856634 0.3495416
-0.07799422 0.031855319 0.34954169
-0.077677794 0.031852372 0.34952387
-0.077318832 0.03183189 0.3493135
-0.076993324 0.031825077 0.34925309
-0.076651193 0.031811301 0.34911627
-0.07631883 0.031801488 0.34902287
-0.076010302 0.031801563 0.34903798
-0.075672358 0.031789288 0.34891742
-0.075283229 0.031755321 0.34855875
-0.074967459 0.031752151 0.34853801
-0.074660823 0.031752829 0.34855953
-0.074354067 0.031753466 0.34858057
-0.073992081 0.031730428 0.34834161
-0.073680758 0.031729009 0.34833995
-0.073345616 0.031717282 0.34822506
-0.072989531 0.031696357 0.3480092
-0.072670877 0.031691581 0.34797049
-0.072340712 0.031681728 0.34787604
-0.072003677 0.031668764 0.34774736
-0.07166785 0.031656224 0.34762329
-0.07137192 0.031661276 0.34769231
-0.071018741 0.031640861 0.3474817
-0.070716739 0.031643175 0.34752056
-0.070354037 0.03161823 0.34726003
-0.070009902 0.03160144 0.34708905
-0.069681488 0.031591639 0.34699473
-0.069359183 0.031584531 0.34692994
-0.069027923 0.031573262 0.34681937
-0.068710774 0.031568374 0.34677887
-0.068371572 0.031553276 0.3466261
-0.068052828 0.031547509 0.34657586
-0.06772624 0.031538051 0.34648499
-0.067405425 0.031531204 0.34642273
-0.067081839 0.031522989 0.34634542
-0.066759787 0.031515427 0.34627524
-0.066430949 0.031504575 0.34616879
-0.066104032 0.031494539 0.34607133
-0.065763503 0.031477895 0.34590116
-0.065431483 0.031465188 0.3457742
-0.065091014 0.031448279 0.34560099
-0.064777181 0.03144414 0.34556809
-0.064445376 0.031431198 0.34543836
-0.064144857 0.031433467 0.34547576
-0.063798465 0.031413168 0.34526503
-0.063451514 0.031392399 0.34504914
-0.063142419 0.03139025 0.34503782
-0.062835708 0.031389266 0.34503928
-0.062519789 0.031383652 0.34498978
-0.062195618 0.031373829 0.3448939
-0.061862271 0.031359248 0.34474573
-0.061549123 0.031354818 0.34470907
-0.06123684 0.031350788 0.34467673
-0.060905758 0.031337045 0.34453756
-0.060599234 0.03133586 0.34453642
-0.060280554 0.03132835 0.3444657
-0.059971455 0.031325765 0.34444904
-0.059671503 0.031327955 0.34448487
-0.059361402 0.031324819 0.34446204
-0.059053537 0.031322829 0.34445179
-0.058743458 0.031319641 0.3444283
-0.05844095 0.031320482 0.34444907
-0.058148697 0.031326853 0.34453061
-0.057852812 0.031331327 0.34459123
-0.057571217 0.031343624 0.34473786
-0.05726793 0.031344179 0.34475532
-0.088326775 0.032554008 0.35330665
-0.087931141 0.032523435 0.35299054
-0.087569229 0.032505155 0.35280785
-0.086465091 0.032442614 0.35217592
-0.086109735 0.032426253 0.35201383
-0.085789882 0.032423187 0.35199603
-0.085441567 0.032409303 0.35186076
-0.085105114 0.032399826 0.35177332
-0.084789813 0.032398373 0.35177287
-0.084465794 0.032393564 0.35173598
-0.084078841 0.032364488 0.35143557
-0.083787084 0.032371979 0.35153219
-0.083415523 0.032348577 0.35129327
-0.083090134 0.03234297 0.35124758
-0.082746305 0.032330126 0.35112315
-0.082427226 0.032326881 0.35110307
-0.082106069 0.032322802 0.35107383
-0.081716731 0.032291744 0.35075146
-0.081374548 0.03227916 0.35062972
-0.08105085 0.032273836 0.35058683
-0.080705844 0.032259956 0.3504509
-0.080389038 0.032257281 0.35043672
-0.080032364 0.032238528 0.35024777
-0.07970757 0.032232527 0.35019726
-0.07933715 0.032207955 0.34994498
-0.079029329 0.0322087 0.34996772
-0.078721099 0.032209281 0.34998867
-0.078337044 0.032178722 0.34967119
-0.07802131 0.0321761 0.34965718
-0.077718958 0.032178994 0.3497031
-0.07737796 0.032165848 0.34957469
-0.077043205 0.032155201 0.34947336
-0.076663785 0.032125756 0.34916767
-0.076367572 0.032131076 0.34923977
-0.076049969 0.032127403 0.34921411
-0.07567998 0.032101486 0.3489466
-0.075336486 0.032086641 0.34879935
-0.075039998 0.032091774 0.34886926
-0.074668549 0.032064758 0.34858963
-0.074356355 0.032063071 0.34858531
-0.074030951 0.03205565 0.34851858
-0.073684938 0.032039203 0.34835368
-0.073370799 0.032036539 0.3483386
-0.073030591 0.032022424 0.34819892
-0.072736494 0.032028493 0.3482787
-0.07234446 0.031991303 0.34788799
-0.072044276 0.031994589 0.34793738
-0.071711436 0.031983335 0.34782866
-0.071367085 0.031966832 0.34766275
-0.071057826 0.031965967 0.34766689
-0.070726641 0.031955197 0.34756321
-0.070394345 0.031943824 0.34745294
-0.070075616 0.031938531 0.34740877
-0.069721229 0.031916875 0.34718654
-0.069383651 0.031902757 0.3470462
-0.069047511 0.031889174 0.3469117
-0.068732917 0.031885471 0.34688455
-0.068398766 0.031872615 0.34675783
-0.068086974 0.031870112 0.3467437
-0.067768581 0.031864487 0.34669548
-0.067450494 0.031858947 0.34664822
-0.067111135 0.031843267 0.34649056
-0.066769272 0.031826254 0.3463183
-0.066445619 0.031817801 0.34623915
-0.066117547 0.031807143 0.34613594
-0.065802656 0.031802762 0.34610099
-0.065485105 0.031797048 0.34605145
-0.065157749 0.03178649 0.3459492
-0.064824201 0.031772804 0.3458128
-0.064481765 0.031754609 0.34562728
-0.064165421 0.031749148 0.34558034
-0.06386409 0.031751107 0.34561408
-0.063522004 0.031732727 0.34542632
-0.063180067 0.031714238 0.3452374
-0.062847435 0.031700265 0.34509754
-0.062527269 0.031692475 0.34502494
-0.062210947 0.031686567 0.34497276
-0.061885506 0.031675931 0.34486905
-0.061588164 0.031679649 0.34492156
-0.061255231 0.031665001 0.34477407
-0.060936224 0.031657442 0.34470373
-0.060610566 0.031646341 0.34459469
-0.060277842 0.031631414 0.34444401
-0.059967138 0.031627953 0.34441805
-0.059661925 0.031627368 0.34442344
-0.059354596 0.031625647 0.34441635
-0.059047218 0.031623885 0.34440878
-0.058741022 0.031622738 0.34440786
-0.058432207 0.031620163 0.34439132
-0.058124151 0.031617977 0.34437898
-0.057825293 0.031620797 0.34442112
-0.057538703 0.031630389 0.34453696
-0.057234351 0.03163027 0.34454697
-0.056944679 0.031638309 0.34464574
-0.056652546 0.031645052 0.34473044
-0.088353917 0.03287746 0.35340938
-0.087915219 0.03283054 0.35292077
-0.087531708 0.032803968 0.35265082
-0.08717449 0.032787099 0.35248512
-0.0868387 0.032778192 0.35240498
-0.086488985 0.032763951 0.35226741
-0.086162955 0.032758605 0.35222551
-0.085813075 0.032744125 0.35208529
-0.085461579 0.032728922 0.35193726
-0.085128747 0.032720774 0.35186511
-0.084803201 0.032715384 0.3518225
-0.084488399 0.032714114 0.35182416
-0.084151529 0.032704256 0.35173345
-0.083819188 0.032696098 0.35166097
-0.083438858 0.032669082 0.35138562
-0.083094835 0.032656141 0.35126153
-0.082769282 0.032650378 0.35121471
-0.082414523 0.032633014 0.35104302
-0.082109146 0.032635149 0.35108098
-0.081789471 0.032631595 0.35105777
-0.081417009 0.032606866 0.35080671
-0.081071369 0.03259274 0.35066962
-0.080781512 0.03260101 0.35077351
-0.080412529 0.032577295 0.35053313
-0.080113225 0.032581735 0.35059568
-0.079751529 0.032560725 0.35038441
-0.079370469 0.032531623 0.35008591
-0.079031855 0.032519761 0.34997287
-0.07872846 0.032522354 0.35001537
-0.07839898 0.032514147 0.34994161
-0.078059889 0.032501876 0.34982407
-0.077738978 0.032497101 0.34978715
-0.077408962 0.032488473 0.34970871
-0.077054277 0.032469381 0.34951755
-0.076709628 0.032454375 0.34937039
-0.076421291 0.032463178 0.34947941
-0.07605233 0.032437664 0.34921896
-0.075738572 0.032435574 0.34921068
-0.075424545 0.032433361 0.34920099
-0.07505367 0.032406583 0.34892678
-0.074712351 0.03239239 0.34878805
-0.074382164 0.032382935 0.34870023
-0.074071571 0.032381963 0.34870374
-0.073733449 0.032368902 0.34857699
-0.073408552 0.03236156 0.34851179
-0.073118098 0.032369401 0.34861004
-0.072773278 0.032353137 0.34844869
-0.072400182 0.03232412 0.3481499
-0.072071292 0.032314669 0.34806177
-0.071755417 0.032311 0.3480359
-0.071419589 0.032298274 0.34791237
-0.07108371 0.032285415 0.34778741
-0.070761509 0.032278694 0.34772846
-0.070419505 0.032262828 0.34757099
-0.070111416 0.032262441 0.34758016
-0.06973087 0.032228559 0.34722847
-0.069421463 0.032227393 0.34722921
-0.069072925 0.032207977 0.34703323
-0.068750769 0.032200754 0.34696853
-0.068439253 0.032198459 0.34695697
-0.068129376 0.032196924 0.34695348
-0.067787237 0.032180056 0.3467848
-0.067464106 0.032172102 0.34671202
-0.067126162 0.032156978 0.34656197
-0.06680537 0.032149971 0.34649932
-0.066474937 0.032138243 0.34638578
-0.06615223 0.032130156 0.34631136
-0.06582354 0.032119077 0.34620464
-0.065528534 0.0321244 0.34627476
-0.065182738 0.032104768 0.34607571
-0.06484317 0.032088023 0.34590781
-0.06453824 0.032088347 0.34592381
-0.064223647 0.03208385 0.34588778
-0.063866198 0.032057792 0.34561926
-0.063562401 0.032058552 0.3456398
-0.063241392 0.032050591 0.34556627
-0.062876686 0.032020301 0.34525195
-0.062589504 0.032029387 0.34536213
-0.062253162 0.032013282 0.34520063
-0.061934203 0.032006003 0.34513423
-0.06159674 0.031989042 0.34496337
-0.061303925 0.031995215 0.34504193
-0.06094775 0.031968221 0.34476271
-0.060627632 0.031959958 0.34468552
-0.060301334 0.031948343 0.34457201
-0.059970696 0.031934291 0.34443229
-0.059666585 0.031934299 0.34444407
-0.059353221 0.031929333 0.34440216
-0.059047773 0.031928588 0.34440577
-0.058742307 0.031927835 0.34440914
-0.058425844 0.031921055 0.34434757
-0.058127858 0.031924363 0.34439468
-0.057818826 0.031921603 0.34437633
-0.057522409 0.031925812 0.3444331
-0.05720688 0.031919412 0.34437531
-0.056927539 0.031933237 0.34453574
-0.056619637 0.031931102 0.34452394
-0.056331553 0.031940185 0.34463304
-0.056031074 0.0319423 0.34466696
-0.089057744 0.033219889 0.35368052
-0.088652827 0.033185609 0.3533313
-0.088272214 0.03316021 0.35307667
-0.087940685 0.033153143 0.35301712
-0.087577991 0.033134218 0.35283136
-0.087223224 0.033118185 0.35267624
-0.086873114 0.033103805 0.35253873
-0.086522043 0.033088956 0.35239616
-0.08619637 0.033083744 0.3523562
-0.085827656 0.033061918 0.35213923
-0.085544638 0.033073064 0.35227337
-0.08516334 0.033046149 0.35200214
-0.084840193 0.03304169 0.35197002
-0.084496498 0.033029173 0.35185197
-0.084157348 0.033018336 0.35175183
-0.083836868 0.033014778 0.35172915
-0.083486676 0.032999445 0.35158104
-0.083171196 0.032997772 0.35157835
-0.082779296 0.032965649 0.35125124
-0.082468204 0.032965589 0.35126567
-0.082151316 0.032963205 0.3512553
-0.08179462 0.032944769 0.35107383
-0.081441864 0.032927785 0.3509078
-0.08111465 0.032921035 0.35085079
-0.080788702 0.032914754 0.3507987
-0.080454379 0.032904994 0.35070953
-0.080146275 0.032905925 0.35073426
-0.079748802 0.032870032 0.35036638
-0.079432726 0.032867536 0.35035446
-0.079071686 0.032846343 0.35014322
-0.078756623 0.032844163 0.35013452
-0.078432456 0.032838147 0.35008499
-0.078073569 0.03281749 0.34987926
-0.077772893 0.032821238 0.34993371
-0.077432118 0.032808028 0.34980729
-0.07708732 0.032792993 0.34966135
-0.076775789 0.032792054 0.34966564
-0.076436579 0.032779232 0.34954321
-0.076103143 0.032768793 0.34944618
-0.075749375 0.032749481 0.3492544
-0.075426206 0.032743294 0.34920257
-0.075091504 0.032732032 0.34909657
-0.074745737 0.032715824 0.34893778
-0.074429281 0.032712378 0.34891501
-0.074097514 0.032702137 0.3488197
-0.073783003 0.032699462 0.34880513
-0.073403098 0.032667659 0.34847975
-0.073105194 0.032672241 0.34854239
-0.072783038 0.032665972 0.34848928
-0.072445057 0.03265252 0.3483595
-0.072120398 0.03264498 0.34829277
-0.071788698 0.032634176 0.34819114
-0.071443938 0.032617319 0.34802485
-0.071143411 0.032620598 0.34807336
-0.070809409 0.03260849 0.34795764
-0.070429459 0.032575022 0.34761396
-0.070104904 0.032566998 0.34754169
-0.069778062 0.032557838 0.34745723
-0.069483794 0.032563858 0.34753478
-0.06914857 0.032550655 0.3474071
-0.068783931 0.032523427 0.34712967
-0.068492807 0.032530874 0.34722227
-0.068188272 0.032531988 0.34724721
-0.067835927 0.032510191 0.34702766
-0.067483738 0.032488286 0.34680676
-0.06716498 0.032482333 0.34675616
-0.066824682 0.032465875 0.34659332
-0.066487186 0.032450628 0.34644336
-0.066186294 0.032453187 0.34648347
-0.06585224 0.032439437 0.34634939
-0.06553483 0.032433793 0.34630179
-0.065227963 0.032433342 0.3463096
-0.064883731 0.032414217 0.34611791
-0.064547427 0.032398891 0.34596679
-0.064244203 0.032400105 0.34599221
-0.063893586 0.03237731 0.34576124
-0.063590609 0.032378558 0.34578693
-0.06324406 0.032357525 0.34557459
-0.062922761 0.03234927 0.34549865
-0.062604524 0.032342516 0.34543872
-0.062274449 0.032329552 0.34531242
-0.061934628 0.032311376 0.34513035
-0.061627015 0.032309901 0.34512666
-0.061314456 0.032305811 0.34509495
-0.060997296 0.032299243 0.34503672
-0.060663342 0.032283667 0.34488222
-0.060326926 0.032266624 0.34471199
-0.059994541 0.03225157 0.34456292
-0.059673414 0.032242451 0.34447721
-0.059349682 0.032231823 0.34437531
-0.059045501 0.032231763 0.34438622
-0.058734559 0.032227982 0.34435743
-0.058429044 0.032227162 0.34436014
-0.058122218 0.032225605 0.34435499
-0.057812653 0.032222506 0.34433326
-0.057501595 0.032218538 0.34430215
-0.057198513 0.032219023 0.34431863
-0.056902107 0.032223288 0.34437549
-0.056597378 0.032222867 0.34438214
-0.056294579 0.032223541 0.34440053
-0.055990733 0.032223627 0.34441248
-0.055702694 0.032232855 0.34452215
-0.055417687 0.032243948 0.34465173
-0.089436762 0.033558257 0.35391864
-0.089063279 0.033535693 0.35369653
-0.088631831 0.033491068 0.35324168
-0.088309377 0.033487458 0.35321936
-0.087967038 0.033476252 0.3531169
-0.087597296 0.033454504 0.35290319
-0.087282628 0.033453714 0.35291049
-0.086935952 0.033440597 0.35278776
-0.086590186 0.033427741 0.35266769
-0.086258218 0.033420134 0.35260299
-0.085938208 0.033417132 0.35258681
-0.085589871 0.03340305 0.35245365
-0.085241407 0.033388808 0.35231882
-0.084862418 0.033362463 0.35205621
-0.084562048 0.033366956 0.35211891
-0.08419852 0.033346456 0.35191786
-0.083826602 0.033322476 0.35168004
-0.083515927 0.033322755 0.35169819
-0.083197966 0.033320114 0.35168549
-0.082822442 0.033294316 0.35142827
-0.082509853 0.033293713 0.351437
-0.082182452 0.033287112 0.35138237
-0.081864148 0.033284161 0.35136622
-0.081500292 0.033262592 0.35115346
-0.081133753 0.033239756 0.35092732
-0.080817163 0.033237297 0.35091621
-0.080491178 0.033230934 0.35086387
-0.080160946 0.033222765 0.35079235
-0.079827115 0.033213031 0.35070434
-0.079472452 0.033194523 0.35052359
-0.079135165 0.033183154 0.35041818
-0.078813948 0.033178467 0.35038328
-0.078449063 0.033155285 0.35015303
-0.07811334 0.033144288 0.3500514
-0.077796288 0.033141162 0.35003284
-0.077450484 0.03312571 0.34988406
-0.077134632 0.033123001 0.34986982
-0.076789841 0.033107791 0.34972352
-0.076454096 0.033096369 0.34961715
-0.076147348 0.033097468 0.34964296
-0.075811692 0.033085957 0.34953555
-0.075461321 0.033067901 0.34935895
-0.075112879 0.033050548 0.34918973
-0.074782535 0.033041049 0.34910339
-0.074496239 0.03305101 0.34922266
-0.074158795 0.033038273 0.34910202
-0.073807299 0.033019137 0.34891376
-0.073473155 0.03300764 0.34880611
-0.073118635 0.032986853 0.34860027
-0.07281018 0.032986764 0.34861305
-0.072489351 0.032981038 0.34856629
-0.072152622 0.032968 0.34844214
-0.07182388 0.032958519 0.34835559
-0.071487613 0.03294548 0.34823135
-0.071170151 0.032941043 0.34819797
-0.07082358 0.032923028 0.34802103
-0.070522748 0.032926217 0.34806818
-0.07018052 0.032910019 0.34791031
-0.069811471 0.032881048 0.34761736
-0.069511302 0.0328844 0.34766611
-0.069192573 0.032878973 0.34762195
-0.068873391 0.032873277 0.34757489
-0.068498604 0.03284087 0.3472454
-0.068189457 0.032839786 0.347247
-0.067878023 0.032837581 0.34723672
-0.067548387 0.032826517 0.34713268
-0.067177668 0.032795291 0.34681544
-0.066864699 0.032792103 0.34679458
-0.066523544 0.032775 0.34662652
-0.066200972 0.032766938 0.34655401
-0.065876536 0.032757871 0.34647086
-0.065560468 0.032752905 0.34643099
-0.065247633 0.032749511 0.34640771
-0.064941794 0.032749619 0.34642139
-0.064594239 0.032728579 0.3462114
-0.064252108 0.032710109 0.34602848
-0.063934714 0.032704122 0.34597751
-0.063611045 0.032694843 0.34589171
-0.063277192 0.032680217 0.34574929
-0.062968463 0.032678492 0.3457433
-0.062625691 0.032658998 0.3455492
-0.062321428 0.03265949 0.34556657
-0.062001538 0.03265176 0.34549686
-0.061649714 0.03262705 0.34524745
-0.061340049 0.032624517 0.34523264
-0.061029878 0.032621693 0.34521466
-0.060680315 0.032597676 0.34497237
-0.060369853 0.032594532 0.34495091
-0.060054842 0.032588884 0.34490293
-0.059739623 0.032583065 0.34485304
-0.059384812 0.03255548 0.34457278
-0.059053596 0.032540619 0.34442705
-0.058735814 0.032533038 0.34435838
-0.058424842 0.032529179 0.34432903
-0.058114175 0.032525443 0.34430093
-0.057805493 0.03252279 0.34428421
-0.057503443 0.032523856 0.34430689
-0.057200108 0.032524206 0.34432185
-0.056897786 0.032525137 0.34434295
-0.056591198 0.032523628 0.34433818
-0.056287058 0.032523517 0.34434807
-0.05599007 0.032527562 0.34440202
-0.05569201 0.032531019 0.34444967
-0.055400804 0.032538548 0.34454033
-0.055103365 0.032542475 0.34459284
-0.054802269 0.032544278 0.34462276
-0.089789204 0.033886883 0.3540501
-0.089418828 0.033865415 0.35384166
-0.089035057 0.033838708 0.35357845
-0.08873529 0.033843845 0.35364801
-0.088368781 0.033823479 0.35345092
-0.087971166 0.033791024 0.35312751
-0.087639272 0.033783667 0.35306633
-0.087316565 0.033779811 0.35304165
-0.086957596 0.033761851 0.35286957
-0.086612895 0.033749316 0.35275412
-0.086259447 0.033733275 0.35260198
-0.08592017 0.033722684 0.35250676
-0.085596673 0.033718225 0.35247555
-0.085254595 0.033706386 0.35236725
-0.084913351 0.0336948 0.35226148
-0.084548853 0.03367386 0.35205787
-0.084246472 0.0336776 0.35211226
-0.083881073 0.033656079 0.35190248
-0.083558358 0.033651587 0.35187075
-0.083213732 0.033638209 0.35174602
-0.082914367 0.033643093 0.35181221
-0.082580179 0.033633836 0.35173047
-0.082226567 0.033616565 0.35156491
-0.081863195 0.033595152 0.351356
-0.081539065 0.033589747 0.3513144
-0.081212848 0.03358344 0.35126331
-0.080875911 0.033572629 0.35116512
-0.080503441 0.033546936 0.35091117
-0.080173954 0.033539016 0.35084313
-0.079879709 0.033545841 0.35092923
-0.079517387 0.033524018 0.35071564
-0.079176053 0.033510905 0.35059312
-0.078862019 0.033509292 0.35059083
-0.078518696 0.033495165 0.35045761
-0.078156345 0.033472788 0.35023791
-0.077840298 0.033470135 0.35022467
-0.077477716 0.033447374 0.35000089
-0.07716684 0.033446841 0.35000971
-0.076843388 0.033440836 0.34996119
-0.076508358 0.033429723 0.34985912
-0.076164998 0.033414859 0.34971783
-0.075827233 0.033402339 0.349601
-0.075483784 0.033387206 0.34945676
-0.07516256 0.03338182 0.34941447
-0.074854448 0.033382233 0.34943286
-0.074502841 0.033363175 0.34924737
-0.074170537 0.033352643 0.34915107
-0.073832646 0.0333395 0.34902737
-0.073488727 0.033323504 0.34887379
-0.073156334 0.03331263 0.34877375
-0.072843313 0.033310521 0.34876543
-0.072512276 0.03330012 0.34867024
-0.072147109 0.033273891 0.34840927
-0.071862362 0.033284687 0.34853595
-0.07153596 0.033276193 0.34846058
-0.071198046 0.033262257 0.34832814
-0.070861965 0.033249054 0.34820336
-0.070510648 0.033228558 0.34800214
-0.070197895 0.033226136 0.34799019
-0.069872089 0.033217486 0.34791291
-0.069539599 0.033205569 0.34780136
-0.069213927 0.033196818 0.34772292
-0.068900838 0.03319405 0.34770712
-0.06854564 0.033170879 0.3474775
-0.068236299 0.033169787 0.34747919
-0.067923293 0.0331669 0.34746197
-0.067556031 0.033137377 0.34716564
-0.067247063 0.033136308 0.34716737
-0.066917993 0.033125278 0.34706467
-0.066568799 0.03310414 0.34685603
-0.066256784 0.033101376 0.34683985
-0.065892659 0.033072438 0.34654933
-0.06557785 0.033068091 0.34651649
-0.065253504 0.033058874 0.34643251
-0.064964198 0.033067413 0.34653452
-0.064614981 0.033045392 0.34631625
-0.064296201 0.033038799 0.34625962
-0.063937284 0.033011418 0.34598505
-0.063647941 0.033019867 0.346086
-0.063318014 0.033007246 0.34596598
-0.06297154 0.032985836 0.34575382
-0.062661529 0.032983407 0.34574056
-0.062339619 0.032974664 0.34566104
-0.062006693 0.032959975 0.34551919
-0.061706893 0.03296284 0.34556124
-0.061383352 0.03295299 0.34546998
-0.06104907 0.032937244 0.3453168
-0.060701415 0.032914095 0.34508598
-0.060396936 0.032914229 0.34509924
-0.060081296 0.032908261 0.34504843
-0.059751946 0.032894682 0.34491777
-0.059421927 0.032880601 0.34478173
-0.059112236 0.032877672 0.34476265
-0.058756508 0.03284898 0.34447333
-0.058439869 0.032841958 0.34441116
-0.058120836 0.032833509 0.34433398
-0.057825062 0.032838177 0.34439436
-0.057499323 0.03282579 0.34427577
-0.057196006 0.032826141 0.34429073
-0.056887742 0.032823637 0.34427571
-0.056585629 0.03282468 0.34429783
-0.056283548 0.032825753 0.34432018
