# .PCD v0.7 - Point Cloud Data file format
VERSION 0.7
FIELDS x y z
SIZE 4 4 4
TYPE F F F
COUNT 1 1 1
WIDTH 1301
HEIGHT 1
VIEWPOINT 0 0 0 1 0 0 0
POINTS 1301
DATA ascii
0.10093163 -0.004815022 0.41456589
0.1013028 -0.0048151962 0.4145619
0.1016394 -0.0048137326 0.41441685
0.10199459 -0.0048131566 0.41434819
0.10234538 -0.0048123775 0.41426203
0.10266508 -0.004810147 0.41405091
0.10301127 -0.0048091691 0.41394755
0.10333051 -0.0048069442 0.41373685
0.10371093 -0.0048075714 0.41377157
0.10408773 -0.0048080259 0.41379142
0.10440093 -0.0048055504 0.41355908
0.1048374 -0.0048087463 0.41381475
0.047948632 -0.0045797173 0.42916811
0.048340537 -0.004581023 0.42927989
0.048707508 -0.004579965 0.42917001
0.04908023 -0.0045794598 0.42911187
0.049456149 -0.0045792577 0.4290821
0.049810823 -0.0045771054 0.42886958
0.050178688 -0.0045761894 0.42877275
0.050547887 -0.0045754076 0.42868844
0.050911155 -0.0045741042 0.42855522
0.051288195 -0.0045740488 0.42853883
0.051658977 -0.0045734392 0.42847043
0.05201979 -0.0045719622 0.42832074
0.052398585 -0.0045720758 0.42831999
0.05277412 -0.0045719054 0.42829251
0.053118724 -0.004569076 0.42801592
0.053509891 -0.0045702639 0.42811558
0.053855028 -0.00456753 0.42784783
0.054219108 -0.004566431 0.42773312
0.054592468 -0.0045661228 0.42769241
0.054943763 -0.0045639849 0.42748031
0.055320732 -0.0045639952 0.42746931
0.055684861 -0.0045629526 0.42735958
0.056039233 -0.00456113 0.42717683
0.05640154 -0.0045599723 0.42705628
0.056761958 -0.0045586796 0.42692295
0.05713981 -0.0045587937 0.42692134
0.057499424 -0.004557461 0.42678416
0.057875659 -0.004557454 0.42677107
0.05821817 -0.0045548081 0.42651084
0.058591001 -0.0045545539 0.42647445
0.058966454 -0.004554505 0.42645726
0.059333071 -0.0045537776 0.42637646
0.059696987 -0.0045528547 0.42627725
0.060047198 -0.0045509036 0.42608175
0.060412858 -0.0045501404 0.42599741
0.060774811 -0.0045491089 0.42588788
0.061138786 -0.0045482405 0.42579359
0.061489943 -0.0045464351 0.42561141
0.061872385 -0.0045469506 0.42564651
0.062236097 -0.004546091 0.42555282
0.062608339 -0.0045458614 0.42551804
0.062996209 -0.004546762 0.425589
0.063368268 -0.004546518 0.4255527
0.063757181 -0.0045474782 0.42562908
0.064155683 -0.004549107 0.42576802
0.08844652 -0.0044852644 0.41873914
0.088773184 -0.0044830488 0.41851491
0.089085542 -0.0044801328 0.41822517
0.089415416 -0.004478117 0.4180195
0.089755818 -0.0044766436 0.41786438
0.090107217 -0.0044757281 0.41776133
0.090450712 -0.0044744289 0.41762245
0.09082482 -0.0044746483 0.41762522
0.091171414 -0.0044735163 0.41750181
0.091492914 -0.0044711661 0.41726467
0.091859818 -0.004471045 0.41723555
0.09220849 -0.004470041 0.417124
0.092590384 -0.0044706492 0.41716281
0.09290231 -0.0044678869 0.4168871
0.093267858 -0.004467715 0.41685313
0.093618818 -0.0044668494 0.41675425
0.093980171 -0.0044664829 0.416702
0.094306365 -0.0044644559 0.41649473
0.094665796 -0.0044640112 0.41643506
0.095016815 -0.0044631753 0.41633883
0.095398642 -0.0044637867 0.41637763
0.09575773 -0.0044633336 0.41631705
0.097443223 -0.0044560893 0.41554928
0.097821563 -0.0044565527 0.41557389
0.098155677 -0.0044550039 0.41541091
0.098493077 -0.0044536158 0.41526285
0.098866217 -0.0044538472 0.4152658
0.099237867 -0.0044540106 0.41526231
0.099536337 -0.0044509 0.41495356
0.099906437 -0.0044510039 0.41494447
0.1002636 -0.0044505321 0.41488162
0.1006048 -0.0044493582 0.41475335
0.10098333 -0.0044498369 0.4147791
0.10132686 -0.0044487757 0.41466126
0.10163996 -0.004446391 0.41441998
0.1020337 -0.0044475389 0.41450796
0.10236657 -0.0044460343 0.41434869
0.10271748 -0.0044453205 0.4142631
0.10304575 -0.0044436362 0.41408697
0.10339361 -0.0044428045 0.41399035
0.10374222 -0.004442011 0.41389725
0.10415646 -0.0044440241 0.41406557
0.048348501 -0.0042033051 0.42935163
0.048728786 -0.0042034765 0.42935848
0.049093213 -0.0042022876 0.42922631
0.049464233 -0.0042016776 0.4291532
0.049845465 -0.0042019365 0.42916879
0.050191563 -0.0041992529 0.42888373
0.050571967 -0.0041994583 0.42889363
0.050934415 -0.0041981791 0.42875195
0.051313557 -0.0041982862 0.42875165
0.051679272 -0.0041972995 0.42863971
0.05204358 -0.004196214 0.42851758
0.052411068 -0.0041953991 0.42842299
0.05278188 -0.0041948594 0.42835641
0.053137653 -0.0041931411 0.4281694
0.053520922 -0.0041936003 0.42820475
0.053883679 -0.0041924575 0.42807642
0.05423902 -0.0041907583 0.42789117
0.054608967 -0.0041902023 0.42782262
0.054976314 -0.0041894554 0.42773452
0.055335514 -0.0041881027 0.42758447
0.055706907 -0.004187684 0.42752975
0.056068256 -0.0041865217 0.42739898
0.05641732 -0.0041844631 0.42717671
0.056775566 -0.0041831075 0.42702618
0.057146419 -0.0041826935 0.42697164
0.057523046 -0.0041827043 0.42696041
0.057897177 -0.0041825343 0.42693067
0.058259588 -0.0041815247 0.42681518
0.058631826 -0.0041812295 0.42677253
0.058979634 -0.0041792067 0.42655346
0.059352376 -0.004178965 0.42651615
0.059713062 -0.0041778828 0.42639294
0.060077038 -0.0041770427 0.42629445
0.060442511 -0.0041763163 0.42620742
0.060810961 -0.0041758036 0.42614216
0.061167214 -0.0041744639 0.42599246
0.061511766 -0.0041723475 0.4257634
0.061891265 -0.004172612 0.42577732
0.062245578 -0.0041711866 0.42561862
0.062625408 -0.0041714767 0.42563501
0.063008025 -0.0041719475 0.42566973
0.063393235 -0.0041725845 0.42572135
0.063774228 -0.004172937 0.42574385
0.064154662 -0.0041732495 0.42576218
0.064578868 -0.0041763885 0.42606881
0.088472113 -0.0041159019 0.41886121
0.088774785 -0.0041127522 0.41852331
0.08909595 -0.0041104811 0.41827485
0.089421391 -0.0041084266 0.41804832
0.089808255 -0.0041091987 0.41810936
0.090123415 -0.0041066972 0.41783726
0.090499155 -0.0041069645 0.41784689
0.090838984 -0.004105607 0.41769117
0.091183439 -0.004104469 0.41755769
0.09153647 -0.0041037234 0.41746417
0.091880977 -0.004102604 0.4173325
0.092255563 -0.0041028303 0.41733775
0.092599653 -0.0041017053 0.41720539
0.092944354 -0.0041006152 0.41707659
0.09330821 -0.0041003753 0.41703427
0.093661837 -0.0040996899 0.41694656
0.093989894 -0.0040978943 0.4167459
0.094378084 -0.004098725 0.4168123
0.094735101 -0.0040981993 0.41674075
0.098904811 -0.0040874635 0.41542867
0.099264823 -0.0040871282 0.41537592
0.099608049 -0.0040861052 0.41525328
0.099922985 -0.0040839342 0.41501394
0.10029773 -0.0040842141 0.41502365
0.10064039 -0.0040831915 0.41490087
0.10101538 -0.0040834812 0.41491154
0.10135108 -0.0040821871 0.41476116
0.1016976 -0.0040813363 0.41465583
0.10206901 -0.0040814872 0.41465217
0.10241514 -0.0040806294 0.41454604
0.10276002 -0.0040797275 0.41443542
0.10309828 -0.0040785708 0.41429886
0.10343996 -0.0040775565 0.41417676
0.10379981 -0.0040772627 0.4141278
0.10415241 -0.0040766876 0.41405025
0.04835574 -0.003825404 0.42941675
0.048757698 -0.0038272564 0.4296141
0.049115513 -0.0038256424 0.42942217
0.049500141 -0.0038261248 0.42946556
0.049857661 -0.0038245206 0.42927468
0.050225955 -0.0038237611 0.42917851
0.050587513 -0.0038225031 0.42902637
0.050975863 -0.0038232738 0.42910177
0.051342592 -0.0038224226 0.4289951
0.051701315 -0.0038209923 0.42882338
0.052055251 -0.0038192316 0.42861456
0.052414052 -0.0038178503 0.4284482
0.05279617 -0.0038181751 0.42847323
0.053172547 -0.0038180831 0.42845145
0.053533535 -0.0038168947 0.42830655
0.053901155 -0.003816192 0.42821613
0.054266073 -0.0038153096 0.42810541
0.054628242 -0.0038142477 0.42797449
0.054989133 -0.003813111 0.42783514
0.055356503 -0.003812436 0.42774752
0.05572838 -0.0038120777 0.42769539
0.056095473 -0.0038113999 0.42760733
0.056450717 -0.0038099308 0.42743045
0.056813922 -0.0038090153 0.42731556
0.057178956 -0.003808233 0.42721561
0.057543285 -0.0038074143 0.42711148
0.057907321 -0.0038065873 0.42700633
0.058285698 -0.0038067072 0.42700735
0.058632433 -0.0038047722 0.42677781
0.059009302 -0.0038048045 0.42676893
0.059371535 -0.0038038986 0.4266547
0.059732549 -0.0038029263 0.42653292
0.060094003 -0.0038019938 0.42641562
0.060472917 -0.0038021712 0.42642266
0.06084324 -0.0038018089 0.42636916
0.06121048 -0.0038012599 0.42629465
0.061551988 -0.0037991286 0.42604265
0.061922282 -0.00379879 0.42599156
0.062266391 -0.0037968573 0.42576176
0.062635228 -0.0037964475 0.42570257
0.063015193 -0.0037967127 0.42571902
0.063399158 -0.003797214 0.42576191
0.063768931 -0.0037968648 0.42570934
0.064155549 -0.0037975155 0.42576885
0.064542361 -0.0037981707 0.42582878
0.064928621 -0.0037987859 0.42588416
0.088157848 -0.0037476378 0.41914737
0.08845333 -0.0037444448 0.41877306
0.088784784 -0.003742795 0.4185712
0.089129597 -0.0037417195 0.41843361
0.089487985 -0.0037412203 0.41836038
0.089817546 -0.0037395251 0.41815338
0.090171985 -0.0037388746 0.41806319
0.090544932 -0.003738994 0.41805902
0.090864129 -0.003736902 0.41780755
0.091227822 -0.0037366492 0.41776168
0.091576226 -0.0037357742 0.4176462
0.091928065 -0.0037350461 0.41754711
0.092272557 -0.0037340266 0.41741541
0.092631169 -0.0037335844 0.41734815
0.093001127 -0.0037336007 0.41733214
0.093335167 -0.0037321807 0.41715553
0.093681455 -0.0037312589 0.41703463
0.094052225 -0.0037313164 0.41702306
0.094459951 -0.0037328331 0.41717458
0.094941705 -0.0037372522 0.41765037
0.099285901 -0.0037198253 0.41546485
0.099677019 -0.0037206789 0.41554159
0.099988624 -0.0037185689 0.41528729
0.10032453 -0.003717375 0.41513532
0.10067253 -0.0037166364 0.41503409
0.10104176 -0.0037166837 0.41502064
0.10138945 -0.003715941 0.41491887
0.10175793 -0.0037159629 0.41490254
0.10210457 -0.0037151901 0.41479737
0.1024096 -0.0037129137 0.41452432
0.10279731 -0.0037136409 0.41458657
0.10315 -0.0037131014 0.41450739
0.10350996 -0.0037128271 0.41445774
0.10387266 -0.0037126527 0.4144192
0.10427299 -0.003713819 0.41453031
0.048759568 -0.0034486747 0.42963135
0.049138259 -0.003448684 0.42962185
0.049511265 -0.0034482968 0.4295629
0.049879659 -0.0034475962 0.42946488
0.050249942 -0.0034470367 0.42938429
0.050630689 -0.0034471969 0.42939332
0.05099038 -0.0034459319 0.42922473
0.051347252 -0.0034444965 0.42903486
0.051711965 -0.0034436041 0.42891255
0.052082323 -0.0034430977 0.42883825
0.052450236 -0.0034424379 0.42874482
0.052807018 -0.0034410621 0.4285621
0.053181142 -0.0034408276 0.42852148
0.053551961 -0.0034403838 0.42845476
0.053922057 -0.0034399007 0.42838299
0.054292835 -0.0034394669 0.42831734
0.054641183 -0.0034376278 0.42807665
0.05501917 -0.0034376655 0.42806959
0.055371221 -0.0034360932 0.42786199
0.055744417 -0.0034358457 0.42781925
0.05612018 -0.0034357584 0.42779642
0.056476083 -0.0034344648 0.4276233
0.056833141 -0.0034332571 0.42746085
0.057199836 -0.0034326441 0.42737237
0.057566527 -0.0034320385 0.42728475
0.05794042 -0.0034318671 0.42725113
0.058301669 -0.0034309544 0.42712513
0.058668818 -0.0034303979 0.42704344
0.059022624 -0.0034290734 0.42686599
0.059397604 -0.0034289872 0.42684278
0.059739951 -0.003427031 0.42658657
0.060107794 -0.0034265518 0.42651427
0.060496427 -0.0034272564 0.42658919
0.060839981 -0.003425414 0.42634711
0.06121232 -0.0034252049 0.42630818
0.061571714 -0.0034242787 0.42617998
0.061941255 -0.0034239241 0.42612281
0.062310863 -0.0034235781 0.42606661
0.062661484 -0.0034221984 0.42588177
0.063030645 -0.0034218412 0.42582417
0.063396171 -0.0034212924 0.4257426
0.063777402 -0.003421593 0.42576665
0.064167984 -0.0034223876 0.42585215
0.064541325 -0.0034222596 0.42582273
0.064926825 -0.0034227739 0.42587313
0.065312468 -0.0034232892 0.42592368
0.087825693 -0.0033782308 0.41935027
0.088096768 -0.0033743999 0.41885766
0.088460065 -0.0033741191 0.4188056
0.088806793 -0.003373211 0.41867569
0.08917138 -0.0033729856 0.41863045
0.089500606 -0.0033714296 0.41842008
0.08984594 -0.0033704911 0.41828623
0.090198688 -0.0033698371 0.41818768
0.090552352 -0.0033692222 0.41809395
0.09092398 -0.0033692785 0.41808346
0.091291167 -0.00336917 0.41805246
0.091627821 -0.0033679397 0.41788223
0.091933988 -0.003365603 0.41757473
0.092323884 -0.0033663381 0.41764829
0.092704438 -0.0033667281 0.41767895
0.093019463 -0.0033647439 0.41741508
0.093397349 -0.003365041 0.41743413
0.093767107 -0.0033650431 0.4174166
0.09418761 -0.0033668596 0.41762403
0.094599456 -0.0033683539 0.4177914
0.094993055 -0.0033691889 0.41787696
0.095376462 -0.0033696569 0.41791698
0.095737241 -0.0033693251 0.41785777
0.099683262 -0.0033526325 0.41556826
0.10004459 -0.0033523964 0.41552046
0.1004133 -0.0033524078 0.41550329
0.1007137 -0.003350147 0.41520444
0.10106978 -0.0033497482 0.41513637
0.10143337 -0.0033495999 0.41509929
0.10178015 -0.0033488993 0.41499376
0.10211965 -0.0033479657 0.41485929
0.102491 -0.0033480783 0.41485444
0.10285535 -0.0033479626 0.4148213
0.10317945 -0.0033465424 0.41462639
0.10355833 -0.0033469021 0.41465211
0.10395657 -0.0033478828 0.41475463
0.10432416 -0.0033478725 0.41473436
0.048767745 -0.0030704609 0.42970413
0.049155179 -0.0030710106 0.42977047
0.049517229 -0.0030699784 0.42961538
0.049907397 -0.0030706916 0.42970443
0.05028446 -0.0030705933 0.4296799
0.050639112 -0.0030691389 0.42946544
0.051010642 -0.0030687207 0.429396
0.051374055 -0.0030678238 0.42925951
0.051749829 -0.003067673 0.42922732
0.052106768 -0.0030664159 0.42904025
0.052476615 -0.0030659304 0.42896113
0.052847207 -0.0030654953 0.42888895
0.053200319 -0.0030640594 0.42867672
0.053572848 -0.0030637539 0.42862254
0.053929292 -0.0030625395 0.42844117
0.054295111 -0.0030618703 0.42833599
0.054682754 -0.0030624326 0.42840302
0.055025537 -0.0030604915 0.42811981
0.055407699 -0.0030607525 0.42814457
0.055759773 -0.003059359 0.42793781
0.056132767 -0.0030591246 0.42789307
0.056495771 -0.0030583518 0.42777303
0.056859042 -0.0030576037 0.42765641
0.057230078 -0.0030572799 0.42759901
0.057589997 -0.0030563704 0.42745966
0.057960145 -0.0030560121 0.42739731
0.058324773 -0.0030553692 0.42729509
0.058695301 -0.0030550414 0.42723688
0.059063133 -0.0030545781 0.42715967
0.059404448 -0.0030527578 0.42689264
0.059770927 -0.0030522456 0.42680845
0.060137462 -0.0030517424 0.42672551
0.060493927 -0.0030507375 0.42657229
0.060859915 -0.0030502221 0.42648748
0.061231483 -0.0030499913 0.42644238
0.061601192 -0.0030496705 0.42638469
0.061955571 -0.0030485999 0.42622203
0.062345013 -0.003049256 0.42630079
0.062687173 -0.0030476062 0.42605707
0.06304983 -0.0030469666 0.42595446
0.063423306 -0.0030468537 0.42592549
0.063799046 -0.0030468504 0.42591181
0.064165719 -0.0030464164 0.42583779
0.064550549 -0.0030468446 0.42588428
0.064926215 -0.0030468376 0.42586985
0.065314464 -0.0030474174 0.42593735
0.065707706 -0.003048222 0.42603624
0.06608548 -0.003048304 0.42603406
0.087176964 -0.0030103978 0.419835
0.087501958 -0.0030087989 0.41959506
0.087847494 -0.0030079165 0.41945502
0.088160396 -0.0030059281 0.41916075
0.088480197 -0.0030041912 0.41890153
0.088822916 -0.0030032436 0.41875228
0.089184754 -0.0030029474 0.41869384
0.089557536 -0.0030030205 0.41868684
0.089886375 -0.0030016252 0.41847509
0.090239711 -0.0030010561 0.41837847
0.090597369 -0.0030006352 0.41830245
0.09094052 -0.0029997388 0.41816014
0.091292515 -0.0029991397 0.41805923
0.091651633 -0.0029987786 0.41799143
0.091998741 -0.0029980293 0.41786948
0.092358574 -0.0029976983 0.41780582
0.092723429 -0.002997532 0.41776508
0.093072407 -0.0029968566 0.41765329
0.093422145 -0.00299621 0.41754553
0.093852229 -0.0029981355 0.41779611
0.094243348 -0.0029988058 0.41787177
0.099687956 -0.0029844937 0.41558844
0.10005292 -0.0029843906 0.41555563
0.10043128 -0.0029846858 0.41557828
0.10079411 -0.0029845191 0.41553655
0.10108561 -0.002982249 0.41520196
0.10147612 -0.0029829056 0.41527483
0.1018263 -0.0029823761 0.4151825
0.10217771 -0.0029818867 0.41509575
0.10250849 -0.0029808001 0.41492581
0.10287358 -0.0029807161 0.41489539
0.10324818 -0.0029809063 0.41490313
0.10359946 -0.0029804248 0.41481733
0.049172413 -0.0026930938 0.42992181
0.04953948 -0.0026924538 0.42980906
0.049914625 -0.0026922589 0.42976728
0.050276946 -0.0026913804 0.42961633
0.050649147 -0.0026910398 0.42955118
0.051023159 -0.0026908 0.42950198
0.051386822 -0.0026900212 0.4293668
0.051762085 -0.0026898573 0.4293296
0.052128807 -0.0026892545 0.42922232
0.052500825 -0.0026889313 0.42915961
0.052865941 -0.0026882621 0.42904159
0.053216204 -0.0026868524 0.42880532
0.05360296 -0.0026872917 0.42886406
0.053955693 -0.0026860312 0.42865151
0.054325484 -0.0026856312 0.42857626
0.054699033 -0.0026854211 0.42853117
0.055061549 -0.0026846761 0.42840067
0.05542792 -0.0026841275 0.42830145
0.055785198 -0.0026831492 0.42813358
0.056148693 -0.0026824805 0.42801511
0.056522321 -0.0026823017 0.4279747
0.056885064 -0.0026816123 0.42785272
0.057249043 -0.0026809892 0.42774132
0.05761411 -0.0026804248 0.42763925
0.057985853 -0.0026801766 0.42758748
0.05835709 -0.0026799082 0.42753243
0.058714084 -0.0026789932 0.42737421
0.059081048 -0.0026785415 0.42728981
0.059445679 -0.0026779906 0.42718959
0.059808742 -0.0026773764 0.42707908
0.060147386 -0.002675683 0.42679647
0.060530599 -0.0026759813 0.42683145
0.060891416 -0.0026752918 0.42670882
0.061261941 -0.0026750343 0.42665505
0.061608158 -0.0026737254 0.4264335
0.061980873 -0.0026735747 0.42639664
0.062346842 -0.0026731368 0.42631391
0.062706798 -0.0026724474 0.426191
0.06307283 -0.0026720243 0.42611048
0.063436016 -0.002671486 0.4260115
0.063810475 -0.0026714252 0.4259887
0.064174294 -0.0026709225 0.4258953
0.064547502 -0.0026708141 0.42586473
0.064941213 -0.0026715505 0.42596883
0.06531179 -0.0026713321 0.42592058
0.065701209 -0.0026718818 0.42599478
0.066080779 -0.0026720271 0.42600438
0.066483967 -0.0026731205 0.42616507
0.086856186 -0.0026404832 0.42009774
0.087193549 -0.0026394424 0.41991544
0.087497875 -0.0026374143 0.41957599
0.08780434 -0.0026354676 0.41924948
0.088186324 -0.0026357945 0.41928461
0.088508852 -0.0026343486 0.41903776
0.088856444 -0.002633658 0.41891089
0.089224026 -0.0026335625 0.41887873
0.089561015 -0.0026325686 0.41870362
0.089931399 -0.0026325604 0.41868523
0.090274982 -0.0026317714 0.41854256
0.090624265 -0.0026311537 0.41842717
0.09098421 -0.0026308491 0.41836154
0.091330573 -0.0026301558 0.41823405
0.091680758 -0.0026295776 0.41812479
0.09204267 -0.0026293395 0.41806954
0.092403509 -0.0026290722 0.41800964
0.092771612 -0.0026290123 0.41798273
0.093119755 -0.00262839 0.41786629
0.093508683 -0.0026289192 0.41793287
0.093906075 -0.0026296808 0.41803637
0.094351687 -0.0026317816 0.41835266
0.10011027 -0.002617605 0.41579431
0.10044531 -0.0026167287 0.41563681
0.10080843 -0.0026165876 0.4155961
0.10117254 -0.0026164735 0.41555956
0.10148972 -0.0026151503 0.41533104
0.1018713 -0.0026154898 0.41536653
0.10221433 -0.0026148411 0.415245
0.10255805 -0.0026142141 0.41512695
0.10292201 -0.0026141054 0.41509116
0.10326944 -0.0026135799 0.41498911
0.049172759 -0.0023141166 0.42992538
0.049570613 -0.0023150034 0.43007967
0.049941115 -0.0023146092 0.42999589
0.050304804 -0.0023139077 0.42985493
0.050667457 -0.002313169 0.42970699
0.051044036 -0.0023130721 0.42967829
0.051403508 -0.0023122069 0.42950675
0.051783513 -0.0023122716 0.42950785
0.05214439 -0.0023114872 0.42935115
0.052512921 -0.0023110507 0.42925906
0.052892357 -0.0023110968 0.42925653
0.053245418 -0.0023099978 0.42904127
0.053609554 -0.0023093913 0.42891738
0.053992163 -0.0023095834 0.42894182
0.054350629 -0.0023087473 0.4287751
0.054719772 -0.0023083726 0.42869416
0.055073515 -0.0023073582 0.42849424
0.055439588 -0.0023068704 0.42839208
0.055799555 -0.002306137 0.42824429
0.056176968 -0.0023061293 0.42823118
0.056538489 -0.0023054737 0.42809767
0.056910507 -0.0023052513 0.42804459
0.057276599 -0.0023047938 0.42794776
0.057637025 -0.0023041158 0.42780986
0.058004785 -0.0023037374 0.42772761
0.058372311 -0.0023033547 0.42764446
0.058728952 -0.0023025498 0.42748293
0.059095021 -0.0023021228 0.42739141
0.05945668 -0.0023015302 0.42726913
0.059832774 -0.0023015002 0.42725122
0.060184106 -0.0023005237 0.42705756
0.060560558 -0.0023005137 0.42704326
0.060932811 -0.0023003449 0.42699942
0.061287042 -0.0022995027 0.42683041
0.061653633 -0.0022991307 0.42674878
0.062015574 -0.0022985912 0.42663589
0.062361345 -0.0022974622 0.42641357
0.062721066 -0.0022968575 0.42628855
0.063093171 -0.0022967106 0.42624837
0.063449495 -0.0022959944 0.42610252
0.063833304 -0.0022962752 0.42614159
0.064186178 -0.0022954463 0.42597467
0.064559467 -0.002295353 0.42594421
0.064936675 -0.0022953989 0.4259395
0.065317899 -0.0022955853 0.42596087
0.06570109 -0.0022958384 0.42599449
0.06608022 -0.0022959474 0.42600131
0.066464804 -0.0022962431 0.42604277
0.066845231 -0.0022963928 0.42605698
0.086545371 -0.0022704089 0.4204109
0.086853653 -0.002268743 0.42008597
0.087158173 -0.0022669935 0.41974548
0.087513313 -0.0022665702 0.41965052
0.087844856 -0.0022655418 0.41944346
0.088219479 -0.0022656282 0.41944274
0.088510334 -0.0022635711 0.41904524
0.08893425 -0.0022649199 0.4192782
0.089248762 -0.0022634829 0.41899535
0.089592472 -0.0022627949 0.41885117
0.08995603 -0.0022626121 0.41880041
0.090332128 -0.0022627446 0.41880801
0.090661146 -0.0022617013 0.41859794
0.091049559 -0.0022621423 0.41866252
0.09136115 -0.0022606782 0.41837451
0.091702126 -0.0022599506 0.41822273
0.092068449 -0.0022598507 0.41818708
0.092418127 -0.0022593443 0.41807622
0.092776679 -0.0022590584 0.41800603
0.093168579 -0.002259583 0.41808584
0.09356308 -0.0022601662 0.41817641
0.093972497 -0.0022611041 0.41833252
0.09439116 -0.0022622556 0.41852817
0.10006595 -0.0022564239 0.41716522
0.10019439 -0.0022509985 0.41614413
0.10048295 -0.0022491973 0.41579303
0.10083888 -0.0022489114 0.41572207
0.10118856 -0.0022484881 0.41562572
0.10154255 -0.0022481643 0.41554764
0.10189138 -0.0022477282 0.41544881
0.1022637 -0.0022478115 0.41544601
0.10260155 -0.0022471391 0.41530344
0.10295245 -0.0022467568 0.41521442
0.10333754 -0.0022471198 0.41526318
0.10373885 -0.002247832 0.41537639
0.049582694 -0.0019363327 0.43018493
0.049954582 -0.0019360527 0.4301123
0.050331041 -0.0019359522 0.43007952
0.050704621 -0.0019357435 0.43002263
0.051073715 -0.0019353678 0.42992854
0.051426876 -0.0019343983 0.42970249
0.051800847 -0.0019342195 0.42965207
0.052161612 -0.0019335541 0.4294934
0.052531309 -0.0019332266 0.42940983
0.052906826 -0.0019331165 0.4293744
0.053259972 -0.0019321959 0.42915896
0.053642433 -0.0019323445 0.42918089
0.054005731 -0.0019318055 0.42905003
0.054363646 -0.0019310825 0.42887828
0.054724477 -0.0019304722 0.42873147
0.055089265 -0.0019300089 0.42861721
0.055470522 -0.0019301248 0.4286316
0.055823054 -0.0019292465 0.42842507
0.056195203 -0.001929053 0.42837059
0.056568686 -0.0019289077 0.42832676
0.056922205 -0.0019280878 0.42813304
0.057281092 -0.0019274594 0.42798176
0.057646818 -0.0019270676 0.427883
0.058025334 -0.0019271054 0.42787954
0.058394972 -0.0019268499 0.42781097
0.05876524 -0.001926618 0.42774749
0.059113614 -0.001925676 0.4275263
0.059490226 -0.0019256599 0.42751062
0.059848025 -0.0019250385 0.42736053
0.060221359 -0.0019249218 0.42732236
0.060576078 -0.0019242147 0.42715311
0.060957316 -0.0019243534 0.42717159
0.061290015 -0.0019229676 0.42685157
0.06165386 -0.0019225695 0.42675072
0.062039152 -0.0019228413 0.42679852
0.062407725 -0.0019225944 0.42673117
0.062774956 -0.0019223093 0.4266552
0.063106298 -0.001920935 0.42633751
0.063494131 -0.0019212863 0.42640272
0.063841306 -0.0019204103 0.42619547
0.064208306 -0.0019201373 0.42612198
0.064575866 -0.0019198842 0.42605287
0.064942732 -0.0019196131 0.4259797
0.065324716 -0.0019197894 0.42600575
0.065704867 -0.0019199101 0.42601937
0.066084243 -0.0019200069 0.42602769
0.066466287 -0.0019201793 0.42605266
0.066844612 -0.0019202429 0.42605346
0.067230202 -0.0019205133 0.42610008
0.067648299 -0.0019217039 0.42635077
0.086213455 -0.0018993593 0.42062351
0.086498968 -0.0018974559 0.42018586
0.086848401 -0.0018969654 0.42006096
0.087188825 -0.0018962827 0.41989353
0.087545767 -0.0018959636 0.41980651
0.087895401 -0.0018954893 0.41968518
0.088246077 -0.0018950413 0.41956958
0.088590689 -0.0018944675 0.41942605
0.08894407 -0.0018940849 0.41932485
0.089262381 -0.0018929617 0.41905966
0.089644127 -0.0018931874 0.41909304
0.089979932 -0.0018924449 0.41891208
0.090333313 -0.0018920766 0.41881388
0.090697557 -0.0018919377 0.41876641
0.091075547 -0.0018920853 0.41878235
0.091388404 -0.0018908842 0.41849974
0.091772892 -0.0018911686 0.41854584
0.092098407 -0.0018902404 0.41832349
0.092480175 -0.0018904695 0.41835731
0.092835635 -0.0018901608 0.41827199
0.093232065 -0.0018906853 0.41837108
0.093600027 -0.0018906307 0.41834193
0.094026215 -0.0018917477 0.41857201
0.094419867 -0.0018922042 0.41865584
0.10007662 -0.0018869315 0.41721004
0.10041556 -0.0018863473 0.41706309
0.10052034 -0.0018813846 0.41594809
0.10084885 -0.0018806304 0.41576353
0.10121926 -0.0018806602 0.41575226
0.10156937 -0.0018803135 0.41565776
0.10192057 -0.0018799894 0.4155682
0.1023034 -0.001880249 0.41560763
0.10262651 -0.0018794129 0.41540489
0.10298617 -0.0018792497 0.41535079
0.10338907 -0.0018798737 0.41547063
0.10381626 -0.0018809331 0.4156867
0.04957911 -0.0015569852 0.43015417
0.049976349 -0.0015575502 0.43030009
0.050348006 -0.001557315 0.4302249
0.05072502 -0.0015572477 0.43019599
0.051090669 -0.0015568351 0.43007162
0.051455017 -0.0015563892 0.42993796
0.051813949 -0.0015557868 0.42976108
0.05218187 -0.0015554613 0.42966059
0.052544639 -0.0015549875 0.42951912
0.05292473 -0.0015550298 0.42952004
0.053301752 -0.0015549815 0.42949593
0.053653542 -0.0015542031 0.42927012
0.054019555 -0.0015538445 0.42916021
0.054405082 -0.0015540483 0.42920551
0.054758485 -0.0015533377 0.42899823
0.055121116 -0.0015528968 0.4288654
0.055479623 -0.0015523466 0.42870229
0.055867657 -0.0015526242 0.42876774
0.056232706 -0.0015522634 0.42865682
0.056579664 -0.0015514113 0.42841023
0.056954443 -0.0015513282 0.42837584
0.05731298 -0.0015508067 0.42822036
0.057675138 -0.0015503888 0.42809349
0.058048718 -0.0015502819 0.42805237
0.058415353 -0.0015499917 0.4279606
0.058775611 -0.0015495371 0.42782336
0.059151638 -0.0015495011 0.4278017
0.05951272 -0.0015490764 0.42767259
0.059874594 -0.0015486776 0.42755061
0.060230739 -0.0015481365 0.42738929
0.060588825 -0.0015476512 0.42724335
0.06097329 -0.0015478419 0.42728388
0.061339032 -0.0015475574 0.42719322
0.061695639 -0.0015470475 0.42704028
0.062077191 -0.0015471654 0.42706057
0.062427286 -0.0015465022 0.42686522
0.062774897 -0.001545786 0.42665514
0.063148692 -0.001545719 0.42662424
0.063513875 -0.0015454432 0.42653561
0.06387648 -0.0015451082 0.42643061
0.064239644 -0.0015447905 0.42633036
0.064580359 -0.0015439395 0.42608282
0.064957395 -0.0015439617 0.42607623
0.065337501 -0.0015440561 0.4260895
0.065710858 -0.0015439907 0.42605862
0.066088252 -0.0015440199 0.42605379
0.066468231 -0.0015441092 0.42606547
0.066846803 -0.0015441647 0.42606777
0.067223564 -0.001544178 0.42605835
0.067601673 -0.0015442218 0.42605728
0.067986578 -0.0015444193 0.42609861
0.08587084 -0.0015277814 0.42078528
0.086227901 -0.0015275083 0.42069429
0.086487055 -0.0015255106 0.42012832
0.086847082 -0.0015253015 0.42005491
0.087199435 -0.0015249598 0.41994491
0.087545432 -0.0015245103 0.41980523
0.087911904 -0.0015244196 0.41976428
0.088247076 -0.001523789 0.41957465
0.088606827 -0.0015235861 0.41950274
0.088987075 -0.0015237362 0.41952792
0.089351945 -0.0015236224 0.41948047
0.089676157 -0.0015228189 0.4192431
0.090018027 -0.0015223209 0.41908976
0.09036658 -0.0015219391 0.41896841
0.090716213 -0.0015215785 0.41885287
0.091080375 -0.0015214635 0.41880488
0.091439843 -0.0015212712 0.41873556
0.091785312 -0.0015208484 0.41860276
0.092130981 -0.0015204322 0.41847178
0.092496857 -0.0015203514 0.41843304
0.09285938 -0.0015202165 0.41837934
0.09326072 -0.0015207151 0.41850001
0.093663476 -0.001521233 0.41862586
0.094059661 -0.0015216402 0.41872126
0.094473653 -0.0015223309 0.41889462
0.1001085 -0.0015176822 0.41734329
0.10044584 -0.0015171849 0.41718921
0.10054422 -0.0015130948 0.41604725
0.10090335 -0.0015129443 0.41598853
0.10125645 -0.0015127049 0.41590527
0.10160986 -0.0015124716 0.41582373
0.10195636 -0.0015121374 0.41571444
0.10230378 -0.0015118192 0.41560951
0.10266449 -0.0015116986 0.41555884
0.10305622 -0.0015120344 0.41563359
0.103487 -0.0015129383 0.41586447
0.049977493 -0.0011782309 0.43031022
0.050362017 -0.0011783529 0.43034488
0.050742242 -0.0011783731 0.43034232
0.051096633 -0.0011777974 0.43012211
0.051474754 -0.0011777731 0.43010315
0.051849049 -0.0011776622 0.43005249
0.052219663 -0.0011774696 0.42997202
0.05257884 -0.0011770239 0.42979899
0.052947748 -0.0011768006 0.42970711
0.053320412 -0.0011766633 0.42964661
0.05369373 -0.001176542 0.42959192
0.05404631 -0.0011759712 0.42937303
0.054411851 -0.0011756882 0.42925915
0.054788165 -0.0011756405 0.42923108
0.055147838 -0.0011752385 0.4290736
0.05551818 -0.0011750675 0.4290005
0.055884078 -0.0011748056 0.42889401
0.05625261 -0.0011746018 0.42880881
0.056600943 -0.001173982 0.42857161
0.056978401 -0.0011739702 0.42855632
0.057349946 -0.0011738373 0.42849681
0.057703458 -0.0011733396 0.42830402
0.058068007 -0.0011730712 0.42819491
0.058431342 -0.0011727818 0.42807803
0.058802795 -0.0011726578 0.42802152
0.05916382 -0.0011723286 0.42789
0.059548452 -0.0011724684 0.4279297
0.059902545 -0.0011720088 0.4277505
0.060266525 -0.0011717471 0.42764348
0.060633346 -0.0011715434 0.42755756
0.060992979 -0.0011712041 0.42742211
0.06135476 -0.0011709097 0.42730305
0.061712772 -0.0011705476 0.42715916
0.062078107 -0.0011703278 0.42706713
0.062439404 -0.0011700348 0.42694837
0.062810093 -0.0011699202 0.42689466
0.063174017 -0.0011696815 0.4267956
0.063534006 -0.001169373 0.42667106
0.063905649 -0.0011692815 0.42662561
0.064263672 -0.0011689432 0.42649001
0.064635672 -0.0011688615 0.42644799
0.064984366 -0.0011683616 0.42625341
0.06534972 -0.0011681651 0.42616943
0.065721005 -0.0011680762 0.42612463
0.066090785 -0.0011679615 0.42607036
0.066470087 -0.0011680155 0.42607763
0.066843852 -0.0011679719 0.42604923
0.067221396 -0.0011679943 0.42604482
0.06760563 -0.0011681321 0.42608243
0.067980394 -0.0011681056 0.42606008
0.068365552 -0.0011682569 0.42610252
0.06874796 -0.0011683594 0.42612714
0.085243076 -0.0011571414 0.42139608
0.085538834 -0.0011560961 0.42100036
0.085869424 -0.0011555284 0.42077857
0.086201459 -0.0011549849 0.42056555
0.08654692 -0.001154625 0.42041934
0.086897068 -0.0011543303 0.42029688
0.087212943 -0.0011535848 0.42001027
0.087585077 -0.0011535865 0.41999558
0.087926872 -0.0011531902 0.41983595
0.088295728 -0.0011531506 0.41980621
0.0886501 -0.0011529227 0.41970786
0.089001447 -0.0011526578 0.41959596
0.089373678 -0.0011526638 0.41958272
0.089747757 -0.0011526936 0.41957811
0.09005107 -0.0011518181 0.41924381
0.090421505 -0.0011518046 0.41922334
0.090769462 -0.0011515059 0.41909897
0.091123477 -0.0011512858 0.41900328
0.091478944 -0.0011510861 0.41891488
0.091820702 -0.001150716 0.41876444
0.092193685 -0.0011507383 0.41875687
0.092559218 -0.0011506679 0.41871539
0.092921399 -0.0011505565 0.418659
0.093295105 -0.0011505878 0.41865453
0.093672067 -0.0011506588 0.41866446
0.094089098 -0.0011512196 0.41885251
0.094519109 -0.0011519339 0.41909641
0.10014226 -0.0011482185 0.41748422
0.10047469 -0.0011477827 0.41730919
0.10058168 -0.001144784 0.41620243
0.10094656 -0.001144732 0.41616693
0.10128759 -0.0011444105 0.41603342
0.10163625 -0.0011441772 0.41593197
0.10197742 -0.0011438617 0.41580057
0.10234401 -0.0011438321 0.41577312
0.10271747 -0.0011438791 0.41577354
0.103135 -0.001144415 0.41595152
0.10343968 -0.001143699 0.41567454
0.050376669 -0.00079918973 0.43047026
0.050747503 -0.00079905248 0.43038711
0.051124316 -0.00079901062 0.43035531
0.051501006 -0.00079896738 0.43032271
0.051860861 -0.00079866539 0.43015069
0.052226342 -0.00079845364 0.43002719
0.052593756 -0.00079827424 0.42992112
0.052972063 -0.00079826138 0.42990467
0.053335715 -0.00079802942 0.42977011
0.053691078 -0.00079767738 0.42957088
0.054075386 -0.00079775736 0.42960423
0.054429241 -0.00079738983 0.42939654
0.054799754 -0.00079726963 0.42932203
0.05518081 -0.00079730345 0.42933032
0.055537518 -0.00079698715 0.4291501
0.055894922 -0.00079668505 0.42897746
0.056274693 -0.00079670351 0.42897731
0.05664067 -0.0007965276 0.42887256
0.057001289 -0.00079627917 0.42872864
0.057355437 -0.00079594413 0.42853802
0.057729986 -0.00079589454 0.4285011
0.058102738 -0.00079582096 0.42845115
0.058459822 -0.00079553504 0.42828685
0.058811143 -0.00079517474 0.42808247
0.05920057 -0.00079533068 0.42815599
0.059559789 -0.00079508155 0.42801133
0.059919212 -0.00079483812 0.42786968
0.0602988 -0.00079486339 0.42787269
0.060650684 -0.00079452526 0.42767999
0.06100728 -0.00079425261 0.42752251
0.061378751 -0.00079417566 0.4274703
0.061732605 -0.0007938731 0.42729661
0.062112421 -0.00079390593 0.42730337
0.062476996 -0.00079374458 0.42720559
0.062831141 -0.00079345325 0.42703784
0.063210636 -0.00079348363 0.42704314
0.063570499 -0.00079326867 0.42691636
0.063927002 -0.0007930143 0.4267683
0.064294197 -0.00079289475 0.42669278
0.06464953 -0.00079263095 0.4265396
0.064998694 -0.00079229497 0.42634752
0.065390877 -0.00079248415 0.42643797
0.065744407 -0.00079220528 0.4262765
0.066103667 -0.00079199823 0.42615366
0.066484191 -0.0007920466 0.4261682
0.066848539 -0.00079190283 0.4260793
0.067228623 -0.00079194584 0.42609084
0.067602277 -0.00079191296 0.42606154
0.067978658 -0.00079191208 0.42604938
0.06835252 -0.00079188205 0.42602146
0.068741746 -0.00079202902 0.42608875
0.069122232 -0.00079207437 0.4261013
0.084226377 -0.00078536221 0.42195499
0.084539838 -0.00078480219 0.42164049
0.084897801 -0.00078465824 0.42154944
0.085219532 -0.00078418216 0.42127991
0.08551418 -0.0007834619 0.42087922
0.085867167 -0.00078327989 0.42076764
0.086229585 -0.00078318518 0.4207029
0.086569443 -0.00078288716 0.42052892
0.086902149 -0.00078252709 0.42032161
0.087248839 -0.00078229548 0.42018327
0.087619737 -0.00078228174 0.42016193
0.087970495 -0.00078208913 0.42004445
0.088325754 -0.00078193774 0.41994908
0.088680819 -0.00078178593 0.41985345
0.089033961 -0.00078161829 0.41974935
0.089380339 -0.00078139291 0.41961417
0.089749448 -0.00078136718 0.41958618
0.090087228 -0.00078106986 0.41941229
0.090467654 -0.0007811432 0.41943741
0.090796687 -0.00078077381 0.4192248
0.091139853 -0.00078052847 0.41907877
0.09149833 -0.00078041555 0.41900378
0.091868043 -0.0007803989 0.41898048
0.092236802 -0.00078037422 0.41895282
0.092570908 -0.00078005769 0.41876844
0.092938691 -0.00078002614 0.41873702
0.093343198 -0.00078030181 0.41887051
0.093725711 -0.00078039203 0.41890439
0.094141074 -0.00078075391 0.41908404
0.094429106 -0.00078006095 0.41869748
0.10015131 -0.00077831326 0.41752207
0.10046157 -0.00077784329 0.41725489
0.10066918 -0.00077658473 0.41656467
0.10102525 -0.0007764764 0.41649145
0.10135854 -0.00077619427 0.416325
0.10167602 -0.00077579345 0.41609487
0.10201994 -0.00077559642 0.41597405
0.10240308 -0.00077569787 0.41601327
0.10275527 -0.00077556487 0.41592672
0.10315716 -0.00077580649 0.41604105
0.050382018 -0.00041972834 0.43051609
0.050764024 -0.00041974624 0.43052733
0.051150963 -0.00041980433 0.43057975
0.051517207 -0.00041969283 0.43045816
0.051871225 -0.00041948396 0.4302367
0.05224926 -0.00041947092 0.43021601
0.052605405 -0.00041928349 0.43001643
0.052985702 -0.00041928972 0.43001544
0.053354062 -0.00041920194 0.42991802
0.053723756 -0.00041912578 0.42983243
0.054091137 -0.00041903267 0.42972946
0.054457989 -0.00041893663 0.42962345
0.054817043 -0.00041878229 0.42945758
0.05518052 -0.00041866352 0.42932817
0.055548005 -0.00041857647 0.42923123
0.055920269 -0.0004185263 0.42917207
0.056278016 -0.0004183687 0.42900273
0.056663107 -0.00041841509 0.42904255
0.057026342 -0.00041830045 0.42891714
0.057396322 -0.00041823633 0.42884359
0.057750612 -0.00041805947 0.42865431
0.05811812 -0.00041797978 0.4285647
0.058488179 -0.00041791928 0.42849469
0.058862623 -0.00041789058 0.42845723
0.059224695 -0.00041777489 0.4283306
0.059590675 -0.00041768793 0.42823336
0.059947513 -0.00041753831 0.42807186
0.060310334 -0.0004174319 0.42795458
0.060671255 -0.0004173136 0.42782512
0.061030477 -0.0004171851 0.42768514
0.061399683 -0.00041712594 0.42761624
0.061760709 -0.00041701208 0.42749125
0.062130734 -0.00041695993 0.42742944
0.062501274 -0.00041691179 0.42737171
0.062867463 -0.00041683528 0.42728484
0.063228108 -0.00041672305 0.42716134
0.063609421 -0.00041674741 0.42717785
0.063939445 -0.00041643734 0.42685151
0.064321622 -0.00041646857 0.42687494
0.064677775 -0.00041633166 0.42672604
0.065049507 -0.00041629607 0.42668095
0.065390773 -0.00041606691 0.42643741
0.065773375 -0.00041610177 0.42646447
0.066147432 -0.00041608239 0.42643589
0.066478044 -0.00041579141 0.42612889
0.066856392 -0.00041580052 0.42612943
0.067225367 -0.00041575139 0.42607027
0.067601554 -0.00041574714 0.42605707
0.067976467 -0.00041573503 0.42603576
0.068359323 -0.00041577124 0.42606393
0.068745047 -0.00041582435 0.42610937
0.069115788 -0.00041578664 0.42606172
0.069491535 -0.00041577913 0.42604497
0.06987267 -0.00041580366 0.42606109
0.070254959 -0.00041583469 0.42608377
0.083534077 -0.00041245154 0.42226163
0.083857521 -0.0004121995 0.42199349
0.084200889 -0.00041204717 0.42182741
0.084509946 -0.00041172898 0.42149147
0.084858648 -0.00041160572 0.4213551
0.085184559 -0.00041137345 0.42110708
0.085519657 -0.00041118721 0.42090622
0.0858979 -0.00041120907 0.42091838
0.086235814 -0.0004110384 0.42073339
0.086604163 -0.00041101358 0.42069769
0.086939573 -0.00041083316 0.42050272
0.08729393 -0.00041074338 0.4204005
0.087653339 -0.00041067789 0.42032316
0.088007472 -0.00041058834 0.42022109
0.088357508 -0.00041048028 0.42010015
0.088702723 -0.00041035085 0.41995728
0.089075997 -0.00041035161 0.41994762
0.089425199 -0.00041024186 0.4198249
0.089777075 -0.00041014512 0.41971543
0.090128534 -0.00041004721 0.41960472
0.090492338 -0.00041000592 0.41955197
0.090851836 -0.00040994541 0.41947955
0.091195881 -0.00040981587 0.4193365
0.091544345 -0.00040970708 0.41921461
0.091881879 -0.00040955038 0.41904369
0.092257373 -0.00040956333 0.41904634
0.092620037 -0.00040951936 0.41899079
0.092976078 -0.00040944645 0.41890559
0.09336634 -0.00040952413 0.41897443
0.093748748 -0.00040956686 0.41900745
0.094159804 -0.00040973374 0.41916755
0.094575949 -0.00040992125 0.41934869
0.10042679 -0.00040791251 0.41711053
0.10074268 -0.00040768678 0.41686887
0.10106049 -0.00040747054 0.41663685
0.10137866 -0.00040725706 0.41640767
0.10172443 -0.00040715563 0.41629308
0.10207386 -0.00040706943 0.41619399
0.10243259 -0.00040702062 0.4161332
0.10279179 -0.00040697402 0.4160746
0.0507745 -4.0188141e-05 0.4306162
0.051162198 -4.0190345e-05 0.43067428
0.051528797 -4.0175979e-05 0.43055502
0.05191464 -4.0176612e-05 0.43059683
0.052280683 -4.0161929e-05 0.43047476
0.052641563 -4.014343e-05 0.43031201
0.053013932 -4.01338e-05 0.43024457
0.053374026 -4.0114988e-05 0.43007895
0.05373732 -4.0098734e-05 0.429941
0.054109216 -4.0088984e-05 0.42987308
0.054483682 -4.0081166e-05 0.42982614
0.054831333 -4.0053783e-05 0.42956957
0.055202253 -4.0043549e-05 0.42949724
0.055583149 -4.0040552e-05 0.42950282
0.055942722 -4.0022245e-05 0.42934439
0.056300759 -4.0003e-05 0.42917618
0.056664772 -3.9988143e-05 0.42905521
0.057037946 -3.9979801e-05 0.42900449
0.057406068 -3.9967959e-05 0.42891645
0.057778958 -3.9959472e-05 0.42886469
0.058140222 -3.9943021e-05 0.42872769
0.05851784 -3.9937844e-05 0.42871201
0.058865216 -3.9912135e-05 0.42847613
0.059235595 -3.9902159e-05 0.42840946
0.05960802 -3.9893581e-05 0.42835802
0.0599593 -3.987096e-05 0.42815605
0.060340896 -3.9868555e-05 0.42817149
0.060692109 -3.9846142e-05 0.42797223
0.061060879 -3.9835362e-05 0.42789826
0.061428223 -3.9823699e-05 0.42781499
0.061787434 -3.9806848e-05 0.42767623
0.062160261 -3.9798815e-05 0.4276326
0.062528856 -3.9788101e-05 0.42756033
0.062882937 -3.9768238e-05 0.42739001
0.063245609 -3.9753922e-05 0.42727959
0.063623711 -3.9749317e-05 0.42727381
0.063966133 -3.9722516e-05 0.4270297
0.064340003 -3.9715353e-05 0.42699692
0.064696193 -3.9697323e-05 0.42684761
0.065061949 -3.9685252e-05 0.42676261
0.065424286 -3.967114e-05 0.42665598
0.065776616 -3.9651077e-05 0.42648554
0.066161677 -3.9650757e-05 0.42652771
0.066509202 -3.9627983e-05 0.42632863
0.066880308 -3.9619346e-05 0.42628193
0.067241438 -3.9604827e-05 0.4261722
0.067606606 -3.9592742e-05 0.4260889
0.067984119 -3.9587889e-05 0.42608371
0.068351194 -3.9576949e-05 0.42601326
0.068737544 -3.9577124e-05 0.42606279
0.069114357 -3.9571743e-05 0.42605284
0.069482379 -3.9561324e-05 0.42598882
0.069867708 -3.9560717e-05 0.42603081
0.070237897 -3.9551498e-05 0.42598036
0.07060273 -3.9539274e-05 0.42589778
0.070983246 -3.9535829e-05 0.42591
0.083167478 -3.9031249e-05 0.42231277
0.083525106 -3.9016828e-05 0.42221627
0.083860122 -3.899193e-05 0.42200658
0.084194221 -3.8966733e-05 0.421794
0.084521465 -3.8938513e-05 0.4215489
0.084881686 -3.892558e-05 0.42146948
0.085231401 -3.8907863e-05 0.42133865
0.085573949 -3.8886959e-05 0.42117348
0.085905068 -3.8860966e-05 0.42095345
0.086253487 -3.8842907e-05 0.42081964
0.086629517 -3.8837279e-05 0.42082086
0.086967684 -3.8814709e-05 0.42063871
0.08735621 -3.8814618e-05 0.42070046
0.08767312 -3.8782749e-05 0.42041802
0.088040315 -3.8773203e-05 0.42037791
0.088394724 -3.875804e-05 0.42027712
0.088743746 -3.8740556e-05 0.4201515
0.089120395 -3.8735136e-05 0.42015696
0.089451827 -3.8710099e-05 0.41994989
0.08981473 -3.8698734e-05 0.41989145
0.090170145 -3.8684157e-05 0.41979843
0.090534076 -3.8673239e-05 0.41974545
0.090859152 -3.8645801e-05 0.41951337
0.091233447 -3.8639329e-05 0.4195092
0.091572501 -3.8617956e-05 0.41934356
0.091900513 -3.8592032e-05 0.41912869
0.0922703 -3.8583694e-05 0.41910511
0.09264607 -3.8577815e-05 0.41910854
0.093027823 -3.8574362e-05 0.41913873
0.093397163 -3.8565726e-05 0.4191128
0.093781114 -3.8563059e-05 0.41915211
0.094179571 -3.8566257e-05 0.41925552
0.094567582 -3.8565071e-05 0.41931158
0.099941939 -3.8365637e-05 0.4182134
0.10024593 -3.8331626e-05 0.41791669
0.10041867 -3.8247774e-05 0.4170768
0.10077504 -3.8234157e-05 0.41700283
0.10111657 -3.821493e-05 0.416868
0.10146739 -3.819925e-05 0.41677219
0.10179257 -3.8173981e-05 0.41657197
0.10210443 -3.8143819e-05 0.4163186
0.10250049 -3.8145125e-05 0.41640905
0.051170643 0.00033957191 0.43074533
0.051550869 0.00033958076 0.43073937
0.05192301 0.00033953667 0.43066621
0.052294377 0.00033948827 0.43058744
0.052643638 0.00033929819 0.43032888
0.053023037 0.00033930381 0.43031839
0.053396728 0.00033927313 0.43026179
0.053762659 0.00033919406 0.43014368
0.054120667 0.00033906652 0.42996398
0.054506317 0.00033911283 0.43000466
0.054875638 0.00033905767 0.42991656
0.055243276 0.00033899304 0.42981634
0.055598065 0.00033885112 0.429618
0.055971462 0.00033882385 0.42956492
0.056331016 0.00033871375 0.42940673
0.056688163 0.00033859085 0.42923221
0.057061411 0.00033856524 0.42918089
0.057433054 0.00033853058 0.42911798
0.057795353 0.00033844172 0.42898634
0.058173154 0.00033844428 0.42897043
0.058520749 0.0003382724 0.42873326
0.058884669 0.00033819649 0.42861772
0.059262723 0.00033820226 0.42860553
0.059656467 0.00033829713 0.42870611
0.059987754 0.0003380389 0.42835915
0.06035991 0.00033801285 0.42830634
0.06073384 0.00033799704 0.42826641
0.061076276 0.0003378074 0.42800608
0.061447032 0.00033777583 0.42794591
0.06182006 0.00033775714 0.42790198
0.062164541 0.00033758374 0.42766199
0.062556058 0.00033766642 0.42774624
0.062917516 0.00033758694 0.42762497
0.063272662 0.00033747483 0.42746225
0.063629538 0.00033737329 0.42731288
0.064013124 0.0003374138 0.42734328
0.064362593 0.00033727521 0.42714673
0.064723007 0.00033719535 0.42702448
0.065102786 0.00033721671 0.42703032
0.06546136 0.00033712882 0.42689767
0.065812223 0.00033700248 0.4267163
0.06619551 0.00033704282 0.42674583
0.06655024 0.00033693813 0.42659163
0.066906504 0.00033684247 0.42644876
0.067269213 0.00033678021 0.42634812
0.067632854 0.00033672343 0.42625424
0.068008214 0.00033672541 0.42623469
0.068360627 0.00033661438 0.42607197
0.068737365 0.00033662381 0.42606169
0.06910833 0.00033660515 0.42601565
0.06948626 0.00033662052 0.42601261
0.069856651 0.00033659945 0.42596334
0.070236832 0.00033662561 0.42597374
0.070601985 0.00033658004 0.42589325
0.070976309 0.00033657849 0.42586839
0.071341224 0.0003365326 0.4257873
0.071713373 0.00033652131 0.42574984
0.072093055 0.00033654534 0.42575705
0.07245563 0.00033648973 0.42566338
0.081100181 0.00033509941 0.42331555
0.081432432 0.00033493433 0.42308122
0.081794374 0.00033489239 0.42300233
0.082157694 0.00033485654 0.42293108
0.082465321 0.00033459516 0.42257482
0.082834482 0.00033458477 0.42253551
0.083165601 0.00033442161 0.4223032
0.083473392 0.00033416651 0.42195478
0.083839618 0.00033414672 0.42190331
0.084167674 0.00033397577 0.42166093
0.084536351 0.00033396689 0.42162311
0.084905267 0.00033395909 0.42158651
0.08523576 0.00033380097 0.42136011
0.085595779 0.00033375953 0.42128086
0.085973628 0.00033378761 0.42128935
0.086306334 0.00033364113 0.4210774
0.086680993 0.00033365746 0.42107084
0.087032542 0.00033358517 0.42095232
0.087389067 0.0003335326 0.42085862
0.087766275 0.00033355915 0.42086464
0.088046156 0.00033321729 0.42040578
0.088439137 0.00033330455 0.42048824
0.088790976 0.00033323682 0.42037505
0.089156382 0.00033322044 0.42032653
0.089489959 0.0003330858 0.42012885
0.089824349 0.00033295536 0.41993633
0.090209551 0.00033301365 0.41998181
0.090557933 0.00033293627 0.41985601
0.090913303 0.00033288513 0.41976327
0.091258071 0.00033279587 0.41962236
0.091604523 0.00033271351 0.4194901
0.091960579 0.00033266671 0.41940257
0.092312157 0.00033260416 0.41929513
0.092674293 0.00033258015 0.41923618
0.093035318 0.00033255242 0.41917244
0.09341643 0.00033259654 0.41919917
0.093807809 0.00033267681 0.41927135
0.094177358 0.00033267945 0.41924563
0.094563529 0.0003327406 0.41929355
0.094970115 0.00033287299 0.41943109
0.099876754 0.00033202177 0.41794059
0.10015928 0.00033173995 0.41755536
0.10046124 0.00033152444 0.41725355
0.10081467 0.00033147979 0.41716671
0.10115997 0.00033140896 0.41704684
0.10149412 0.00033130232 0.41688189
0.10187459 0.0003313472 0.41690749
0.1021791 0.00033114571 0.41662306
0.10258158 0.0003312621 0.41673845
0.051180784 0.00071948336 0.43083054
0.051559061 0.00071946892 0.43080765
0.051938165 0.0007194663 0.43079171
0.052314792 0.00071942981 0.43075541
0.052675735 0.00071917963 0.43059111
0.053051502 0.00071913417 0.43054923
0.053424243 0.00071904866 0.43048334
0.053791679 0.0007188936 0.43037567
0.054148305 0.00071859726 0.43018341
0.054520443 0.0007185096 0.43011594
0.054886844 0.00071834819 0.43000421
0.055259567 0.00071827124 0.42994297
0.055636745 0.00071825302 0.42991677
0.055983882 0.00071784982 0.42966008
0.056349318 0.00071768515 0.42954612
0.056733228 0.00071775657 0.42957327
0.057090197 0.00071748852 0.42939726
0.057449229 0.00071724987 0.42923871
0.057831764 0.00071730599 0.42925647
0.058189452 0.00071705517 0.42909047
0.058545209 0.00071678398 0.42891225
0.058893383 0.00071642431 0.42868093
0.059276953 0.00071649707 0.42870834
0.059656598 0.00071652181 0.42870688
0.060009975 0.00071623293 0.4285177
0.060386788 0.00071622559 0.4284969
0.060750142 0.00071605982 0.42838123
0.061112896 0.00071588927 0.42826256
0.061480194 0.00071577373 0.42817673
0.061859228 0.00071579538 0.42817295
0.062218044 0.00071558449 0.42802992
0.062572457 0.00071532576 0.4278582
0.062915497 0.00071494107 0.42761108
0.063311927 0.00071516406 0.42772734
0.06367296 0.00071498717 0.42760435
0.064030968 0.00071477855 0.42746228
0.064400598 0.0007147016 0.42739883
0.064739674 0.00071428844 0.42713431
0.065107763 0.00071419828 0.42706287
0.065484069 0.00071419904 0.42704564
0.065856509 0.00071415777 0.42700326
0.066213995 0.00071395596 0.4268648
0.066567197 0.00071371061 0.4267002
0.066932954 0.00071360177 0.42661718
0.067310609 0.00071362051 0.42661032
0.067646779 0.00071320188 0.42634189
0.068022296 0.00071320031 0.42632276
0.06840156 0.00071323803 0.42632693
0.068744734 0.00071290118 0.42610723
0.069123045 0.00071293046 0.42610624
0.069486476 0.00071280677 0.42601374
0.069854297 0.00071272935 0.42594883
0.070227504 0.00071270752 0.42591706
0.07060539 0.00071273331 0.42591363
0.070970573 0.00071263133 0.42583379
0.071340099 0.00071257382 0.42578042
0.071710669 0.00071252743 0.42573366
