# .PCD v0.7 - Point Cloud Data file format
VERSION 0.7
FIELDS x y z
SIZE 4 4 4
TYPE F F F
COUNT 1 1 1
WIDTH 1345
HEIGHT 1
VIEWPOINT 0 0 0 1 0 0 0
POINTS 1345
DATA ascii
0.039491002 0.025015535 0.41191363
0.039862897 0.025021203 0.41199774
0.040215556 0.025014803 0.41188312
0.040573247 0.025011614 0.41182125
0.040924285 0.025004419 0.41169342
0.041293111 0.025008122 0.41174486
0.041627236 0.024990929 0.41145226
0.041987855 0.024989801 0.41142407
0.042343091 0.024985518 0.41134384
0.042690724 0.024976857 0.41119146
0.043034244 0.024965955 0.41100216
0.043391611 0.024963206 0.41094697
0.043744851 0.024958137 0.41085356
0.04409435 0.024951041 0.4107267
0.044458568 0.024952322 0.41073763
0.044805389 0.024943898 0.41058874
0.045154672 0.024936965 0.41046435
0.045519456 0.024938636 0.41048151
0.045881562 0.024938822 0.41047418
0.046257161 0.024946284 0.41058648
-0.013208824 0.026274629 0.4269661
-0.012835661 0.026279664 0.42705029
-0.012461818 0.026283568 0.42711604
-0.012083008 0.026276913 0.42701012
-0.011705527 0.02627282 0.42694572
-0.011327476 0.026267132 0.42685539
-0.010949782 0.026261909 0.42677248
-0.010574149 0.026261438 0.42676669
-0.010193667 0.026248448 0.42655736
-0.0098165479 0.026243452 0.42647791
-0.0094380435 0.026234215 0.42632943
-0.0090623237 0.026232272 0.42629945
-0.008681668 0.026215263 0.42602447
-0.0083070314 0.026215713 0.42603317
-0.0079298252 0.026207712 0.42590442
-0.0075535495 0.02620215 0.42581525
-0.0071763489 0.026192633 0.42566171
-0.0068011894 0.026189927 0.4256188
-0.0064241085 0.026179083 0.4254435
-0.0060474826 0.026168864 0.42527831
-0.0056734798 0.026169399 0.42528784
-0.0052994466 0.026169866 0.4252961
-0.0049222489 0.026153589 0.42503223
-0.0045469315 0.026145449 0.42490047
-0.0041705733 0.026129337 0.42463911
-0.0037973211 0.026131433 0.4246735
-0.0034227585 0.026123986 0.4245528
-0.0030488071 0.026119951 0.42448747
-0.002674825 0.026114501 0.42439899
-0.0023007044 0.026105713 0.42425621
-0.0019273526 0.026103944 0.42422739
-0.0015529383 0.026083479 0.42389467
-0.0011801126 0.026085211 0.42392263
-0.00080700818 0.02607955 0.42383036
-0.00043405907 0.026073523 0.42373201
-6.129274e-05 0.026072143 0.42370912
0.00031141189 0.026068864 0.4236553
0.00068456505 0.026086235 0.42393696
0.0010573671 0.02608268 0.42387849
0.0323985 0.025508391 0.41418251
0.032763373 0.025508514 0.41417682
0.033120118 0.025502369 0.41406927
0.033472642 0.025493149 0.41391173
0.033838704 0.025494322 0.41392288
0.03419349 0.025487067 0.41379708
0.03454816 0.025479881 0.41367236
0.034908734 0.025477152 0.41361991
0.035260364 0.025468018 0.41346341
0.035612546 0.025459465 0.41331625
0.035960104 0.025447819 0.41311881
0.036333203 0.02545429 0.41321543
0.036688898 0.025448564 0.41311395
0.037048399 0.025445569 0.41305676
0.037395138 0.02543395 0.41285944
0.037754156 0.025430823 0.41279992
0.038096722 0.025416777 0.41256315
0.038464986 0.025419984 0.4126063
0.038817603 0.025412887 0.41248214
0.039171528 0.025406767 0.41237375
0.039519493 0.025396932 0.41220501
0.039871298 0.025389718 0.41207874
0.040229682 0.025386788 0.41202191
0.040593449 0.025387276 0.4120205
0.040942825 0.025378834 0.41187409
0.041306041 0.025379045 0.41186804
0.041648887 0.025366845 0.41166049
0.041996632 0.025357813 0.4115043
0.042352986 0.025354087 0.41143414
0.042709541 0.02535055 0.41136694
0.043062892 0.025345182 0.41127002
0.043420304 0.025342274 0.41121289
0.043769073 0.025334412 0.41107532
0.044125218 0.02533091 0.41100845
0.044472318 0.02532232 0.41085893
0.044828251 0.025318854 0.41079247
0.045172296 0.025308782 0.41061881
0.045543876 0.025314176 0.41069597
0.04590477 0.025313593 0.41067609
0.046317164 0.025341196 0.41111341
0.046676878 0.025339767 0.41107965
-0.012841468 0.026667787 0.42723864
-0.012470012 0.026677221 0.4273921
-0.012087675 0.026663238 0.42717028
-0.011710527 0.026660176 0.42712334
-0.011331999 0.026653664 0.42702109
-0.010953377 0.026646478 0.42690793
-0.010575686 0.026641127 0.42682409
-0.01019854 0.026636809 0.42675671
-0.0098202368 0.026629025 0.42663369
-0.0094440291 0.026626527 0.42659533
-0.0090654222 0.026616784 0.42644078
-0.0086887646 0.02661217 0.42636833
-0.0083085578 0.026595781 0.42610711
-0.0079328576 0.026592955 0.42606315
-0.007555462 0.02658388 0.42591894
-0.0071794717 0.026579063 0.42584294
-0.006803127 0.026572336 0.42573619
-0.0064272191 0.02656663 0.42564571
-0.0060524428 0.026565189 0.42562354
-0.0056758444 0.026555035 0.42546162
-0.0052986033 0.026540231 0.42522517
-0.0049239476 0.026537111 0.42517579
-0.0045491704 0.026532775 0.42510685
-0.0041735703 0.026522433 0.42494163
-0.0037984378 0.026513327 0.42479607
-0.0034236473 0.026504885 0.4246611
-0.0030498353 0.026502879 0.42462918
-0.0026759643 0.026499737 0.42457893
-0.0023022334 0.026497189 0.42453817
-0.0019278416 0.026484583 0.42433617
-0.0015536611 0.026469532 0.42409489
-0.0011804081 0.026465766 0.42403436
-0.00080718123 0.026459405 0.42393216
-0.0004343109 0.026463872 0.4240033
-6.1285762e-05 0.026455978 0.4238764
0.00031162793 0.02645747 0.42389974
0.00068486243 0.026469719 0.42409536
0.0010578035 0.026465973 0.42403466
0.001431697 0.026481792 0.42428729
0.032413945 0.02588566 0.41437387
0.032774717 0.025882404 0.41431409
0.033135582 0.025879294 0.41425654
0.033488397 0.025870034 0.41410047
0.033846647 0.025865128 0.41401398
0.0342023 0.025858359 0.41389769
0.034561682 0.025854522 0.41382822
0.034928937 0.025856597 0.41385323
0.03527974 0.025846576 0.41368464
0.035629027 0.025835657 0.41350159
0.035985347 0.02583001 0.4134028
0.036344703 0.025826627 0.41334024
0.036710713 0.025827998 0.41335368
0.037053596 0.025813231 0.41310871
0.037410256 0.025808252 0.41302034
0.037762895 0.025800621 0.41288951
0.038117573 0.025794515 0.412783
0.038478956 0.025793022 0.41275018
0.038832597 0.025786415 0.41263551
0.039183315 0.025778007 0.41249192
0.039541751 0.025774786 0.41243124
0.039887283 0.025763284 0.41223803
0.040246729 0.025760898 0.41219059
0.040597327 0.025752945 0.41205397
0.040975153 0.025762249 0.41219342
0.041323192 0.025752824 0.41203314
0.04166244 0.025738131 0.41178855
0.042022899 0.025736688 0.4117558
0.042367801 0.025725817 0.41157222
0.042722218 0.025720863 0.41148317
0.043087095 0.025722234 0.41149524
0.043426078 0.025708258 0.41126171
0.043795627 0.025712449 0.41131884
0.044132166 0.025697362 0.41106737
0.044496078 0.025698323 0.41107261
0.044844121 0.025690174 0.41093206
0.045196984 0.025684899 0.41083741
0.045553215 0.025681604 0.41077438
0.045932252 0.025691116 0.41091612
0.046290342 0.025688857 0.41086948
0.046686381 0.025707532 0.41115755
-0.012850122 0.02706225 0.42752165
-0.012472284 0.027058523 0.42746508
-0.012093852 0.027053235 0.42738375
-0.011716084 0.027049139 0.4273212
-0.011334915 0.027036667 0.42712623
-0.010958274 0.027034508 0.42709407
-0.010580492 0.027029281 0.4270134
-0.010200699 0.027018344 0.42684242
-0.0098241419 0.027015474 0.42679876
-0.0094474219 0.027011909 0.4267441
-0.0090684853 0.027001452 0.42658046
-0.0086924983 0.026999254 0.42654717
-0.0083113648 0.026980154 0.42624679
-0.0079337899 0.026971348 0.42610899
-0.00756037 0.026976494 0.42619148
-0.0071829748 0.026967255 0.42604667
-0.0068058493 0.026958067 0.42590255
-0.0064300629 0.026953429 0.42583025
-0.006053267 0.026943726 0.42567781
-0.0056774863 0.026937557 0.42558116
-0.0053020758 0.026932405 0.42550045
-0.0049265902 0.026926057 0.42540082
-0.0045511932 0.026919197 0.42529297
-0.0041756737 0.026910316 0.42515311
-0.0038002559 0.026900418 0.42499706
-0.0034265681 0.02690194 0.42502141
-0.0030514009 0.026890805 0.4248457
-0.0026768062 0.026882313 0.4247117
-0.0023024483 0.026873838 0.4245778
-0.0019287467 0.026871227 0.42453656
-0.0015545868 0.026859459 0.42435047
-0.0011814128 0.026862672 0.42440104
-0.00080761954 0.026848286 0.42417347
-0.00043445398 0.026848011 0.42416871
-6.126643e-05 0.02683492 0.42396146
0.0003117279 0.026836483 0.4239856
0.00068507588 0.026850183 0.42420146
0.0010581152 0.026846383 0.42414063
0.0014323934 0.02686779 0.42447805
0.032437488 0.026269838 0.41466874
0.032793865 0.026262803 0.41455001
0.033152018 0.026257334 0.41445589
0.03350557 0.026248377 0.41430667
0.033859055 0.026239561 0.41415963
0.034219623 0.026236366 0.41410121
0.034574457 0.026228886 0.41397506
0.034938283 0.026228316 0.41395789
0.035299622 0.026225906 0.41391164
0.035655383 0.026219442 0.41380137
0.035991758 0.026199 0.41347033
0.036361251 0.026202833 0.41352239
0.036712181 0.026193345 0.41336414
0.037074048 0.026191767 0.41333061
0.037429504 0.026185738 0.41322681
0.037782405 0.026178055 0.41309685
0.038137116 0.026171753 0.41298857
0.038495474 0.026168056 0.41292134
0.038854901 0.026165148 0.41286647
0.039209187 0.026158866 0.41275826
0.039559316 0.026149943 0.41260839
0.039913222 0.026143663 0.41250011
0.040265962 0.026136735 0.41238156
0.04061446 0.026127206 0.41222185
0.040979527 0.026128406 0.41223139
0.041329261 0.026119899 0.41208768
0.041675594 0.026109403 0.41191256
0.04203612 0.026107911 0.41187936
0.042393394 0.026104435 0.41181484
0.042738557 0.026093628 0.41163459
0.043093897 0.026089163 0.41155428
0.043456327 0.026089026 0.41154221
0.043802124 0.02607899 0.41137394
0.044159375 0.026075885 0.41131485
0.044510104 0.026069006 0.41119626
0.044870067 0.026067607 0.41116393
0.045225039 0.026063349 0.41108653
0.04558304 0.026060894 0.41103742
0.045940146 0.026057966 0.41098088
0.04632559 0.026071038 0.41117647
0.046683408 0.026068471 0.41112545
-0.012853283 0.027445495 0.42762187
-0.012479106 0.027449973 0.4276939
-0.012100281 0.027444191 0.42760605
-0.011721987 0.027439278 0.42753166
-0.011346431 0.027440662 0.42755529
-0.010960892 0.027417175 0.42719129
-0.010582731 0.027411131 0.42709899
-0.010205908 0.027408233 0.42705566
-0.0098305298 0.027409151 0.42707166
-0.0094505614 0.02739683 0.42688131
-0.0090746628 0.027395779 0.4268665
-0.0086956369 0.027384788 0.42669672
-0.0083173858 0.027375357 0.42655113
-0.0079376427 0.027359901 0.42631161
-0.0075633097 0.027362477 0.42635298
-0.0071850284 0.027350301 0.42616436
-0.0068096681 0.027348513 0.42613757
-0.0064337696 0.027344236 0.42607188
-0.0060573216 0.027336946 0.42595917
-0.005679884 0.027323939 0.42575726
-0.0053058243 0.027326496 0.42579782
-0.0049279043 0.027308051 0.42551106
-0.0045525837 0.027302166 0.4254199
-0.0041769235 0.027293012 0.42527768
-0.0038027482 0.027292714 0.42527345
-0.0034273101 0.027282305 0.4251115
-0.0030526845 0.027276607 0.42502299
-0.0026780819 0.027269559 0.42491326
-0.0023044343 0.027271533 0.42494407
-0.0019299216 0.027262058 0.42479637
-0.0015553443 0.027246909 0.42456019
-0.0011816059 0.02724153 0.42447615
-0.00080799963 0.027235659 0.42438436
-0.00043453634 0.027228676 0.42427525
-6.1265491e-05 0.02722241 0.42417708
0.00031185889 0.027218319 0.42411283
0.00068515475 0.027225483 0.42422378
0.0010584608 0.027227845 0.4242599
0.0014325144 0.027243182 0.42449808
0.03245521 0.026649758 0.41488898
0.032806292 0.026638169 0.41470087
0.033168305 0.026635613 0.4146533
0.033526275 0.026629901 0.41455653
0.033883568 0.026623778 0.41445327
0.034241404 0.026618209 0.41435859
0.034596797 0.026610876 0.4142364
0.034951162 0.026602913 0.41410425
0.035297669 0.0265892 0.41388255
0.035661627 0.026588771 0.41386762
0.036019981 0.026584217 0.41378838
0.036375534 0.026577709 0.41367865
0.036733944 0.026573397 0.41360298
0.037077721 0.026558688 0.41336545
0.037447367 0.026562613 0.41341788
0.03779985 0.026554408 0.41328141
0.038155474 0.026548542 0.4131813
0.038508248 0.026540825 0.41305229
0.038874164 0.02654222 0.41306508
0.039226037 0.026534092 0.41292951
0.0395726 0.026522556 0.41274089
0.039935429 0.026522029 0.41272351
0.040279947 0.026509466 0.41251871
0.040638484 0.026506267 0.41245961
0.04099204 0.026499907 0.41235122
0.041341949 0.02649132 0.41220814
0.041703556 0.02649031 0.4121829
0.042057503 0.026484501 0.41208282
0.042412274 0.0264793 0.41199222
0.042750813 0.026464144 0.41174662
0.043112915 0.026463699 0.41172987
0.043474082 0.0264627 0.41170436
0.043825012 0.026455533 0.41158289
0.044178244 0.026449859 0.4114846
0.04452356 0.026439585 0.41131458
0.044884391 0.026438609 0.41128919
0.045234106 0.026431156 0.41116297
0.045593239 0.026429277 0.41112342
0.045969211 0.026437115 0.41123489
0.046329591 0.02643593 0.41120598
0.046683945 0.026431356 0.41112423
-0.012860383 0.02783745 0.42785299
-0.012481336 0.027831599 0.42776534
-0.012104519 0.027830509 0.42775083
-0.011725334 0.027823731 0.42764878
-0.011346385 0.027817084 0.42754868
-0.010966812 0.027808402 0.42741719
-0.010588 0.027801098 0.4273068
-0.01020987 0.027795117 0.42721668
-0.0098317862 0.027788812 0.42712149
-0.009455489 0.027787257 0.42709926
-0.0090745632 0.027771411 0.4268572
-0.0086992569 0.02777214 0.42686987
-0.0083195269 0.027758168 0.42665651
-0.0079426095 0.027752716 0.42657399
-0.007567042 0.027751667 0.42655912
-0.007188763 0.027740052 0.42638168
-0.0068118135 0.027732573 0.42626777
-0.0064361361 0.027729703 0.42622465
-0.0060578403 0.027714502 0.42599186
-0.0056832279 0.027715262 0.42600429
-0.0053070718 0.027708068 0.42589447
-0.0049301693 0.027695592 0.42570335
-0.0045558894 0.027697017 0.42572579
-0.0041797003 0.027686052 0.42555767
-0.0038047857 0.027682204 0.4254989
-0.0034282845 0.027664717 0.42523041
-0.0030540046 0.027663069 0.42520529
-0.0026784327 0.027647629 0.42496812
-0.0023049198 0.027651891 0.42503363
-0.0019303521 0.027642703 0.42489237
-0.0015559681 0.027632371 0.42473343
-0.0011821612 0.027629009 0.42468154
-0.00080824242 0.027618738 0.42452335
-0.00043473381 0.02761689 0.42449459
-6.1274608e-05 0.027615039 0.42446563
0.00031201096 0.02760222 0.4242681
0.0006856086 0.027615918 0.42447799
0.0010588894 0.02761168 0.42441213
0.001432686 0.027619585 0.42453286
0.0018073361 0.027637266 0.42480376
0.032182839 0.027093614 0.41609246
0.032459207 0.027018655 0.41493371
0.032818343 0.027013499 0.41484687
0.033175584 0.027006915 0.41473794
0.033539411 0.027005773 0.41471258
0.03389176 0.026995515 0.41454715
0.034250878 0.026990812 0.41446692
0.034594953 0.026974477 0.41420799
0.034976341 0.026987271 0.41439635
0.035325997 0.02697557 0.41420841
0.035678767 0.026966466 0.41406029
0.036039069 0.026963172 0.41400141
0.036384568 0.026948988 0.41377515
0.036731768 0.026936326 0.41357222
0.037105568 0.026943235 0.41366968
0.037457637 0.026934378 0.41352502
0.03782222 0.026934603 0.41351974
0.038184263 0.026933033 0.41348678
0.038524024 0.026915928 0.41321531
0.03888097 0.026911031 0.41313118
0.039238144 0.026906384 0.41305077
0.039587654 0.026896615 0.41289169
0.039951548 0.026896711 0.41288397
0.040299173 0.026885945 0.41270947
0.040658779 0.026883297 0.41265947
0.041015796 0.026878996 0.41258404
0.041362669 0.026868183 0.41240859
0.041722029 0.0268656 0.41235939
0.042066149 0.026853329 0.41216141
0.042429097 0.026853185 0.41214952
0.042787932 0.026850466 0.41209799
0.043127768 0.026835969 0.41186562
0.043491386 0.026836386 0.41186213
0.043850552 0.026834073 0.41181663
0.044201706 0.026826935 0.41169703
0.044557713 0.026822835 0.41162398
0.044892125 0.026805906 0.41135398
0.045254275 0.02680568 0.41134021
0.045617547 0.026806114 0.41133651
0.045971494 0.026801106 0.41124925
0.046337306 0.026803037 0.41126841
0.046755686 0.026835116 0.41174999
-0.012487201 0.028221576 0.42796123
-0.012109258 0.028218264 0.42791325
-0.011732584 0.028217791 0.42790821
-0.011350362 0.0282035 0.42769358
-0.010973161 0.028201139 0.42765969
-0.010594419 0.028194511 0.42756107
-0.010214625 0.028184485 0.42741087
-0.0098361522 0.028177485 0.42730638
-0.0094582066 0.028171502 0.42721727
-0.0090808021 0.0281667 0.42714602
-0.0087026032 0.028158916 0.42702946
-0.0083248457 0.028151924 0.42692479
-0.0079466021 0.028142553 0.42678401
-0.0075689037 0.028134279 0.42665973
-0.0071918569 0.028127693 0.426561
-0.0068148104 0.028120384 0.42645118
-0.0064384905 0.028115399 0.42637652
-0.0060609067 0.02810394 0.42620364
-0.0056848126 0.028098332 0.42611939
-0.0053090565 0.028093722 0.42605022
-0.0049333293 0.028088583 0.42597291
-0.0045592468 0.028092738 0.42603648
-0.004181568 0.028073495 0.42574507
-0.0038062788 0.028068086 0.42566341
-0.0034298417 0.028052118 0.42542154
-0.0030551399 0.028048171 0.42536184
-0.0026802707 0.028041372 0.4252589
-0.00230534 0.028031625 0.42511114
-0.0019315677 0.028034927 0.42516115
-0.0015568242 0.028022343 0.42497015
-0.0011822996 0.028006999 0.42473727
-0.00080846221 0.028001284 0.42465034
-0.00043483905 0.027999589 0.42462423
-6.1253711e-05 0.027994698 0.42454955
0.00031213404 0.027983753 0.42438304
0.00068585988 0.027998514 0.42460629
0.0010594375 0.027998937 0.42461199
0.0014335723 0.02801002 0.42477924
0.0018072848 0.028009964 0.42477754
0.032192573 0.027468543 0.41621184
0.032464787 0.027388981 0.41499865
0.03283437 0.027392415 0.41504303
0.033192042 0.027385952 0.41493732
0.033541743 0.027373124 0.41473511
0.033911493 0.027376749 0.41478211
0.034260415 0.027363667 0.41457593
0.034620125 0.027359389 0.41450301
0.034983315 0.027357917 0.41447261
0.035347421 0.027357185 0.41445327
0.03570018 0.027347779 0.41430244
0.036053121 0.027338697 0.4141565
0.036405064 0.027329046 0.41400185
0.036777612 0.027334906 0.41408208
0.037119456 0.027318055 0.41381821
0.037477832 0.027313573 0.41374168
0.037825357 0.027301349 0.41354775
0.03818782 0.027300036 0.41351905
0.038550228 0.027298709 0.41349006
0.038911149 0.027296364 0.41344556
0.039260987 0.027286358 0.41328496
0.039611533 0.027277026 0.41313449
0.039958373 0.027265336 0.41294825
0.040324345 0.027266791 0.41296098
0.040676288 0.027258815 0.41283089
0.041030042 0.027252186 0.41272107
0.04138343 0.027245436 0.41260934
0.041747306 0.027245646 0.41260296
0.042110577 0.027245456 0.41259047
0.042437211 0.027221773 0.41222212
0.042786956 0.027213192 0.4120824
0.043141335 0.027207673 0.41198894
0.043501843 0.02720608 0.41195497
0.043860987 0.02720367 0.41190848
0.044210594 0.027195433 0.41177365
0.044568911 0.027192641 0.41172126
0.044920292 0.027185695 0.41160589
0.045272537 0.027179381 0.41150004
0.045627646 0.027174873 0.41142145
0.04598663 0.027172726 0.41137847
0.046391878 0.027197737 0.41174665
0.04676741 0.02720507 0.41184708
0.047137607 0.027209211 0.41189912
-0.012489663 0.028604118 0.42804047
-0.012112026 0.028601661 0.42800596
-0.011735659 0.028602142 0.42801526
-0.011359298 0.028602673 0.42802525
-0.010977681 0.02858955 0.42783087
-0.010599154 0.028583834 0.42774719
-0.010219818 0.028575433 0.4276233
-0.009840752 0.028567174 0.42750141
-0.0094617018 0.02855831 0.42737037
-0.0090834778 0.02855131 0.42726719
-0.0087067597 0.028548649 0.42722878
-0.0083283801 0.028540049 0.42710146
-0.0079491315 0.028527521 0.42691535
-0.0075747613 0.028532133 0.42698553
-0.0071937256 0.028510807 0.42666754
-0.0068178684 0.028508786 0.42663833
-0.0064419028 0.028506055 0.42659846
-0.0060645444 0.028496448 0.4264555
-0.0056869215 0.028484248 0.42627373
-0.0053106654 0.028477654 0.42617577
-0.0049352688 0.028475026 0.42613706
-0.0045601916 0.028473955 0.42612162
-0.0041825725 0.028455408 0.42584449
-0.0038073608 0.028451206 0.425782
-0.0034314061 0.02843993 0.42561349
-0.0030567278 0.028437771 0.4255814
-0.0026815645 0.028429875 0.42546335
-0.0023067021 0.028423125 0.42536238
-0.0019321243 0.028417954 0.42528495
-0.0015574828 0.028409148 0.42515302
-0.001183284 0.028405409 0.4250969
-0.00080880418 0.028388377 0.42484173
-0.0004350018 0.028386313 0.42481047
-6.1234015e-05 0.028375294 0.42464504
0.0003123171 0.028370917 0.42457896
0.00068580703 0.028368758 0.42454606
0.0010598961 0.028384151 0.42477572
0.0014333382 0.028378703 0.42469335
0.0018076424 0.028389037 0.42484716
0.032201607 0.027843093 0.41632211
0.032489218 0.027775545 0.41530448
0.032848828 0.027770365 0.41521934
0.033210434 0.027766965 0.41516075
0.03355353 0.027748333 0.41487429
0.033929691 0.027757155 0.41499829
0.034276932 0.027742377 0.41476935
0.034638308 0.027739234 0.41471431
0.034988832 0.027727552 0.41453147
0.035350565 0.027724909 0.4144837
0.035718828 0.027727382 0.41451243
0.036074169 0.02771988 0.41439185
0.03642318 0.027707709 0.41420147
0.036786497 0.027706554 0.41417569
0.037137877 0.027696524 0.41401714
0.037497621 0.027692864 0.41395372
0.037841633 0.027677763 0.4137193
0.038197383 0.027671458 0.41361621
0.038567446 0.027675543 0.41366839
0.038921859 0.027668424 0.413553
0.039284524 0.027667247 0.41352636
0.039629441 0.027653707 0.41331491
0.039971974 0.027638767 0.41308239
0.040330876 0.027635317 0.41302153
0.040694349 0.027635025 0.41300786
0.041045245 0.027626278 0.41286772
0.041406073 0.027624307 0.41282877
0.041744612 0.027607633 0.41257003
0.042113677 0.027611258 0.41261458
0.04245349 0.027595807 0.41237396
0.042823967 0.02760038 0.41243252
0.043168303 0.02758817 0.41224024
0.043527618 0.027585657 0.41219279
0.043882381 0.027580325 0.41210309
0.044235174 0.027573852 0.4119963
0.04459215 0.027570069 0.41192964
0.044942841 0.027562492 0.41180629
0.045301944 0.02756016 0.41176111
0.045648392 0.027550224 0.41160229
0.04601571 0.027552934 0.41163239
0.046370987 0.027548457 0.41155499
0.04677308 0.027571643 0.41189077
0.047149684 0.027579561 0.41199845
-0.012493006 0.028988855 0.42814982
-0.01211858 0.028994292 0.42823234
-0.011741458 0.028993424 0.42822161
-0.011362646 0.028988184 0.4281463
-0.010984322 0.028983872 0.42808458
-0.010604241 0.028974459 0.42794746
-0.010225553 0.028968303 0.42785829
-0.0098464694 0.028960504 0.42774484
-0.0094687333 0.028956221 0.4276832
-0.0090871714 0.028939389 0.42743614
-0.0087077301 0.028928155 0.42727169
-0.0083313351 0.028926482 0.42724842
-0.0079537779 0.028920434 0.42716035
-0.0075788042 0.028923644 0.42720896
-0.0071992315 0.028908728 0.42698976
-0.0068205209 0.028895821 0.42680016
-0.0064433366 0.02888825 0.42668933
-0.0060660052 0.028879054 0.42655432
-0.0056899036 0.02887488 0.4264935
-0.005312508 0.028863093 0.42632011
-0.004937253 0.028862026 0.426305
-0.0045604915 0.028851261 0.42614651
-0.004185129 0.028848216 0.42610198
-0.0038092118 0.02884037 0.42598647
-0.0034338578 0.028835548 0.42591557
-0.0030582161 0.028826838 0.42578709
-0.0026832512 0.028822968 0.42573005
-0.0023072814 0.028805302 0.42546919
-0.0019325437 0.028799171 0.42537856
-0.0015581624 0.02879668 0.42534164
-0.0011833183 0.028781384 0.42511544
-0.00080937106 0.028783839 0.42515144
-0.00043521106 0.028776485 0.42504245
-6.1227394e-05 0.028762434 0.42483443
0.0003125717 0.028764963 0.42487127
0.00068622432 0.028758582 0.42477638
0.0010600603 0.028761663 0.4248212
0.0014340309 0.028765826 0.42488188
0.0018087907 0.028780822 0.42510247
0.032200083 0.0282086 0.4162958
0.032494139 0.028145762 0.41536081
0.032863446 0.028148763 0.41539747
0.03321854 0.028139675 0.41525552
0.033581473 0.028137341 0.41521326
0.033946741 0.028136995 0.41520023
0.034296788 0.028124174 0.41500306
0.034649473 0.028113764 0.41484138
0.035012063 0.028111525 0.41480017
0.035367176 0.028103394 0.41467196
0.035728857 0.028100589 0.41462225
0.036088426 0.028096195 0.41454908
0.036436401 0.028082959 0.41434532
0.036793076 0.028076621 0.41424328
0.037149757 0.028070413 0.41414306
0.037520844 0.028075106 0.41420361
0.037872106 0.028065013 0.41404596
0.038220257 0.028052829 0.41385743
0.038576722 0.028046921 0.41376138
0.038927596 0.028037101 0.41360751
0.039292995 0.028037824 0.41360912
0.039631002 0.028019164 0.41332477
0.040003963 0.028025335 0.41340658
0.040351335 0.028013626 0.41322461
0.040706974 0.028007818 0.4131296
0.041063685 0.028002841 0.41304678
0.041414198 0.027993763 0.41290337
0.041776914 0.02799302 0.41288286
0.042128988 0.027985221 0.41275817
0.042479992 0.027976848 0.41262501
0.042840179 0.027974615 0.41258231
0.043184638 0.027962236 0.41238987
0.043540314 0.027957264 0.41230661
0.04389368 0.027950903 0.41220286
0.044246994 0.027944617 0.41210008
0.044610381 0.02794474 0.41209176
0.044945393 0.027927231 0.41182333
0.045315433 0.027931591 0.41187736
0.04567441 0.02792912 0.41183054
0.046031058 0.027925272 0.4117634
0.0464058 0.027932376 0.41185763
-0.012498005 0.029377695 0.42831588
-0.012125663 0.02938862 0.42847741
-0.011745933 0.029381767 0.42837963
-0.011366021 0.029373989 0.42826828
-0.010987971 0.029370664 0.42822173
-0.010609129 0.029364903 0.42813966
-0.010231405 0.029361928 0.42809808
-0.0098488685 0.029344393 0.42784414
-0.0094730025 0.029346127 0.42787105
-0.0090921447 0.029331908 0.42766529
-0.0087119071 0.029318547 0.42747197
-0.0083357953 0.029318489 0.42747247
-0.0079571195 0.02930899 0.42733526
-0.0075797751 0.029303692 0.42725921
-0.0072010038 0.029292041 0.42709053
-0.0068234229 0.02928422 0.42697749
-0.0064469199 0.029280378 0.42692244
-0.0060690134 0.029269304 0.42676187
-0.0056913006 0.029257759 0.42659432
-0.0053147622 0.029251058 0.42649731
-0.0049387855 0.029246662 0.42643386
-0.0045632967 0.029244678 0.42640546
-0.0041864011 0.029232517 0.42622861
-0.0038105063 0.029225642 0.42612872
-0.003435025 0.029220786 0.4260582
-0.0030595011 0.029214337 0.42596442
-0.0026837995 0.029204166 0.42581618
-0.0023085123 0.029195938 0.42569625
-0.00193322 0.029184449 0.42552871
-0.0015584483 0.0291772 0.42542291
-0.001183798 0.029168371 0.42529395
-0.00080952485 0.029164983 0.4252443
-0.00043538163 0.029164521 0.42523712
-6.1220002e-05 0.029149784 0.4250218
0.00031268329 0.029146168 0.42496851
0.00068656338 0.029145483 0.42495793
0.0010604046 0.0291442 0.42493847
0.0014344538 0.029147804 0.42499024
0.0018089012 0.029156329 0.42511365
0.0021835454 0.029164555 0.42523265
0.032203298 0.028578274 0.41633067
0.032509699 0.02852542 0.41555303
0.032871246 0.028521582 0.41548944
0.033224262 0.028510507 0.41532034
0.033593833 0.028513728 0.41535941
0.033955172 0.028509967 0.41529673
0.034309853 0.028500754 0.41515452
0.034664851 0.028491998 0.41501889
0.035024475 0.028487187 0.41494066
0.035394169 0.028490575 0.41498181
0.035740796 0.028475519 0.41475418
0.036098544 0.02846954 0.41465873
0.036452137 0.028460436 0.41451767
0.036806308 0.028451957 0.41438568
0.037163295 0.028445806 0.41428745
0.03752153 0.028440712 0.4142046
0.037883505 0.028438527 0.41416407
0.038237967 0.028430799 0.41404265
0.03860072 0.028429322 0.41401222
0.038947418 0.028416157 0.41381156
0.039303254 0.028409842 0.41371053
0.0396621 0.0284058 0.41364259
0.040016308 0.028398538 0.41352764
0.040371932 0.028392406 0.41342908
0.040726617 0.028385723 0.41332242
0.041080508 0.028378615 0.4132095
0.041434269 0.028371543 0.41309702
0.041791502 0.028366949 0.41302061
0.042143866 0.028359154 0.4128975
0.042497341 0.028352236 0.41278705
0.042853657 0.028347317 0.41270566
0.04320908 0.028341891 0.41261682
0.043551568 0.028328145 0.41240677
0.04392546 0.028334882 0.41249487
0.044261787 0.028317478 0.41223142
0.044632938 0.028322451 0.41229367
0.044970304 0.028306082 0.41204518
0.045329973 0.028303899 0.4120031
0.045692146 0.028303299 0.41198406
0.04605541 0.028303383 0.41197482
0.046424523 0.028307032 0.41201743
0.046805859 0.028318018 0.41216674
-0.012127283 0.029769976 0.42852929
-0.011751202 0.029772414 0.42856649
-0.011372138 0.0297672 0.42849353
-0.010992518 0.02976013 0.42839372
-0.010612891 0.029752541 0.42828634
-0.010233572 0.029745283 0.42818367
-0.0098525267 0.02973227 0.42799804
-0.0094768228 0.02973498 0.42803869
-0.0090943603 0.029715827 0.42776456
-0.0087163523 0.029710213 0.4276852
-0.0083374269 0.029700823 0.42755142
-0.0079611717 0.029700512 0.42754823
-0.0075814757 0.029686697 0.42735055
-0.0072080088 0.029697102 0.42750147
-0.00682715 0.029676529 0.42720637
-0.0064491769 0.029666832 0.42706776
-0.0060714451 0.029657118 0.42692876
-0.0056951041 0.029653369 0.42687559
-0.0053170333 0.029639445 0.42667589
-0.0049400833 0.029630132 0.42654243
-0.0045650401 0.029631674 0.42656514
-0.0041878107 0.02961803 0.42636919
-0.0038122509 0.029614672 0.42632124
-0.0034360597 0.02960515 0.42618442
-0.0030599704 0.029594282 0.42602819
-0.0026847322 0.029589765 0.42596331
-0.0023095617 0.029584659 0.42588979
-0.0019340396 0.029572202 0.42571044
-0.0015594084 0.029570665 0.42568824
-0.0011842286 0.029554477 0.42545494
-0.00080983358 0.029551983 0.42541873
-0.00043534272 0.029538725 0.42522752
-6.1221413e-05 0.029541964 0.42527369
0.00031280713 0.029528659 0.42508158
0.0006867862 0.029527696 0.4250671
0.0010608897 0.029530862 0.42511201
0.0014350625 0.029533796 0.4251534
0.0018093368 0.029537167 0.42520106
0.0021839854 0.029544441 0.4253048
0.032197826 0.028940218 0.41625318
0.032523055 0.028903466 0.41571695
0.032891475 0.02890549 0.41573837
0.03324214 0.028892037 0.41553712
0.033605706 0.028889963 0.41549945
0.033970721 0.028889174 0.41548017
0.034322206 0.028877009 0.41529721
0.034685079 0.028874589 0.41525432
0.035033461 0.028860278 0.41504037
0.035390496 0.028853318 0.41493204
0.0357625 0.028858582 0.41499943
0.036114529 0.028847774 0.41483566
0.036466811 0.028837388 0.41467789
0.03681659 0.02882525 0.41449478
0.037169836 0.028816037 0.4143537
0.037540048 0.028820025 0.41440237
0.037897635 0.02881434 0.41431192
0.038259607 0.028812064 0.41427031
0.038606349 0.028798472 0.41406599
0.038967427 0.028795723 0.41401753
0.03931091 0.028780149 0.41378453
0.039679736 0.028783241 0.41381988
0.040031821 0.028774243 0.41368133
0.040383864 0.02876538 0.41354468
0.040748619 0.028765649 0.41353914
0.041099396 0.02875613 0.4133929
0.041457824 0.028752087 0.41332528
0.041808028 0.028742459 0.41317734
0.042159725 0.028734017 0.41304633
0.042514022 0.02872747 0.41294253
0.042873748 0.028724678 0.41289258
0.043233812 0.02872215 0.41284645
0.043577157 0.028708655 0.41264254
0.043932006 0.028702902 0.41254982
0.044286892 0.028697262 0.41245872
0.044640578 0.028690942 0.41235775
0.045005694 0.028692015 0.41236293
0.045351036 0.028680565 0.41218808
0.045706633 0.028675726 0.41210821
0.046078697 0.028681213 0.41217667
0.04644911 0.028685594 0.41222912
0.046802294 0.028679356 0.41212887
-0.012131389 0.030157624 0.42866904
-0.01175428 0.03015778 0.42867339
-0.011376845 0.030157087 0.42866558
-0.010996376 0.030148027 0.42853883
-0.010618329 0.030145204 0.42850056
-0.010239283 0.030139232 0.42841747
-0.0098600825 0.030132338 0.42832118
-0.0094783176 0.030116741 0.42810112
-0.0090987841 0.030107249 0.42796773
-0.0087200245 0.030099602 0.42786047
-0.0083422819 0.03009494 0.42779562
-0.0079656895 0.030094182 0.42778614
-0.0075871749 0.030085729 0.42766717
-0.0072073201 0.030070804 0.42745614
-0.0068307519 0.030068705 0.42742735
-0.0064518605 0.030055542 0.42724118
-0.0060751089 0.030051339 0.42718232
-0.0056982385 0.030045955 0.42710656
-0.0053207921 0.030036559 0.42697376
-0.0049454328 0.030038422 0.42700082
-0.0045660478 0.030014131 0.42665607
-0.0041916221 0.030021012 0.4267543
-0.0038128714 0.029995218 0.42638806
-0.0034370553 0.02998941 0.4263058
-0.0030615679 0.029985402 0.42624903
-0.0026859681 0.029979028 0.42615852
-0.0023104355 0.029971462 0.42605099
-0.0019351818 0.029965289 0.42596319
-0.001559961 0.029956793 0.42584229
-0.0011849693 0.029948728 0.42572749
-0.0008100429 0.029935643 0.42554113
-0.00043551595 0.029927537 0.42542553
-6.1194856e-05 0.029921165 0.42533451
0.0003129759 0.029915612 0.425255
0.0006871096 0.029914472 0.42523819
0.0010610144 0.029907674 0.4251408
0.0014353261 0.029912885 0.42521414
0.0018098415 0.029919308 0.42530453
0.0021845275 0.029925851 0.42539662
0.0025594735 0.029933529 0.42550462
0.002934692 0.029942013 0.4256241
0.0033093877 0.029943846 0.42564896
0.032215133 0.029322766 0.41647005
0.032540694 0.029285669 0.41593558
0.032914888 0.029292678 0.4160274
0.03326619 0.029279385 0.41583088
0.033613402 0.029262828 0.41558784
0.033971876 0.029256312 0.41548741
0.034334019 0.029253071 0.41543338
0.034698617 0.029251965 0.41540956
0.035052888 0.029242266 0.41526371
0.035426162 0.029248461 0.4153434
0.035776075 0.029235434 0.41515011
0.036135547 0.029230401 0.41507033
0.036484167 0.029216779 0.41486844
0.036843035 0.029211555 0.41478574
0.037196808 0.029202435 0.41464761
0.037557662 0.029198995 0.41459012
0.037907161 0.02918688 0.41440931
0.038271546 0.029186344 0.41439289
0.038625222 0.029177731 0.4142617
0.038992584 0.029179521 0.41427815
0.039335281 0.029162986 0.41403437
0.039692398 0.029157352 0.41394523
0.040047638 0.029150458 0.41383815
0.040403511 0.029144136 0.41373917
0.040757582 0.029136643 0.41362342
0.041112941 0.029130198 0.41352251
0.041474693 0.02912835 0.41348681
0.041819569 0.029114788 0.41328472
0.042174648 0.0291085 0.41318586
0.042534415 0.029105531 0.41313401
0.042888373 0.029098669 0.41302684
0.043244421 0.029093331 0.41294116
0.043597706 0.029086234 0.41283053
0.043956008 0.029082574 0.4127686
0.044306234 0.02907368 0.41263226
0.044658788 0.029066438 0.41251937
0.045020428 0.029065182 0.41249132
0.04537347 0.029058442 0.4123854
0.045722242 0.029049093 0.41224241
0.046092939 0.029053709 0.41229749
0.046466384 0.029059976 0.41237593
0.046856198 0.029076302 0.41259697
-0.012135203 0.030544788 0.42879835
-0.011759634 0.030549264 0.42886326
-0.011382596 0.030550091 0.42887697
-0.011000918 0.030538097 0.42871055
-0.010619401 0.030525712 0.42853856
-0.010242194 0.030525267 0.42853409
-0.0098620905 0.030515824 0.42840323
-0.0094837379 0.030511266 0.42834088
-0.0091025708 0.030496901 0.42814076
-0.0087249205 0.030493593 0.42809579
-0.0083451793 0.03048235 0.42793933
-0.0079678558 0.030479286 0.42789763
-0.0075884964 0.030467756 0.42773697
-0.0072118975 0.030466683 0.42772302
-0.0068343459 0.030461248 0.42764777
-0.0064544124 0.030443951 0.42740589
-0.0060780938 0.030442618 0.42738807
-0.0056993142 0.03042797 0.42718321
-0.0053224126 0.030421991 0.42709997
-0.0049456372 0.030415887 0.42701492
-0.0045687067 0.030407749 0.42690119
-0.0041909902 0.030392461 0.42668697
-0.0038156274 0.030392904 0.42669365
-0.0034389205 0.030381585 0.42653498
-0.0030622126 0.030367479 0.42633715
-0.0026872037 0.030368647 0.42635363
-0.0023114837 0.030360855 0.42624429
-0.0019356544 0.030348344 0.4260686
-0.0015610893 0.030354412 0.42615366
-0.0011857215 0.03034378 0.42600423
-0.00081070553 0.030336509 0.42590183
-0.00043582058 0.030325884 0.42575225
-6.1191829e-05 0.030312378 0.4255622
0.00031311484 0.03029995 0.42538717
0.0006873575 0.030298211 0.42536214
0.0010615746 0.030296961 0.42534384
0.0014356462 0.030293278 0.42529139
0.0018103764 0.030302135 0.42541486
0.0021849668 0.030306017 0.42546836
0.0025607932 0.030323382 0.42571115
0.0029362414 0.030332413 0.42583677
0.032224059 0.029697979 0.41657847
0.032557715 0.029667705 0.41614622
0.032928366 0.029671438 0.41619086
0.033284016 0.029661721 0.4160468
0.033638947 0.02965158 0.41589668
0.033994589 0.029642282 0.41575837
0.03435348 0.029635979 0.41566196
0.034714691 0.029631792 0.41559514
0.035071261 0.029623775 0.41547453
0.03542991 0.029617654 0.41538045
0.035785921 0.029609475 0.41525748
0.036150288 0.029608313 0.41523278
0.0365008 0.029595936 0.41505075
0.036865801 0.029595435 0.41503519
0.037220091 0.029586427 0.4149003
0.0375764 0.029579191 0.41479012
0.037929989 0.029569967 0.41465205
0.038281903 0.029559625 0.41449821
0.038636968 0.029551895 0.41438085
0.0389916 0.029543975 0.41426086
0.039357163 0.029544409 0.41425791
0.039715912 0.02953977 0.41418371
0.04007262 0.029533703 0.41408947
0.040417999 0.02951948 0.41388077
0.040773883 0.029513109 0.41378209
0.041133206 0.029509321 0.41371956
0.041494984 0.029507339 0.41368234
0.041851021 0.029501352 0.41358882
0.042201623 0.029491669 0.41344342
0.042555235 0.029484237 0.41332954
0.042906106 0.029475043 0.41319087
0.043254804 0.029464526 0.4130336
0.043616202 0.029462764 0.412999
0.043982994 0.029464643 0.41301531
0.044332094 0.029454742 0.41286644
0.04468099 0.02944486 0.41271779
0.04502948 0.029434875 0.41256762
0.0453979 0.02943797 0.41260076
0.045747422 0.029428866 0.41246277
0.046123698 0.029436976 0.41256601
0.046474524 0.029428843 0.41244152
-0.011763493 0.030937159 0.4289985
-0.011389807 0.030947443 0.42914316
-0.011003543 0.030923087 0.42880744
-0.01062795 0.030928059 0.42887822
-0.010248864 0.030922858 0.42880788
-0.0098670255 0.030908635 0.42861241
-0.0094875852 0.0309011 0.42850953
-0.0091077732 0.030891676 0.42838037
-0.0087309647 0.030892069 0.42838734
-0.0083500864 0.03087745 0.428186
-0.0079706991 0.030867232 0.42804557
-0.007592733 0.030861774 0.42797107
-0.0072126845 0.03084684 0.42776513
-0.0068363058 0.030846825 0.42776594
-0.0064575979 0.030835688 0.42761245
-0.00607923 0.030824898 0.42746371
-0.0057031461 0.030825032 0.42746636
-0.0053238133 0.030806392 0.4272086
-0.0049480228 0.030806974 0.42721727
-0.0045710611 0.030799767 0.42711785
-0.0041945912 0.030794879 0.42705056
-0.0038174558 0.030783666 0.42689541
-0.0034410988 0.030776976 0.42680293
-0.0030648259 0.030769497 0.4266994
-0.0026881984 0.03075587 0.4265106
-0.0023128092 0.0307543 0.42648882
-0.0019364047 0.030736007 0.42623514
-0.0015614136 0.030736769 0.42624554
-0.001185823 0.030722484 0.42604724
-0.00081088836 0.030719865 0.42601061
-0.00043604488 0.030719196 0.42600098
-6.1183629e-05 0.030701658 0.42575729
0.00031335696 0.030694585 0.4256587
0.0006876057 0.030682174 0.42548591
0.0010620021 0.030682771 0.42549348
0.0014364342 0.030683802 0.42550698
0.0018106734 0.030681133 0.4254691
0.0021853938 0.030686127 0.42553738
0.0025604209 0.030693339 0.42563632
0.002935773 0.030702097 0.42575666
0.0033099214 0.030697705 0.42569456
0.03221966 0.030060964 0.41651455
0.032579359 0.030054385 0.41641578
0.032932378 0.03004186 0.41623449
0.033300027 0.030042812 0.41623992
0.033657849 0.030034965 0.41612339
0.034006134 0.030018877 0.41589254
0.034362145 0.030009875 0.41575983
0.034726311 0.030008111 0.41572729
0.03508525 0.030001912 0.41563326
0.035443056 0.029994883 0.41552767
0.035806973 0.029993115 0.41549486
0.036165688 0.029987065 0.41540271
0.036525227 0.029981824 0.41532159
0.036876567 0.029970014 0.41514951
0.037230331 0.029960386 0.41500756
0.037587848 0.02995394 0.41490957
0.037944548 0.029946972 0.41480428
0.038294926 0.029935196 0.41463235
0.038661893 0.029936481 0.41464126
0.039010078 0.029923342 0.41445032
0.039377723 0.029925235 0.41446745
0.039724637 0.029911475 0.41426781
0.040085241 0.029908188 0.41421303
0.040441405 0.029901672 0.41411358
0.040790435 0.029890051 0.41394326
0.041152745 0.029888278 0.41390926
0.041506294 0.029880228 0.41378832
0.041865788 0.029876558 0.41372794
0.042214435 0.02986528 0.41356212
0.042579468 0.029865684 0.41355804
0.042910431 0.029842392 0.41322574
0.043274023 0.029841989 0.41321033
0.04363938 0.029842807 0.4132117
0.043994598 0.029836729 0.41311753
0.044343807 0.02982671 0.41296875
0.04470823 0.029827004 0.41296268
0.045066729 0.02982337 0.41290215
0.04541298 0.029811755 0.41273108
0.045768585 0.029806422 0.41264686
0.046144474 0.029814269 0.41274509
0.046514537 0.029818265 0.41278988
0.046893131 0.029827621 0.41290885
-0.011768549 0.031328492 0.42917734
-0.01139275 0.03133354 0.42924854
-0.011011006 0.031322028 0.42909279
-0.010632479 0.031319175 0.42905557
-0.010252084 0.031310406 0.42893726
-0.0098739723 0.031308211 0.42890891
-0.0094919475 0.031292938 0.42870128
-0.0091125323 0.031285368 0.42859912
-0.008731884 0.031272724 0.4284274
-0.0083535742 0.031267695 0.4283599
-0.0079742987 0.031258412 0.42823398
-0.0075946348 0.031246608 0.4280735
-0.0072156619 0.031236567 0.42793703
-0.0068381894 0.031232273 0.42787927
-0.0064598196 0.031223144 0.42775518
-0.0060833748 0.031222768 0.42775092
-0.0057053827 0.031213885 0.42762998
-0.005326217 0.031196874 0.42739761
-0.004949193 0.031190772 0.42731467
-0.004571585 0.031179694 0.42716345
-0.0041960389 0.031181956 0.42719486
-0.0038192673 0.031174662 0.42709532
-0.0034426646 0.031167313 0.42699489
-0.0030652462 0.031149875 0.42675623
-0.0026891492 0.031142879 0.42666051
-0.0023134633 0.03113915 0.42660946
-0.0019369555 0.031120783 0.42635778
-0.0015619703 0.03112394 0.4264009
-0.0011865365 0.031117341 0.42631027
-0.00081110658 0.031104801 0.42613819
-0.00043612003 0.031102359 0.42610434
-6.1184437e-05 0.031096125 0.42601851
0.00031354715 0.031084521 0.42585894
0.00068799447 0.031072695 0.42569628
0.0010624175 0.03106848 0.42563784
0.0014367788 0.031065118 0.42559099
0.0018111283 0.03106294 0.42556027
0.002186405 0.031074677 0.4257201
0.0025603247 0.031066509 0.42560714
0.0029355905 0.031074671 0.42571783
0.0033120508 0.031092195 0.4259567
0.031904384 0.030477254 0.41718912
0.032229904 0.03043768 0.41663983
0.03258023 0.030422159 0.4164198
0.032946534 0.030421738 0.41640633
0.033325717 0.030433089 0.41655391
0.033663712 0.030406985 0.41618881
0.034029927 0.030406663 0.41617644
0.03439346 0.030403975 0.41613162
0.034746412 0.030392086 0.41596085
0.035102762 0.030383391 0.41583371
0.035469353 0.030383643 0.41582888
0.035811111 0.030362833 0.41553584
0.03617451 0.030360613 0.41549703
0.036535691 0.030356592 0.41543356
0.036901187 0.0303562 0.41541967
0.037260644 0.030350896 0.41533846
0.037607927 0.03033587 0.41512418
0.037959184 0.030324312 0.41495728
0.038327944 0.030326826 0.41498283
0.038669858 0.03030825 0.41471976
0.039026424 0.030301401 0.41461703
0.039384235 0.030295629 0.41452903
0.039736584 0.030285805 0.41438547
0.040094387 0.030280275 0.41430065
0.040449772 0.030273037 0.41419232
0.040811952 0.030270969 0.41415471
0.041165885 0.030262873 0.41403452
0.04152859 0.030261314 0.4140037
0.04188836 0.030257659 0.41394413
0.042240869 0.030248864 0.41381419
0.042587712 0.030236201 0.41363126
0.04295332 0.030236961 0.41363186
0.043305241 0.030228157 0.41350156
0.043652002 0.030215925 0.4133243
0.043998525 0.030203734 0.41314754
0.044366531 0.030206367 0.41317353
0.044726189 0.030203322 0.4131217
0.045075998 0.030193724 0.41298026
0.045430247 0.030187236 0.4128812
0.045787029 0.030182516 0.4128063
0.046163741 0.030190909 0.41291064
0.04652657 0.030190159 0.41288987
-0.011770609 0.031712089 0.42924684
-0.011395949 0.031720553 0.42936355
-0.011016075 0.031714592 0.42928478
-0.010637354 0.031711645 0.42924681
-0.010256402 0.031701595 0.42911252
-0.0098755695 0.031691153 0.42897293
-0.0094945868 0.031679381 0.42881525
-0.0091176806 0.031680804 0.42883605
-0.008736684 0.031667527 0.42865777
-0.008356615 0.031656567 0.42851079
-0.0079781776 0.031651046 0.42843732
-0.0075986376 0.031640384 0.42829421
-0.0072198585 0.03163195 0.42818117
-0.0068397252 0.031616326 0.42797077
-0.006462751 0.031614341 0.42794484
-0.0060845432 0.031605702 0.42782876
-0.0057076411 0.031603154 0.42779508
-0.0053295516 0.031593215 0.42766124
-0.004951485 0.031581916 0.42750892
-0.0045742504 0.031574499 0.42740905
-0.0041971132 0.031566497 0.42730117
-0.0038198216 0.031555638 0.4271546
-0.0034446281 0.031561647 0.4272362
-0.0030662897 0.031536788 0.42689988
-0.0026902875 0.031532373 0.42684025
-0.0023141264 0.031524356 0.4267318
-0.0019381995 0.031517066 0.42663306
-0.0015626827 0.031514544 0.42659879
-0.0011869749 0.03150538 0.42647451
-0.00081152236 0.031497661 0.42636973
-0.00043622579 0.03148796 0.42623803
-6.1166094e-05 0.031481467 0.42614967
0.00031365681 0.031466685 0.42594907
0.0006882872 0.031459183 0.42584684
0.0010628992 0.031456415 0.42580864
0.0014372661 0.031449705 0.42571709
0.001811721 0.031447299 0.42568359
0.0021864781 0.031450052 0.42571992
0.0025613292 0.031453155 0.42576081
0.0029361916 0.031455576 0.42579249
0.0033119645 0.0314661 0.42593372
0.0036891974 0.03148694 0.42621449
0.031895798 0.030836584 0.41706961
0.032232657 0.030807469 0.41666827
0.03260193 0.030809633 0.41668993
0.032963078 0.030804163 0.41660824
0.033320494 0.030795364 0.41648147
0.033678308 0.030787116 0.41636205
0.034037676 0.030780451 0.416264
0.034399357 0.030776002 0.41619584
0.034760233 0.030770933 0.41611919
0.035123575 0.030768124 0.41607308
0.035480723 0.030760007 0.4159551
0.035836887 0.030751212 0.41582781
0.036193687 0.03074313 0.41571018
0.036543097 0.030729001 0.41551068
0.036904313 0.030724976 0.41544771
0.0372671 0.030722329 0.41540334
0.037623107 0.030714195 0.41528469
0.037977777 0.030705139 0.41515347
0.038337443 0.030700259 0.41507864
0.038691167 0.030690752 0.41494122
0.039054289 0.030688811 0.414906
0.039416127 0.030685905 0.41485766
0.039760545 0.030669613 0.4146283
0.040114965 0.030661264 0.41450623
0.040471766 0.030654874 0.41441056
0.040820241 0.030642342 0.41423178
0.0411864 0.030643189 0.41423386
0.041545745 0.030639 0.41416773
0.041897688 0.030629469 0.41402933
0.042258479 0.030626515 0.41397977
0.042607937 0.030615468 0.41382074
0.042969503 0.030613232 0.41378072
0.043309178 0.030595573 0.41353223
0.043679696 0.030599818 0.41357961
0.044034902 0.030593347 0.41348219
0.044394333 0.030589897 0.41342548
0.044738285 0.030575922 0.41322652
0.045087207 0.030565549 0.41307604
0.045448545 0.03056368 0.41304055
0.045804624 0.03055834 0.412958
0.046178248 0.030564699 0.41303352
0.046548661 0.030568844 0.41307905
-0.011396697 0.032100879 0.42938611
-0.011019941 0.032104004 0.42942989
-0.010640582 0.032099504 0.42937157
-0.010258935 0.032087516 0.42921302
-0.0098830238 0.032093246 0.42929134
-0.0095007019 0.032077774 0.42908606
-0.0091201272 0.032067176 0.42894584
-0.0087418873 0.032064229 0.4289079
-0.0083620399 0.032054856 0.42878383
-0.0079834266 0.032049548 0.42871419
-0.0076012337 0.032028634 0.42843562
-0.00722417 0.032028291 0.42843214
-0.0068443562 0.032015033 0.42825583
-0.0064659449 0.032007184 0.42815179
-0.0060881781 0.032001752 0.42807999
-0.0057100863 0.03199378 0.42797422
-0.0053307707 0.031977355 0.42775512
-0.0049540838 0.031975392 0.42772952
-0.0045757815 0.031961828 0.42754865
-0.0041990224 0.031957589 0.42749238
-0.0038208577 0.031940769 0.42726776
-0.0034449061 0.031940799 0.42726845
-0.0030682241 0.031933237 0.42716748
-0.0026915767 0.03192398 0.4270438
-0.0023152842 0.031916626 0.42694542
-0.0019387784 0.031902913 0.42676193
-0.0015633366 0.031904332 0.42678082
-0.0011874 0.03189338 0.42663407
-0.00081180711 0.031885814 0.42653257
-0.00043643764 0.031881593 0.42647573
-6.1148472e-05 0.031867683 0.42628917
0.00031394849 0.031867456 0.42628562
0.0006885117 0.031842772 0.42595479
0.0010632206 0.031839833 0.42591479
0.0014378806 0.031837333 0.42588055
0.0018121931 0.031829763 0.42577836
0.0021868462 0.031829733 0.42577702
0.0025617289 0.031832561 0.42581379
0.0029374191 0.031843413 0.42595786
0.0033122904 0.031843934 0.42596358
0.0036883813 0.031854879 0.42610866
0.0040626265 0.031849328 0.42603305
0.0044395393 0.031863861 0.42622599
0.031907223 0.031215293 0.41721171
0.032246694 0.031188229 0.4168424
0.032615066 0.03118941 0.4168506
0.032984026 0.031191116 0.41686571
0.03333899 0.0311797 0.41670534
0.033698611 0.03117284 0.41660583
0.034062412 0.031169955 0.41655931
0.034409706 0.031152183 0.41631383
0.034769144 0.031145664 0.41621861
0.035140667 0.031149991 0.41626829
0.035488442 0.031133398 0.41603833
0.035851978 0.031130832 0.41599572
0.036209729 0.031123338 0.41588721
0.036564179 0.031113194 0.4157432
0.036927745 0.031110924 0.41570434
0.037282173 0.031101076 0.41556415
0.037631463 0.031087177 0.41536975
0.038001087 0.031090183 0.41540116
0.038355384 0.031080708 0.41526574
0.038720243 0.031079892 0.41524592
0.039069004 0.031066287 0.41505522
0.039425984 0.031059412 0.41495427
0.039779395 0.031049877 0.41481778
0.040136766 0.031043578 0.41472441
0.040489241 0.031033641 0.4145824
0.040839497 0.031022195 0.41442013
0.041199211 0.031018069 0.41435564
0.04155504 0.031011116 0.41425326
0.041915301 0.031007571 0.41419631
0.042272065 0.031001512 0.41410577
0.042635929 0.031000724 0.41408557
0.042975061 0.030982116 0.41382721
0.043336906 0.030980064 0.41378996
0.043693248 0.030974142 0.41370094
0.044051085 0.030969368 0.41362718
0.044400755 0.030958977 0.41347831
0.044756636 0.030953052 0.41338903
0.045116231 0.030949766 0.41333497
0.045482546 0.030951113 0.41334262
0.045831013 0.030940382 0.41318896
0.046189789 0.030936725 0.41312972
-0.011400991 0.032491364 0.42954221
-0.011022652 0.032490283 0.42952991
-0.010642874 0.032484736 0.42945847
-0.010264263 0.032482479 0.42943043
-0.009885422 0.032479294 0.42938998
-0.0095048696 0.03247001 0.42926893
-0.0091242613 0.032459762 0.42913494
-0.0087435516 0.032448255 0.42898428
-0.0083649075 0.032443717 0.42892572
-0.0079858871 0.032437231 0.42884123
-0.0076053077 0.032423455 0.4286603
-0.0072258106 0.032413099 0.42852449
-0.0068466892 0.032403383 0.42839712
-0.0064697182 0.032403305 0.42839706
-0.0060909786 0.032393817 0.42827249
-0.0057136873 0.032391287 0.42823988
