# .PCD v0.7 - Point Cloud Data file format
VERSION 0.7
FIELDS x y z
SIZE 4 4 4
TYPE F F F
COUNT 1 1 1
WIDTH 1373
HEIGHT 1
VIEWPOINT 0 0 0 1 0 0 0
POINTS 1373
DATA ascii
0.015737021 0.079228386 0.3566609
0.016054349 0.079237103 0.35669661
0.016365478 0.079215482 0.35659564
0.016679319 0.079207547 0.35655627
0.0169932 0.079200104 0.35651901
0.017311173 0.07921163 0.35656714
0.017628014 0.079217672 0.35659048
0.017948898 0.079241358 0.35669315
0.018265264 0.079244606 0.35670382
0.018590238 0.079284459 0.35687917
0.018913565 0.079316072 0.35701737
0.045065101 0.077563114 0.34856853
0.045324873 0.077479027 0.34818178
0.045608476 0.077436529 0.3479819
0.045875549 0.077366732 0.34765929
0.04615625 0.077320695 0.34744346
0.046450656 0.077298075 0.34733278
0.046747804 0.07728029 0.34724376
0.047066588 0.077298269 0.3473154
0.047345966 0.07725171 0.34709701
0.047664043 0.077268496 0.3471632
0.04792067 0.077186078 0.34678364
0.04821698 0.077168219 0.34669408
0.048541095 0.077194817 0.3468042
0.048822258 0.077153191 0.34660774
0.049128052 0.07715077 0.34658742
0.049415436 0.077119641 0.34643811
0.04972152 0.07711792 0.34642076
0.050008748 0.077087127 0.34627286
0.050303683 0.077068545 0.34617972
0.050598908 0.077050604 0.34608945
0.050904125 0.077048026 0.34606808
0.051194727 0.077023484 0.34594807
0.051460743 0.076962441 0.34566405
0.051770873 0.076967739 0.34567794
0.052070823 0.076957904 0.34562388
0.052376393 0.076956443 0.34560734
0.052680172 0.076952375 0.34557906
0.05295223 0.076902308 0.34534416
0.053249225 0.076888815 0.34527344
0.053556383 0.076890066 0.34526891
0.053823896 0.076834701 0.3450101
0.054148309 0.076860741 0.34511676
0.054437179 0.07683631 0.34499681
0.054712996 0.076793849 0.34479576
0.055004343 0.076773509 0.34469411
0.05530918 0.076772131 0.34467751
0.055596083 0.076746009 0.34454978
0.055880394 0.076716624 0.34440732
0.056188188 0.076719612 0.34441018
0.056476027 0.076695472 0.34429124
0.056782104 0.076696217 0.34428397
0.057067148 0.076668702 0.34414977
0.057375334 0.07667242 0.3441557
0.057666179 0.076653026 0.34405789
0.057917297 0.076581314 0.34372523
0.058236558 0.076599978 0.34379816
0.058516338 0.076566793 0.34363833
0.058836117 0.076586023 0.34371367
0.059129331 0.076570638 0.34363371
0.059412554 0.076542556 0.34349665
0.059702724 0.076523654 0.34340075
0.060031395 0.076554038 0.34352604
0.0034672376 0.080395982 0.36055595
0.0037865555 0.080404311 0.36059213
0.0041043581 0.080381662 0.36048931
0.0044229669 0.080376908 0.36046675
0.0047411658 0.080365837 0.36041573
0.0050565731 0.080311827 0.36017212
0.0053733108 0.080284089 0.36004624
0.005692096 0.080288321 0.36006373
0.0060082055 0.08025638 0.35991883
0.0063265637 0.080256164 0.35991624
0.0066448431 0.080255009 0.35990933
0.0069585009 0.080200687 0.35966393
0.007273349 0.080164231 0.35949859
0.0075883996 0.080132969 0.35935649
0.0079054311 0.080124281 0.35931557
0.0082226126 0.08011774 0.35928422
0.0085392101 0.080106191 0.35923034
0.0088539235 0.080078438 0.35910374
0.009168053 0.080047496 0.35896277
0.0094839707 0.08003372 0.3588987
0.0097984122 0.080008775 0.35878453
0.010111037 0.079971015 0.35861281
0.01042636 0.079956263 0.35854417
0.010740372 0.079932608 0.3584356
0.011059555 0.079947688 0.35850063
0.011371965 0.079914324 0.3583484
0.011680763 0.07985808 0.35809347
0.011997782 0.079859518 0.35809717
0.012314253 0.079857342 0.35808459
0.012623646 0.079810515 0.35787174
0.012937584 0.079793997 0.35779473
0.013248704 0.079761304 0.35764515
0.013564489 0.079757564 0.35762531
0.013875941 0.079729103 0.35749456
0.014186749 0.079698294 0.35735324
0.014502632 0.0796967 0.35734287
0.014813433 0.079667859 0.35721025
0.015127078 0.079655193 0.35715002
0.015434003 0.079608366 0.35693669
0.015749998 0.079609275 0.35693726
0.016057758 0.079569325 0.35675463
0.016370509 0.079555176 0.35668758
0.016686212 0.079555638 0.356686
0.016997064 0.079533391 0.35658249
0.017316828 0.079552881 0.35666609
0.017631911 0.079550557 0.35665181
0.017948532 0.079555124 0.35666838
0.018267421 0.079569429 0.35672855
0.018585641 0.079580359 0.35677353
0.018911522 0.079623193 0.35696146
0.019227637 0.079624169 0.35696167
0.044774141 0.07790342 0.34870228
0.04507225 0.077884443 0.34860855
0.045382295 0.077886216 0.34860763
0.045614701 0.077755623 0.34801424
0.045905475 0.077725612 0.34787095
0.046184976 0.077677034 0.34764457
0.04646695 0.077633224 0.3474395
0.046777118 0.077636801 0.34744641
0.047076512 0.077622555 0.34737355
0.047358248 0.077579573 0.34717199
0.047660492 0.07757052 0.34712225
0.047953524 0.077546701 0.34700638
0.048250768 0.077529937 0.34692207
0.048535209 0.077492945 0.34674716
0.048840038 0.077488758 0.34671903
0.049143296 0.077482156 0.34668002
0.049442187 0.077468798 0.34661075
0.049736749 0.077448852 0.34651193
0.050036408 0.077437043 0.34644952
0.050331004 0.077417597 0.34635285
0.050645571 0.077428907 0.34639376
0.050919056 0.077377655 0.34615475
0.05121788 0.077365302 0.34608969
0.051513851 0.077348791 0.34600601
0.051805478 0.077326007 0.34589419
0.05211759 0.07733389 0.34591952
0.052390374 0.077283651 0.34568489
0.052693088 0.077277899 0.34564912
0.052980863 0.077250428 0.34551618
0.053273436 0.077230237 0.34541577
0.053566474 0.07721094 0.3453193
0.053869043 0.077205524 0.34528488
0.054156274 0.077178299 0.34515291
0.054451842 0.077163205 0.34507513
0.054750718 0.077152938 0.34501889
0.055036481 0.077124409 0.34488094
0.055326845 0.077102616 0.34477308
0.055628836 0.077097163 0.34473825
0.055922247 0.077079952 0.34465078
0.056203011 0.077045582 0.34448656
0.056499448 0.077032961 0.34441954
0.056805316 0.077033266 0.34441027
0.057082433 0.076994777 0.34422755
0.057386719 0.076993152 0.34420955
0.057676483 0.076972172 0.34410501
0.05797451 0.076962374 0.34405041
0.058250662 0.076923788 0.34386709
0.05855345 0.076920599 0.34384197
0.058846548 0.076904781 0.34376031
0.059156246 0.076910704 0.34377584
0.059440244 0.076883323 0.34364244
0.059752055 0.076892018 0.34367028
0.060049742 0.076882541 0.34361681
0.0037869827 0.080730483 0.36060745
0.0041062422 0.08073584 0.36063015
0.0044257408 0.080744773 0.36066878
0.0047428072 0.080711119 0.36051711
0.0050590844 0.080669113 0.36032808
0.0053760232 0.080642 0.3602055
0.0056957263 0.080657065 0.36027128
0.006013114 0.080639482 0.36019111
0.0063303001 0.080621086 0.3601073
0.0066465461 0.08059305 0.35998034
0.0069620772 0.080559313 0.35982785
0.0072798445 0.080553256 0.35979894
0.0075917402 0.080485448 0.35949424
0.0079101939 0.080489829 0.35951182
0.0082254699 0.080462776 0.35938895
0.0085418532 0.080448158 0.35932159
0.0088614896 0.08046414 0.3593908
0.0091740331 0.080416821 0.35917729
0.0094865886 0.080372781 0.3589783
0.0098000551 0.080339059 0.35882536
0.010118615 0.080347888 0.35886237
0.010433653 0.080329068 0.35877588
0.010748932 0.080313146 0.35870224
0.011060672 0.080272451 0.35851792
0.011375097 0.080252975 0.35842827
0.011691236 0.080246307 0.35839581
0.012000878 0.080196589 0.35817099
0.012314009 0.080172136 0.35805896
0.01262849 0.080157466 0.35799053
0.012947114 0.080169171 0.35803989
0.013260599 0.080149256 0.35794795
0.013576069 0.080141976 0.35791239
0.013882457 0.080082648 0.35764432
0.014195814 0.080065258 0.35756344
0.014505768 0.080029853 0.35740209
0.014824286 0.080042198 0.35745391
0.015133197 0.080003239 0.35727659
0.015439627 0.079953015 0.35704887
0.015753265 0.079941399 0.3569935
0.016065458 0.079923034 0.35690796
0.016374759 0.079891272 0.3567625
0.016695635 0.079916105 0.35686976
0.017002495 0.07987418 0.35667881
0.01731693 0.079868719 0.35665062
0.017634474 0.079877533 0.35668612
0.017951863 0.079885349 0.35671711
0.018271036 0.079900689 0.35678166
0.018586915 0.079901338 0.35678056
0.018909249 0.079929262 0.35690114
0.019233104 0.079962596 0.35704583
0.019559132 0.080003716 0.35722524
0.044807829 0.078271367 0.34894934
0.045075856 0.078199737 0.34862119
0.045371979 0.078177482 0.34851313
0.045617394 0.078068748 0.34801954
0.045915589 0.078051202 0.34793237
0.046213664 0.078033686 0.34784532
0.046493586 0.07798595 0.3476235
0.046800502 0.077983819 0.34760496
0.047102682 0.077973895 0.34755155
0.04738766 0.077935778 0.3473725
0.047666799 0.077888623 0.3471531
0.047978356 0.077894703 0.34717095
0.048270591 0.077869542 0.34704953
0.048563376 0.077845581 0.34693339
0.048850648 0.077813134 0.34677932
0.049156133 0.077809922 0.34675559
0.049463429 0.077809602 0.34674466
0.049756397 0.077786885 0.34663391
0.050064597 0.077788115 0.34662977
0.050365523 0.077778094 0.34657547
0.050644055 0.077733815 0.34636849
0.050934125 0.077707678 0.34624231
0.051247828 0.077717699 0.34627715
0.0515338 0.077685781 0.34612516
0.051842432 0.077688225 0.34612614
0.052124657 0.077651277 0.34595162
0.052397095 0.077600271 0.34571442
0.052741755 0.077656202 0.34595358
0.053022556 0.07761801 0.34577337
0.053288624 0.077558801 0.34549952
0.053592306 0.077554695 0.34547111
0.05389709 0.077552237 0.34544998
0.054185729 0.077526696 0.34532598
0.054446191 0.077461354 0.34502465
0.054773755 0.077491686 0.34514946
0.055058844 0.077461913 0.3450065
0.055349734 0.077440597 0.34490111
0.05565019 0.077432819 0.34485602
0.055944726 0.077416927 0.34477478
0.056232467 0.077391863 0.34465262
0.056522697 0.077370465 0.34454679
0.056824867 0.077365562 0.34451434
0.057117622 0.077347964 0.34442529
0.057391439 0.077305041 0.34422344
0.057703905 0.077314354 0.3442542
0.057987448 0.077285022 0.34411278
0.058308121 0.07730522 0.34419191
0.058593761 0.077279009 0.34406433
0.058867101 0.077236921 0.34386605
0.059159499 0.077220164 0.34378046
0.059467729 0.07722412 0.34378707
0.059776932 0.077229291 0.34379908
0.060095076 0.077245899 0.34386194
0.0037882943 0.081075624 0.36070687
0.004108022 0.081088215 0.36076173
0.0044265073 0.081076264 0.36070722
0.004744167 0.081051789 0.36059698
0.0050629606 0.081048541 0.36058113
0.005380196 0.08102221 0.36046249
0.0056976629 0.081002109 0.36037156
0.0060151764 0.080984749 0.36029276
0.0063313665 0.080952235 0.36014643
0.0066497712 0.080949776 0.36013377
0.0069658677 0.080920726 0.36000276
0.00728215 0.080896273 0.35989213
0.0075980718 0.080870032 0.35977349
0.0079151029 0.080857225 0.35971454
0.0082292305 0.080816895 0.3595331
0.0085443966 0.080789372 0.35940859
0.008864345 0.080807418 0.35948673
0.0091799451 0.08078596 0.35938904
0.0094946241 0.080758087 0.35926279
0.0098067233 0.080710791 0.35905004
0.010124085 0.080708422 0.35903707
0.01043875 0.080685325 0.35893193
0.010752351 0.08065562 0.35879725
0.011065388 0.080623507 0.35865179
0.011381937 0.080618054 0.35862494
0.011696121 0.080596596 0.35852677
0.012012273 0.080589488 0.35849237
0.012322697 0.080545284 0.35829291
0.012635314 0.080517277 0.3581655
0.012951604 0.08051347 0.35814559
0.013266365 0.080500565 0.35808522
0.013581191 0.080488645 0.35802913
0.013892814 0.080458716 0.35789284
0.014202339 0.080418237 0.35770962
0.014520193 0.080425665 0.35773942
0.014824676 0.080360286 0.35744527
0.015134756 0.080327332 0.35729539
0.015451287 0.080329277 0.35730061
0.015767671 0.080330394 0.35730207
0.016078401 0.080303214 0.35717764
0.01638343 0.080249168 0.35693365
0.016703058 0.08026731 0.35701069
0.017014159 0.080244571 0.35690579
0.01732688 0.080230147 0.35683793
0.017638655 0.080211952 0.35675311
0.017956013 0.080219321 0.35678202
0.018274046 0.080229409 0.35682291
0.018589295 0.080227137 0.35680878
0.018906878 0.080234833 0.35683894
0.019227503 0.080254979 0.35692441
0.01955664 0.080309443 0.35716239
0.019879723 0.080337688 0.35728371
0.044524942 0.078627363 0.34914994
0.044837892 0.078633413 0.34916806
0.045073871 0.078505322 0.34859049
0.045342926 0.078436188 0.34827465
0.045634553 0.078406766 0.34813517
0.045920283 0.07836768 0.34795269
0.046226881 0.078364484 0.34792957
0.046524171 0.078345656 0.34783694
0.046827629 0.078337401 0.34779122
0.04711695 0.078305766 0.34764165
0.047420964 0.078298785 0.34760147
0.047719687 0.078283221 0.34752315
0.047999162 0.078236483 0.34730643
0.048303708 0.07823094 0.34727252
0.048583657 0.078185886 0.34706318
0.048894465 0.078190744 0.34707534
0.049172241 0.07814306 0.34685421
0.049470197 0.078127816 0.34677711
0.049783058 0.078136168 0.34680462
0.05008832 0.07813257 0.34677905
0.050380249 0.078108326 0.34666184
0.05068247 0.078100242 0.34661627
0.050973181 0.078074634 0.34649289
0.051276647 0.078068741 0.34645697
0.051563561 0.078037873 0.34631017
0.051837709 0.07798817 0.34607971
0.052138317 0.077978618 0.34602743
0.052428391 0.077953517 0.34590611
0.05275533 0.077983201 0.34602782
0.053040598 0.077951297 0.34587622
0.053315438 0.077904515 0.3456586
0.053603821 0.077877961 0.3455306
0.053909138 0.077876166 0.34551248
0.054225031 0.077889577 0.34556177
0.0545085 0.077856518 0.34540483
0.054806221 0.077844076 0.34533936
0.055079054 0.077796638 0.34511852
0.055367991 0.077772327 0.34500027
0.055680051 0.077780582 0.34502646
0.055979781 0.077771626 0.34497625
0.056245297 0.077715479 0.34471667
0.056538641 0.077698193 0.34462947
0.05684365 0.077697031 0.34461367
0.057146352 0.07769274 0.34458402
0.057429206 0.077661656 0.34443548
0.05773836 0.07766629 0.34444529
0.05802843 0.077645332 0.34434155
0.058316179 0.077621497 0.34422505
0.058609154 0.077604845 0.34414032
0.058904078 0.07759092 0.34406766
0.059204627 0.077584513 0.34402832
0.059499949 0.077571355 0.343959
0.059814554 0.077583335 0.34400108
0.060105078 0.077564143 0.34390491
0.0037901311 0.081432246 0.36085624
0.0041098027 0.081440896 0.36089334
0.0044283853 0.081428267 0.36083609
0.0047474736 0.081426002 0.36082473
0.0050662654 0.081419259 0.36079341
0.0053832759 0.081386365 0.36064622
0.0057004751 0.081359841 0.36052713
0.0060158614 0.081311621 0.3603119
0.0063356315 0.081324525 0.36036736
0.0066505079 0.08127638 0.36015233
0.0069669723 0.081251159 0.36003879
0.0072851162 0.08124686 0.3600179
0.0076031173 0.081241384 0.35999176
0.0079190405 0.081215046 0.35987309
0.0082348399 0.081189513 0.3597579
0.0085499147 0.081159003 0.35962063
0.0088657122 0.081137292 0.35952228
0.0091821542 0.081122778 0.35945579
0.0094983 0.0811067 0.35938224
0.0098145679 0.081092663 0.35931775
0.01013058 0.081077471 0.35924801
0.010444555 0.081047378 0.35911223
0.010760912 0.081037007 0.35906377
0.011072153 0.080989808 0.35885206
0.011387433 0.080973946 0.35877913
0.011702063 0.08095447 0.35869011
0.012016558 0.080935083 0.35860148
0.012329657 0.080907531 0.35847658
0.012641077 0.080870636 0.35831025
0.012953029 0.080838844 0.35816649
0.013269062 0.08083345 0.35813954
0.013584199 0.080822967 0.35809001
0.013900635 0.080820508 0.35807601
0.014212909 0.080794498 0.3579576
0.014525588 0.080771863 0.35785413
0.01483438 0.08072906 0.35766113
0.015148437 0.080716081 0.3576003
0.015460358 0.080692492 0.35749236
0.01577802 0.080699205 0.35751861
0.016085625 0.080655217 0.35732022
0.016398968 0.08064115 0.3572543
0.016704384 0.080589376 0.35702127
0.01702122 0.080593571 0.35703617
0.01733003 0.080560334 0.35688511
0.017647369 0.080567211 0.35691172
0.017961951 0.080561459 0.35688239
0.018275725 0.080552362 0.35683811
0.018590495 0.080547892 0.35681427
0.018908549 0.080557555 0.35685301
0.019232243 0.080590531 0.35699493
0.019550195 0.080598772 0.35702723
0.0198773 0.080643877 0.35722277
0.044254862 0.079007261 0.34945446
0.044539109 0.078961998 0.34924561
0.044808313 0.078890882 0.34892234
0.045101561 0.078862779 0.34878924
0.045395408 0.078836091 0.34866241
0.045647319 0.078737445 0.34821722
0.04594557 0.078719497 0.34812897
0.046245806 0.078705184 0.3480567
0.046546869 0.078692451 0.34799141
0.046837285 0.078662001 0.3478477
0.04712731 0.078631304 0.34770283
0.047431305 0.078624152 0.34766206
0.047727987 0.078605056 0.34756842
0.048038587 0.078608975 0.3475765
0.048344634 0.078605451 0.34755161
0.048606541 0.078530647 0.34721151
0.048941795 0.078574538 0.34739619
0.049209937 0.078510813 0.347105
0.049504984 0.07849054 0.3470059
0.049820907 0.078503408 0.34705326
0.050124656 0.078497052 0.34701559
0.050403751 0.078452393 0.34680852
0.050694715 0.078426644 0.34668502
0.051000588 0.078424133 0.34666422
0.051298559 0.078409575 0.3465901
0.05158475 0.078377292 0.34643757
0.051858798 0.078327045 0.34620562
0.052163031 0.078322716 0.34617659
0.052462321 0.078311048 0.34611511
0.052754089 0.078288369 0.34600484
0.053062104 0.078289919 0.34600165
0.053374089 0.078297265 0.34602404
0.053649433 0.078251079 0.34580985
0.053945832 0.078235961 0.34573284
0.054224692 0.078195736 0.34554487
0.054545615 0.078216262 0.34562534
0.054825801 0.078178465 0.34544802
0.055120513 0.078161694 0.34536359
0.055404596 0.078130126 0.34521368
0.05571023 0.07812912 0.34519881
0.056003768 0.078111261 0.34510943
0.056307886 0.078108251 0.34508565
0.056588929 0.078073457 0.34492135
0.05688921 0.07806544 0.34487534
0.057174586 0.078037158 0.34473974
0.057456836 0.078004926 0.3445867
0.057745609 0.077981852 0.34447402
0.058057122 0.077989563 0.34449732
0.058343608 0.077963747 0.34437251
0.058649488 0.077963978 0.34436268
0.058924682 0.077923648 0.34417361
0.059216309 0.077905335 0.34408179
0.059524029 0.07790827 0.34408382
0.059835553 0.077916138 0.34410751
0.060137298 0.07791125 0.3440749
0.0041113836 0.081789836 0.36100727
0.0044297711 0.081771441 0.36092481
0.0047498839 0.081785217 0.36098427
0.0050679701 0.081764549 0.36089164
0.0053870524 0.081761442 0.36087647
0.0057022357 0.081702806 0.36061612
0.0060197045 0.081681393 0.36052006
0.0063378676 0.081671089 0.36047289
0.006655511 0.081655383 0.36040187
0.0069737653 0.081648268 0.36036867
0.0072868406 0.081583776 0.36008218
0.0076068491 0.081599057 0.36014774
0.0079227602 0.081570923 0.36002162
0.0082362704 0.081521206 0.3598001
0.0085537899 0.081513382 0.35976353
0.008870977 0.081503063 0.35971585
0.009188165 0.08149346 0.35967124
0.0095055858 0.081486486 0.35963821
0.0098188203 0.081445247 0.35945386
0.010133927 0.081421621 0.35934722
0.01044804 0.081391715 0.35921276
0.010767628 0.081404954 0.35926867
0.011081671 0.081376709 0.35914144
0.011391292 0.08131846 0.35888174
0.011708363 0.081315108 0.35886425
0.01202234 0.08129102 0.35875523
0.012337038 0.081272915 0.3586725
0.012651452 0.081253901 0.35858569
0.01296095 0.081205003 0.35836694
0.013276374 0.081194676 0.35831839
0.013592649 0.081189923 0.35829437
0.013908125 0.081180714 0.35825062
0.014216908 0.081133723 0.35804003
0.014531517 0.081121303 0.35798195
0.014846634 0.081112176 0.35793841
0.0151647 0.08111921 0.3579661
0.015473207 0.081075862 0.3577714
0.015780048 0.081025712 0.3575466
0.016091635 0.081001393 0.35743579
0.016410355 0.081013247 0.35748446
0.016723767 0.080998935 0.35741767
0.017026354 0.08093369 0.35712606
0.01733429 0.080895796 0.35695508
0.017656669 0.08092545 0.3570821
0.017961264 0.080873989 0.35685107
0.018281056 0.080891535 0.35692456
0.018594204 0.080879599 0.35686788
0.018912859 0.080891609 0.35691682
0.019230632 0.080899507 0.35694751
0.019552652 0.080924727 0.35705459
0.019873952 0.080946214 0.35714513
0.020198504 0.080980055 0.35729015
0.043980017 0.079380095 0.3497254
0.044290669 0.07938122 0.3497217
0.044557285 0.079303972 0.34937268
0.044822853 0.079225905 0.34902009
0.045093648 0.079158112 0.34871265
0.045406785 0.079165049 0.34873438
0.045669559 0.079084687 0.34837154
0.045972042 0.079073697 0.3483142
0.046273362 0.079060882 0.34824878
0.046572652 0.079044767 0.34816882
0.046863325 0.079014353 0.3480258
0.047160607 0.078995392 0.3479332
0.047452439 0.078967623 0.34780172
0.047743507 0.078938939 0.3476662
0.048044462 0.078926861 0.3476038
0.048362203 0.078942351 0.34766269
0.048652098 0.078912467 0.34752172
0.048953723 0.078901872 0.34746569
0.049252938 0.078887552 0.34739318
0.049531423 0.078840397 0.34717607
0.049822703 0.078814082 0.34705067
0.05013869 0.078826919 0.34709764
0.050422505 0.078789338 0.34692252
0.05072058 0.078774363 0.34684694
0.05101544 0.078754596 0.34675017
0.051314745 0.078741893 0.34668449
0.051609635 0.078722581 0.34658968
0.051880568 0.078667209 0.34633604
0.052192092 0.078673646 0.34635451
0.052461997 0.078617655 0.34609807
0.052765898 0.078612953 0.3460674
0.053074829 0.078615762 0.34606972
0.053376887 0.078608409 0.34602731
0.053674269 0.078594305 0.3459551
0.053974975 0.0785852 0.34590486
0.054268632 0.078565978 0.34581006
0.05456895 0.078556567 0.34575838
0.054865576 0.078541979 0.3456839
0.055175375 0.078546301 0.3456926
0.055451758 0.078503273 0.34549284
0.055715665 0.078443155 0.34521779
0.056035317 0.078461736 0.34528914
0.056315895 0.078425713 0.34512013
0.056614231 0.078414664 0.34506094
0.056919079 0.078412719 0.34504178
0.057223134 0.078409702 0.34501785
0.057502076 0.078372471 0.34484342
0.057774562 0.078326911 0.34463221
0.058074988 0.078319497 0.34458882
0.058364447 0.078297451 0.34448102
0.058669548 0.078296497 0.344466
0.058966469 0.078284696 0.34440321
0.05924822 0.078252994 0.34425277
0.059554879 0.078254335 0.3442477
0.059881497 0.078281753 0.34435734
0.0044322615 0.082135253 0.36110339
0.0047516413 0.082133435 0.36109406
0.0050705131 0.082123607 0.36104944
0.0053889407 0.08210817 0.36098009
0.0057083969 0.08210925 0.36098334
0.0060231714 0.082046442 0.36070558
0.0063404012 0.082021706 0.36059523
0.0066595259 0.082022682 0.36059779
0.006978028 0.082016245 0.36056769
0.0072943848 0.081986241 0.360434
0.0076083308 0.081932805 0.36019716
0.0079242252 0.081903785 0.36006761
0.0082446672 0.081922203 0.36014655
0.0085561723 0.081853747 0.35984349
0.0088771563 0.081877619 0.35994631
0.0091900546 0.081827842 0.3597253
0.0095079979 0.081824817 0.35970968
0.0098234462 0.081801198 0.35960358
0.010139058 0.081780396 0.35950971
0.010457772 0.081785113 0.35952798
0.010770311 0.081742659 0.35933888
0.011087739 0.081738703 0.35931891
0.011399518 0.081694476 0.35912183
0.011719879 0.081712462 0.35919824
0.012027818 0.081645206 0.3588998
0.012340392 0.081612028 0.35875118
0.012652555 0.08157789 0.3585982
0.012969582 0.081576005 0.358587
0.013279024 0.081527628 0.35837135
0.013591974 0.081502557 0.3582581
0.013908193 0.081497774 0.35823396
0.014224084 0.081491306 0.3582024
0.01454304 0.081502318 0.35824752
0.014851102 0.0814531 0.35802791
0.015175127 0.081491672 0.35819405
0.0154775 0.081414759 0.35785258
0.015792951 0.081408329 0.35782087
0.016100824 0.081363879 0.35762191
0.016412757 0.081341244 0.35751885
0.016728867 0.081339784 0.35750875
0.017036965 0.081300132 0.3573308
0.017352741 0.081297912 0.35731724
0.01766439 0.081276767 0.35722047
0.017974278 0.081248395 0.35709193
0.018282782 0.081214875 0.35694063
0.018600054 0.081220768 0.35696253
0.018918307 0.081230685 0.35700202
0.019235743 0.081236809 0.35702479
0.019556891 0.081258163 0.35711443
0.019874131 0.081262864 0.35713086
0.020195303 0.081283234 0.35721606
0.02051677 0.08130414 0.35730356
0.020835767 0.08131478 0.35734588
0.043718379 0.07977841 0.35010582
0.044010848 0.079745986 0.34995496
0.044304274 0.079715744 0.34981361
0.044564575 0.079626724 0.34941432
0.044835921 0.079558544 0.34910637
0.045131106 0.079533294 0.34898683
0.045398276 0.079459354 0.34865358
0.045689337 0.079427958 0.34850699
0.046000928 0.07943242 0.34851766
0.046292644 0.079402745 0.34837851
0.046593823 0.07938958 0.34831172
0.046894759 0.079376176 0.34824389
0.047205102 0.079378761 0.34824616
0.047481243 0.079324171 0.34799752
0.047773845 0.079297625 0.34787187
0.048100926 0.079328269 0.34799707
0.048386317 0.079290211 0.34782082
0.048668906 0.079248063 0.34762663
0.048975606 0.07924547 0.34760582
0.0492718 0.079226002 0.34751105
0.04956929 0.079208843 0.34742633
0.049875934 0.079206452 0.3474063
0.050156906 0.079163566 0.34720862
0.050451089 0.079141922 0.3471041
0.050739303 0.079111226 0.34695983
0.051028464 0.079082392 0.34682363
0.051331624 0.079075448 0.34678346
0.051639944 0.079076491 0.34677821
0.051943436 0.079070173 0.34674069
0.052218445 0.079020828 0.3465144
0.052503247 0.078986786 0.34635523
0.05280374 0.078976616 0.34630066
0.05307994 0.078930438 0.34608817
0.053390671 0.078935839 0.34610179
0.053695388 0.078932345 0.34607637
0.054003526 0.07893388 0.34607294
0.054273181 0.078879476 0.34582421
0.054588668 0.078891903 0.3458685
0.054885086 0.078876801 0.345792
0.055181526 0.0788619 0.34571633
0.055450696 0.078808405 0.34547144
0.055746019 0.07879246 0.34539115
0.056024056 0.078752391 0.34520504
0.056336105 0.078760318 0.34522927
0.056632187 0.078745931 0.34515575
0.056938436 0.078745782 0.34514448
0.057231378 0.07872732 0.34505293
0.057535511 0.078724362 0.34502932
0.05783204 0.0787111 0.34496045
0.058093749 0.078650825 0.34468555
0.058408655 0.078662828 0.3447274
0.058678117 0.078613825 0.34450176
0.059004851 0.078641646 0.34461287
0.059305582 0.078634724 0.34457159
0.059609089 0.07863152 0.34454659
0.05992448 0.078643963 0.34459007
0.0044330107 0.082467005 0.36114001
0.0047538946 0.082490474 0.36124143
0.0050729904 0.082481906 0.36120248
0.0053917365 0.082468987 0.36114448
0.0057095005 0.082443334 0.36103061
0.0060260091 0.082403228 0.36085337
0.0063445386 0.0823934 0.36080867
0.006661192 0.082361303 0.36066642
0.0069821593 0.082383044 0.36075985
0.0072972719 0.082336821 0.36055559
0.0076133679 0.082305089 0.36041477
0.0079310015 0.082291864 0.3603549
0.008249227 0.082285553 0.36032522
0.0085657127 0.082263015 0.36022446
0.0088796904 0.082218863 0.36002895
0.0091998316 0.082232855 0.36008805
0.0095108924 0.082167476 0.35979944
0.0098266816 0.082145818 0.35970229
0.01014384 0.082136638 0.3596597
0.010459646 0.082117371 0.35957292
0.010774677 0.082093351 0.35946521
0.011090371 0.082075611 0.35938495
0.011406434 0.082061507 0.35932058
0.0117165 0.082006194 0.3590757
0.012039717 0.082043409 0.35923591
0.012347616 0.08197701 0.35894236
0.012664526 0.081972271 0.35891873
0.012977784 0.081944704 0.35879508
0.013284942 0.081880845 0.35851249
0.013599026 0.08186166 0.35842541
0.013915664 0.081858359 0.35840786
0.014229128 0.081836969 0.358311
0.014543721 0.081822835 0.35824594
0.014859154 0.081813946 0.35820371
0.015168468 0.081772447 0.35801864
0.015481791 0.081753798 0.35793358
0.015795268 0.081736691 0.35785526
0.016108718 0.081720129 0.35777918
0.016419346 0.081690155 0.35764435
0.01673503 0.081686005 0.35762253
0.017044792 0.081653625 0.35747704
0.017365413 0.081673495 0.35756028
0.017668478 0.081611566 0.35728532
0.017982213 0.081600226 0.3572318
0.018294143 0.08158122 0.35714465
0.018607493 0.081569105 0.35708761
0.018920749 0.081556976 0.35703042
0.019236505 0.081555851 0.35702136
0.019555885 0.081569865 0.35707852
0.019876001 0.08158645 0.35714689
0.020197129 0.081606612 0.35723084
0.020515075 0.081613496 0.35725659
0.020835225 0.081628792 0.35731912
0.021156721 0.081648834 0.35740235
0.021476602 0.081662141 0.35745606
0.04343408 0.080136865 0.3503089
0.043746874 0.080140986 0.35031837
0.044029556 0.080090269 0.35008815
0.044304587 0.080026433 0.34980047
0.044568021 0.079942681 0.34942573
0.044842701 0.079880133 0.34914362
0.045133274 0.079846546 0.34898806
0.045421835 0.079809882 0.34881902
0.045711122 0.079774976 0.34865767
0.046019021 0.079772815 0.34863928
0.046324458 0.079766445 0.34860247
0.046615113 0.079734854 0.34845549
0.046913434 0.079716712 0.34836715
0.047208801 0.079693832 0.34825805
0.047508627 0.079678729 0.34818292
0.047803253 0.079655133 0.34807065
0.048099935 0.079635262 0.34797457
0.048398711 0.07961908 0.34789458
0.048679795 0.07957419 0.34768912
0.048981503 0.079563357 0.34763241
0.049303804 0.079585902 0.34772152
0.049585693 0.079543337 0.3475261
0.04989728 0.079548649 0.34753978
0.050165508 0.0794852 0.34725302
0.050471358 0.079481758 0.34722841
0.050775811 0.07947617 0.34719434
0.051082466 0.079474092 0.34717554
0.051356446 0.07942149 0.34693605
0.051665239 0.079423033 0.34693301
0.05195174 0.079390511 0.3467811
0.052261207 0.079393245 0.34678313
0.052557055 0.079375371 0.34669518
0.052811883 0.07929612 0.34633905
0.05311415 0.079288602 0.34629622
0.053417727 0.079283126 0.34626225
0.053698726 0.079244383 0.34608296
0.054008473 0.07924825 0.34608972
0.054311719 0.079242609 0.34605488
0.054603308 0.079220109 0.3459464
0.054892235 0.079194024 0.34582222
0.055194322 0.079187103 0.34578168
0.055504639 0.079192013 0.34579271
0.055795927 0.079169847 0.34568557
0.056060046 0.079109602 0.34541208
0.05636888 0.079112753 0.34541538
0.056645736 0.079071254 0.34522361
0.05695558 0.079075977 0.34523368
0.057258647 0.079071298 0.34520262
0.057551015 0.079051971 0.34510761
0.057841923 0.079030864 0.34500477
0.058146734 0.07902886 0.34498528
0.058410641 0.078971587 0.34472448
0.058728438 0.078987382 0.34478262
0.059022259 0.078970939 0.34469998
0.059329771 0.078972884 0.34469756
0.060252693 0.078979112 0.34469178
0.0047558108 0.082841925 0.36136314
0.0050734109 0.082806915 0.36120901
0.0053940555 0.082822792 0.36127681
0.0057128989 0.082810782 0.36122289
0.0060299947 0.082776055 0.3610698
0.0063486388 0.082764998 0.36101994
0.0066648363 0.082724631 0.36084214
0.006983737 0.082719952 0.36081997
0.0073007043 0.082693808 0.36070406
0.0076176901 0.082670026 0.36059844
0.0079368027 0.082670309 0.36059773
0.0082493611 0.082604945 0.36031058
0.0085691046 0.082613707 0.36034673
0.0088834083 0.082571283 0.36015952
0.009199501 0.082547836 0.36005506
0.0095157363 0.082527198 0.35996276
0.0098327631 0.082514524 0.35990518
0.01015276 0.082526796 0.35995629
0.010462524 0.082457669 0.35965237
0.010779519 0.082447931 0.35960737
0.011094533 0.082424022 0.35950053
0.01141308 0.082426965 0.35951072
0.011726291 0.082392246 0.35935661
0.012043952 0.082389817 0.35934323
0.012356171 0.082351223 0.35917211
0.0126724 0.08234062 0.35912302
0.012986992 0.082320169 0.35903084
0.013296562 0.082269602 0.35880736
0.013609753 0.082243286 0.35868952
0.013927104 0.082242727 0.35868397
0.014240414 0.082218863 0.35857671
0.0145521 0.08218687 0.35843393
0.014869713 0.082188994 0.35843992
0.015177938 0.08214023 0.35822389
0.015486571 0.082095608 0.35802588
0.01580655 0.082111716 0.35809267
0.016115189 0.082069449 0.35790479
0.01642208 0.082020067 0.35768586
0.016745962 0.082055815 0.35783809
0.01705238 0.082006238 0.35761818
0.017368332 0.082003504 0.35760248
0.017678 0.081971698 0.35745996
0.017992608 0.081963539 0.3574205
0.018299334 0.081920356 0.35722825
0.018614279 0.08191482 0.35720009
0.018929206 0.081909373 0.35717228
0.019243559 0.08190167 0.35713458
0.019558204 0.081895441 0.3571032
0.019877231 0.081907466 0.35715139
0.020195432 0.081915759 0.35718325
0.020513775 0.081924357 0.35721639
0.020832909 0.081935801 0.35726187
0.02115305 0.081950814 0.35732284
0.021475665 0.081974834 0.35742301
0.043146856 0.080490932 0.35049111
0.043443099 0.080464132 0.35036597
0.043724842 0.080411039 0.3501263
0.044010065 0.080365054 0.34991747
0.044282518 0.080296546 0.3496106
0.044567678 0.080251873 0.34940743
0.044862162 0.080224499 0.34927958
0.045155823 0.080196023 0.34914684
0.045449585 0.080168121 0.34901661
0.045737613 0.080130555 0.3488442
0.046032291 0.080105066 0.34872434
0.046319857 0.080067612 0.34855238
0.046642199 0.080090381 0.34864253
0.046938892 0.080069087 0.34854078
0.047243923 0.080062211 0.34850177
0.047515932 0.079999819 0.34822106
0.047830548 0.08000949 0.348254
0.048111178 0.079962581 0.34804055
0.048420873 0.07996425 0.34803858
0.048719212 0.079947256 0.34795532
0.049024522 0.079941846 0.34792241
0.049327344 0.079932489 0.34787226
0.049611975 0.079893939 0.34769505
0.049905624 0.079870306 0.3475827
0.050191049 0.079833873 0.34741458
0.05049184 0.079822175 0.34735408
0.050805774 0.079831287 0.3473841
0.051082093 0.079781517 0.34715784
0.051361859 0.079737708 0.34695747
0.051670682 0.079739258 0.34695446
0.051990695 0.079757959 0.34702599
0.052274536 0.079721272 0.34685653
0.052574635 0.079709657 0.3467961
0.052862789 0.079680182 0.3466579
0.053151831 0.079652376 0.34652692
0.053430799 0.079609878 0.34633198
0.053746369 0.079622082 0.34637499
0.054043714 0.079607308 0.3463006
0.054326382 0.07957121 0.34613338
0.054627161 0.079561897 0.34608263
0.054937385 0.079566352 0.34609178
0.055222578 0.079534717 0.34594384
0.055517942 0.07951799 0.34586075
0.055838317 0.079537079 0.34593338
0.05610827 0.079484522 0.34569436
0.056393344 0.079453856 0.34555051
0.056682467 0.079429187 0.34543267
0.056963518 0.079393528 0.34526709
0.057294309 0.079427205 0.34540293
0.057575256 0.0793918 0.3452383
0.057874054 0.07938125 0.34518173
0.058174837 0.079373524 0.34513739
0.058475923 0.079366274 0.34509513
0.05875349 0.07932736 0.34491509
0.059043225 0.079305187 0.34480783
0.05936132 0.079321139 0.34486628
0.05966137 0.079312928 0.34481966
0.0047577741 0.083194427 0.36148825
0.0050757565 0.083163507 0.3613525
0.0053966492 0.083181098 0.36142749
0.005715753 0.083170682 0.3613807
0.0060327621 0.083132498 0.36121321
0.0063511967 0.083116807 0.36114338
0.0066703581 0.083111681 0.36111936
0.0069877617 0.083086103 0.36100647
0.0073077125 0.083091728 0.36102909
0.0076231719 0.083047941 0.36083695
0.00794206 0.083043531 0.36081582
0.0082515897 0.082945392 0.36038736
0.0085715465 0.08295545 0.36042899
0.0088866241 0.08291927 0.36026967
0.009206404 0.082927942 0.3603051
0.0095220292 0.082899854 0.36018085
0.0098380158 0.08287663 0.36007762
0.010156776 0.082877494 0.36007899
0.010472683 0.082855739 0.35998198
0.010785259 0.082809679 0.35977939
0.011098169 0.082768746 0.35959896
0.011413978 0.08275111 0.35951975
0.011733024 0.082757272 0.3595438
0.012048477 0.082738429 0.35945916
0.012362555 0.082711332 0.35933867
0.012675379 0.082677446 0.35918856
0.012998198 0.082708791 0.35932183
0.013308006 0.082657836 0.35909745
0.013615376 0.082594462 0.35881907
0.013929229 0.082572393 0.35872009
0.014247417 0.082576439 0.35873452
0.014557107 0.082532138 0.35853878
0.014875146 0.082536034 0.35855246
0.015179599 0.082465954 0.35824469
0.015500663 0.082487151 0.35833335
0.015812835 0.082461119 0.35821679
0.016124779 0.082434952 0.35809958
0.016436029 0.082406305 0.35797155
0.016748274 0.082383625 0.35786942
0.017061178 0.082364984 0.35778469
0.017379072 0.082370669 0.35780561
0.017689001 0.082339056 0.3576645
0.017999617 0.082311705 0.35754177
0.018311739 0.082292072 0.35745257
0.018626763 0.082285911 0.35742182
0.018938983 0.082267784 0.35733899
0.019247085 0.082232662 0.35718232
0.019564025 0.082235821 0.35719183
0.019879781 0.082233965 0.35717952
0.020196198 0.082234874 0.35717916
0.020515068 0.082245573 0.35722131
0.020831531 0.082246445 0.35722071
0.021150928 0.082258709 0.35726947
0.021472905 0.082280487 0.35735953
0.021794619 0.082300641 0.35744247
0.022115622 0.082317583 0.35751134
0.043135267 0.080779955 0.35038123
0.043444972 0.080778226 0.35036534
0.043713219 0.080699988 0.35001749
0.044020206 0.080693871 0.34998238
0.044296961 0.080632806 0.34970894
0.044586822 0.080596283 0.3495419
0.044852573 0.080516979 0.34918928
0.045159016 0.080511302 0.34915593
0.045457643 0.080491878 0.34906289
0.045770027 0.0804969 0.34907585
0.046070442 0.080480956 0.34899783
0.046365585 0.080456063 0.34888095
0.046663515 0.080436312 0.34878635
0.046972692 0.080436073 0.34877628
0.047269553 0.080414884 0.34867534
0.047558751 0.080381021 0.34851938
0.047830783 0.080318771 0.34824032
0.048136756 0.080313951 0.34821022
0.04844882 0.080319278 0.34822404
0.048725039 0.0802655 0.3479816
0.049035981 0.080269232 0.3479884
0.049330272 0.080245845 0.34787759
0.0496342 0.080238312 0.34783551
0.049928628 0.080215603 0.3477276
0.050221305 0.08019039 0.34760877
0.050511967 0.080162294 0.34747735
0.050814506 0.080153249 0.34742856
0.05107725 0.08008194 0.34710976
0.051388554 0.080087148 0.34712264
0.051691029 0.080078632 0.34707597
0.052016493 0.08010561 0.34718308
0.052300811 0.080069274 0.34701574
0.052610468 0.080071934 0.34701738
0.052928757 0.080087632 0.3470754
0.053161677 0.079974703 0.34657604
0.053472299 0.0799793 0.34658593
0.053746574 0.079929791 0.34636134
0.054060306 0.079939201 0.34639198
0.05435485 0.079920277 0.3462998
0.054646786 0.079897754 0.34619197
0.054963637 0.079911716 0.34624222
0.055261474 0.079898015 0.34617257
0.055554796 0.07987798 0.34607545
0.055840213 0.079846874 0.34593028
0.056138225 0.079833999 0.34586409
0.056438334 0.079824239 0.34581134
0.05671528 0.079781994 0.34561783
0.057022024 0.079781905 0.34560686
0.057278294 0.079711579 0.34529161
0.057581667 0.07970719 0.34526199
0.057886269 0.079704553 0.34523988
0.058206391 0.079723179 0.34530985
0.058483947 0.079683632 0.34512782
0.058780283 0.079669945 0.3450577
0.059077583 0.079657696 0.34499383
0.059401676 0.079681516 0.3450861
0.0050775483 0.083511263 0.36145648
0.0053990846 0.083537228 0.36156741
0.0057181292 0.083523884 0.36150816
0.0060369703 0.083509147 0.36144274
0.0063564079 0.083503723 0.36141762
0.0066744452 0.083481289 0.36131883
0.0069920779 0.083456077 0.3612079
0.0073084719 0.083418936 0.36104536
0.0076267323 0.083405294 0.36098441
0.0079463711 0.083407216 0.36099079
0.0082594641 0.083342955 0.36071059
0.0085760681 0.083317555 0.36059862
0.0088950861 0.083316609 0.36059237
0.0092126662 0.083302714 0.36053002
0.0095266169 0.083258025 0.36033434
0.009842488 0.083232477 0.36022145
0.010158999 0.083213754 0.36013803
0.010476815 0.083206534 0.36010435
0.01079017 0.083165362 0.35992363
0.011102447 0.083118483 0.3597182
0.011421162 0.083121046 0.3597267
0.011737227 0.08310473 0.35965338
0.01204914 0.083060637 0.35945982
0.012369748 0.083077207 0.35952872
0.012680618 0.083029188 0.35931802
0.012998625 0.083029099 0.35931471
0.013313443 0.083009131 0.3592253
0.013626901 0.08298181 0.35910404
0.013943507 0.082974471 0.35906914
0.014254447 0.082934476 0.35889292
0.014565906 0.08289919 0.35873699
0.014881819 0.082890205 0.35869482
0.01519502 0.08286681 0.35859025
0.015507968 0.082843028 0.35848388
0.015825652 0.082844965 0.35848883
0.016137453 0.08281666 0.35836279
0.016453546 0.082811028 0.35833484
0.016760742 0.082761683 0.35811767
0.017067578 0.082712419 0.35790083
0.017388236 0.082730703 0.3579762
0.017697619 0.082695663 0.35782075
0.018014178 0.082694791 0.35781309
0.01832689 0.082676597 0.35773039
0.018632367 0.082626931 0.35751149
0.018945863 0.082613893 0.35745102
0.01925648 0.082588911 0.35733885
0.019566339 0.08256156 0.3572163
0.019881045 0.082555205 0.35718456
0.020199319 0.082563631 0.35721672
0.020514969 0.082561225 0.35720196
0.020834349 0.082573675 0.35725141
0.021149576 0.08256954 0.35722905
0.02146798 0.08257775 0.35726005
0.021787349 0.082589373 0.35730574
0.022107635 0.082604095 0.35736477
0.022431653 0.082632139 0.35748139
0.022753509 0.082651556 0.3575606
0.04231175 0.081298813 0.3512902
0.04261364 0.081280626 0.35120332
0.042889632 0.081213661 0.3509056
0.043166719 0.081149705 0.35062087
0.043475643 0.081146099 0.35059685
0.043748483 0.081075668 0.35028407
0.044010103 0.080985583 0.3498863
0.044314299 0.080974564 0.34983012
0.044586334 0.080905326 0.34952238
0.044874366 0.080865882 0.3493433
0.045182656 0.080863222 0.34932306
0.045475364 0.080832906 0.34918335
0.045783117 0.080829568 0.3491601
0.046075821 0.08079987 0.34902295
0.046394661 0.080816098 0.34908414
0.046676319 0.080767795 0.34886649
0.046983328 0.080763675 0.3488397
0.047279954 0.080741882 0.34873652
0.047580604 0.080727212 0.34866405
0.047896203 0.080737934 0.34870115
0.048186377 0.080705926 0.34855372
0.048434861 0.080604933 0.34810832
0.048750065 0.080615558 0.34814489
0.049053688 0.080607027 0.3480987
0.049346186 0.080580436 0.34797448
0.049657628 0.080584899 0.34798431
0.049965069 0.080582872 0.3479661
0.050253872 0.080550984 0.34781888
0.050560411 0.080547743 0.34779528
0.050840579 0.080502801 0.34759158
0.051117793 0.080453731 0.34737006
0.051388685 0.080395348 0.3471083
0.051699925 0.080400422 0.34712046
0.052017756 0.080415629 0.34717631
0.052349608 0.080452204 0.34732434
0.054069538 0.080260329 0.34643605
0.054374799 0.08025708 0.34641185
0.054681357 0.080255777 0.34639603
0.054964714 0.080220617 0.34623405
0.055291429 0.080248766 0.34634525
0.055583805 0.080227062 0.34624121
0.055872895 0.080200866 0.34611779
0.056163426 0.080177009 0.34600443
0.056466177 0.080170773 0.34596708
0.056757886 0.080149002 0.3458626
0.057057314 0.080138311 0.34580594
0.057335105 0.080097511 0.34561929
0.057615411 0.080060631 0.34544954
0.057915378 0.080051333 0.34539872
0.058212031 0.080037549 0.34532857
0.058508944 0.080024295 0.34526059
0.058797427 0.079999685 0.34514365
0.059107948 0.080005161 0.34515646
0.0594078 0.079996221 0.34510699
0.059710298 0.079990923 0.34507322
0.0054008132 0.08388266 0.36165997
0.0057207816 0.083881401 0.36165303
0.0060400129 0.083870038 0.36160246
0.006358834 0.083854407 0.3615334
0.0066778306 0.083842479 0.36148024
0.0069939103 0.08379668 0.36128101
0.0073127667 0.083786689 0.36123613
0.0076274509 0.083731741 0.36099732
0.0079479739 0.083742723 0.36104271
0.0082631502 0.08369869 0.36085087
0.0085821403 0.083695121 0.36083341
0.0088990908 0.083672635 0.36073431
0.0092164688 0.083655588 0.36065859
0.0095335208 0.083636813 0.36057538
0.0098474305 0.083592564 0.36038232
0.010162932 0.083564185 0.3602576
0.010478757 0.083540127 0.36015141
0.010796445 0.083531894 0.36011341
0.011111273 0.083502628 0.35998467
0.011430282 0.083505534 0.35999456
0.011745768 0.083483234 0.35989577
0.01205858 0.083443619 0.35972223
0.012372638 0.083414428 0.3595936
0.012685658 0.08337988 0.35944182
0.013006578 0.083397672 0.35951561
0.013317393 0.083351381 0.35931301
0.013634488 0.083345629 0.35928515
0.013948125 0.083319463 0.3591693
0.014262862 0.083300911 0.35908613
0.014575532 0.083271347 0.35895544
0.014889461 0.083250068 0.35886046
0.015205296 0.083240129 0.35881427
0.015516186 0.083204068 0.35865542
0.01583381 0.083204843 0.35865527
0.016149709 0.083196692 0.35861665
0.01645785 0.083149657 0.3584103
0.016774992 0.083149023 0.35840392
0.01708344 0.083106115 0.35821527
0.017391743 0.083064079 0.35803035
0.017707348 0.083057791 0.35799938
0.01802304 0.083052121 0.3579711
0.018338114 0.083043851 0.35793149
0.018649217 0.083018199 0.3578169
0.018954733 0.08296892 0.35760045
0.019269016 0.082959011 0.35755366
0.019585991 0.082960829 0.35755733
0.019884435 0.082885347 0.35722774
0.020200409 0.08288414 0.35721827
0.020515686 0.082880154 0.35719675
0.020834364 0.08288984 0.35723403
0.02115079 0.082890391 0.35723194
0.021467207 0.082890891 0.35722959
0.021785375 0.082898043 0.35725582
0.022104403 0.082908206 0.35729495
0.022426635 0.082929939 0.35738391
0.022746235 0.082941458 0.35742879
0.023072725 0.082977444 0.35757908
0.042035125 0.081677862 0.35157362
0.042319387 0.08162497 0.35133767
0.042615194 0.081594951 0.35120016
0.042887062 0.081519864 0.35086867
0.043173894 0.081474096 0.3506633
0.043452583 0.081413738 0.35039505
0.043746341 0.08138226 0.35025111
0.044016257 0.08130718 0.34991947
0.044320937 0.081296928 0.34986675
0.044626255 0.081287973 0.34981957
0.044905808 0.081232525 0.34957233
0.045205019 0.081213169 0.34948027
0.045506552 0.081198208 0.34940717
0.045812543 0.081191353 0.34936884
0.0460959 0.08114475 0.34915942
0.046416145 0.081163265 0.34923017
0.046708643 0.081133336 0.34909245
0.046999488 0.081100963 0.34894413
0.047297236 0.081080832 0.34884849
0.047600742 0.081070773 0.34879607
0.047901526 0.081056237 0.3487244
0.048203524 0.081043914 0.3486622
0.04850876 0.081037171 0.34862393
0.048816681 0.081034973 0.34860519
0.049116854 0.081020012 0.34853145
0.049400419 0.080978014 0.34834144
0.054397546 0.080598257 0.3465417
0.054684289 0.080567561 0.34639955
0.054991148 0.080566682 0.34638554
0.055294368 0.080560498 0.34634867
0.055594426 0.080549814 0.34629238
0.055879928 0.080518268 0.34614643
0.056194045 0.080528066 0.34617814
0.056489021 0.080510482 0.3460921
0.056759402 0.080458231 0.34585696
0.057085678 0.080485336 0.34596297
0.057351768 0.080427758 0.34570488
0.057622392 0.080377109 0.34547657
0.057946045 0.080400571 0.34556678
0.058231793 0.080371477 0.34543103
0.058535688 0.080367595 0.34540358
0.058837101 0.080360375 0.3453618
0.059130859 0.080342822 0.34527552
0.059450116 0.080359906 0.34533811
0.0057222475 0.084221736 0.3617228
0.0060418639 0.084214628 0.36169073
0.0063602398 0.084191829 0.36159113
0.0066799968 0.084188603 0.3615756
0.0069990698 0.084177434 0.36152583
0.0073192432 0.084179901 0.3615346
0.0076350202 0.084133714 0.36133435
0.0079499595 0.084082372 0.36111188
0.0082686879 0.084073529 0.36107188
0.0085864384 0.084055766 0.3609935
0.0089053195 0.084049925 0.3609663
0.0092211301 0.084016539 0.36082071
0.0095360866 0.083977841 0.36065227
0.0098512378 0.083943315 0.36050165
0.010166774 0.083914131 0.36037394
0.010484369 0.083903193 0.36032453
0.010798569 0.083866522 0.36016455
0.011117444 0.083867222 0.360165
0.011434625 0.083855458 0.36011189
0.011751141 0.083839603 0.36004105
0.012064923 0.083805569 0.35989216
0.012383602 0.083806433 0.35989305
0.012693577 0.083749823 0.35964713
0.013011687 0.083748348 0.35963783
0.013325932 0.083722644 0.35952449
0.013633611 0.083657853 0.35924318
0.013950909 0.083653696 0.35922223
0.014270593 0.083663702 0.35926205
0.014581016 0.083620161 0.35907188
0.014895352 0.083600432 0.35898384
0.015213102 0.083600298 0.35897994
0.015520566 0.083544791 0.35873818
0.015837932 0.083543755 0.35873026
0.016150745 0.083519198 0.3586213
0.016464613 0.083500937 0.35853934
0.016774753 0.083464824 0.35838059
0.017087746 0.083443977 0.35828739
0.01740412 0.083440088 0.35826695
0.017712517 0.083398789 0.35808578
0.018029852 0.083400287 0.35808831
0.018344499 0.083389506 0.35803813
0.018655537 0.083362959 0.35792014
0.018967988 0.083343506 0.35783258
0.019279085 0.083318844 0.35772258
0.019583587 0.083266936 0.35749555
0.019894402 0.083243094 0.35738894
0.020203272 0.083211996 0.35725114
0.020520445 0.083215505 0.35726187
0.020836977 0.083216362 0.35726115
0.021151789 0.083210416 0.35723114
0.021468902 0.083213568 0.35724014
0.021786394 0.083218075 0.35725492
0.02210355 0.083221182 0.35726362
0.022423858 0.083235905 0.3573221
0.022744244 0.083250493 0.35737997
0.023062738 0.083257869 0.3574068
0.023383161 0.083271891 0.35746214
0.023703264 0.083284423 0.35751098
0.04143839 0.082042262 0.35179999
0.041749526 0.082040794 0.35178554
0.042035785 0.081990831 0.3515631
0.042333569 0.081963904 0.35143942
0.04261658 0.081908979 0.35119563
0.042898767 0.081853278 0.35094848
0.043180909 0.081798285 0.35070434
0.043466147 0.081749931 0.35048854
0.043750755 0.081701063 0.3502706
0.044036075 0.081654206 0.35006118
0.044340987 0.081644081 0.3500092
0.044648785 0.081639364 0.34998041
0.044924505 0.081576467 0.34970209
0.045221023 0.081551947 0.34958827
0.045520954 0.081533872 0.34950203
0.045830663 0.081533425 0.3494913
0.046123084 0.081502445 0.34934965
0.046427976 0.08149375 0.34930348
0.046732146 0.081483938 0.34925246
0.047022499 0.081450313 0.34909934
0.047321536 0.081432067 0.34901208
0.047619116 0.081411563 0.3489151
0.047933403 0.081419714 0.34894088
0.048219211 0.081379682 0.34876016
0.048527531 0.081377916 0.34874335
0.048828647 0.08136417 0.34867513
0.049149763 0.081383698 0.34874952
0.049473304 0.081406996 0.34883994
0.054741014 0.08095894 0.34674376
0.055016644 0.080911666 0.34653106
0.055324718 0.080912352 0.34652373
0.05562713 0.080904789 0.34648108
0.055904333 0.080860861 0.34628257
0.056224145 0.080878697 0.34634858
0.056518123 0.080859393 0.34625542
0.056784704 0.080801308 0.3459962
0.057097115 0.080808699 0.34601736
0.057411462 0.080818743 0.34604979
0.057696246 0.080787286 0.34590447
0.057983659 0.080759823 0.34577626
0.058274902 0.080737948 0.34567189
0.058564968 0.08071468 0.34556159
0.058882438 0.080729239 0.34561309
0.059191938 0.08073277 0.34561741
0.059470106 0.080693744 0.34543949
0.0057238317 0.084563948 0.36179996
0.006043266 0.084553115 0.361752
0.0063634817 0.084553756 0.36175311
0.0066830991 0.084546752 0.36172146
0.0070017935 0.084529243 0.36164477
0.0073194797 0.084501632 0.36152482
0.0076390831 0.084497526 0.36150533
0.0079545258 0.084449574 0.36129826
0.0082742544 0.084449075 0.36129409
0.0085890973 0.084400587 0.36108458
0.0089096902 0.084410056 0.36112297
0.0092212874 0.084336601 0.36080649
0.0095390761 0.08432278 0.36074507
0.0098576583 0.084316641 0.36071652
0.01017339 0.084287256 0.36058843
0.01048783 0.084249303 0.36042362
0.01080732 0.084252954 0.36043674
0.011122299 0.08422222 0.36030272
0.011437313 0.084193461 0.36017704
0.011750363 0.084152192 0.35999781
0.012072142 0.084173962 0.3600882
0.012391325 0.084176973 0.36009827
0.012703165 0.084131204 0.35989961
