# .PCD v0.7 - Point Cloud Data file format
VERSION 0.7
FIELDS x y z
SIZE 4 4 4
TYPE F F F
COUNT 1 1 1
WIDTH 1340
HEIGHT 1
VIEWPOINT 0 0 0 1 0 0 0
POINTS 1340
DATA ascii
-0.015115102 0.078878388 0.44894505
-0.014711425 0.078838661 0.44872147
-0.014318207 0.078854337 0.44881314
-0.013910539 0.078789078 0.44844404
-0.013514593 0.078788318 0.44844198
-0.013117832 0.078782625 0.44841179
-0.012717636 0.078755312 0.44825846
-0.012319195 0.078737468 0.44815892
-0.011921271 0.078721836 0.44807196
-0.011522014 0.078696057 0.44792706
-0.011122559 0.078667045 0.44776374
-0.010720337 0.078615598 0.44747263
-0.010324225 0.07860674 0.44742382
-0.0099319359 0.07862746 0.44754326
-0.0095287953 0.078560419 0.44716313
-0.0091375932 0.078590274 0.44733447
-0.0087474296 0.078632168 0.44757426
-0.0083567686 0.07867334 0.44780982
-0.064912535 0.082121134 0.46414381
-0.064523935 0.082148917 0.46431294
-0.064099856 0.082131587 0.46422696
-0.06366466 0.082099721 0.46405882
-0.063249424 0.082093336 0.46403459
-0.06281805 0.082065791 0.46389058
-0.062389258 0.082041271 0.46376374
-0.061945599 0.081996739 0.46352369
-0.061537247 0.081998691 0.46354622
-0.061092399 0.081951693 0.46329203
-0.060671113 0.08193589 0.46321407
-0.060238872 0.081904985 0.46305066
-0.059819043 0.08189062 0.46298075
-0.059395246 0.081870608 0.46287879
-0.058965474 0.081842043 0.46272832
-0.058524486 0.081797376 0.46248683
-0.0580962 0.081769966 0.4623428
-0.057684042 0.081765026 0.46232578
-0.057236142 0.081709005 0.4620198
-0.056816895 0.081693374 0.46194214
-0.056406349 0.081690118 0.46193436
-0.05595677 0.081629865 0.46160421
-0.05553855 0.081614822 0.46152967
-0.055111405 0.081586331 0.46137896
-0.054693826 0.081571698 0.46130651
-0.05427184 0.081550218 0.46119529
-0.053840414 0.08151412 0.46100131
-0.053425118 0.081502087 0.4609434
-0.053009838 0.081489883 0.46088439
-0.052574717 0.081446759 0.46065044
-0.052154317 0.081425957 0.46054262
-0.051732253 0.081402197 0.46041805
-0.051314835 0.081385426 0.46033296
-0.050888311 0.081353843 0.46016392
-0.050472993 0.081339799 0.46009406
-0.050085902 0.081371404 0.4602823
-0.049680859 0.081374109 0.460307
-0.049277969 0.081380419 0.46035203
-0.048888095 0.081408508 0.46052018
-0.024429984 0.079932816 0.45257288
-0.023997225 0.079822309 0.45195162
-0.023589328 0.079792187 0.45178539
-0.023182906 0.079766087 0.45164189
-0.022772945 0.079726689 0.45142299
-0.022367626 0.079702429 0.45128971
-0.021967778 0.079697147 0.45126376
-0.021568816 0.079694949 0.45125526
-0.02116097 0.079659209 0.45105672
-0.020757718 0.07963974 0.45095026
-0.020347131 0.079590827 0.45067695
-0.019945154 0.079574302 0.45058697
-0.019542398 0.079553939 0.45047516
-0.019140817 0.079537615 0.45038614
-0.018737722 0.079514183 0.45025679
-0.018340265 0.079514168 0.45025998
-0.017936952 0.079488203 0.45011619
-0.017532209 0.079454601 0.44992897
-0.017126782 0.079416253 0.44971481
-0.01672495 0.079393148 0.44958699
-0.016325895 0.079382457 0.44952923
-0.015926726 0.07937064 0.44946516
-0.01552948 0.079368055 0.44945318
-0.015124866 0.079326689 0.44922155
-0.01471793 0.079270616 0.44890651
-0.014320733 0.079265334 0.44887906
-0.013919077 0.079234369 0.44870606
-0.013521388 0.07922484 0.44865435
-0.013122882 0.079209797 0.44857141
-0.01272492 0.079197228 0.44850233
-0.012323967 0.079164617 0.4483197
-0.011923752 0.079134762 0.44815257
-0.011528797 0.079138964 0.44817823
-0.01112453 0.079077274 0.44783062
-0.01073119 0.079091579 0.44791335
-0.010330836 0.079053305 0.44769824
-0.0099334028 0.07903523 0.44759744
-0.0095388684 0.079039678 0.44762412
-0.0091432454 0.079035118 0.44759962
-0.0087523805 0.079073124 0.44781616
-0.0083553065 0.079055995 0.44772038
-0.064537585 0.082577467 0.46439573
-0.064121768 0.082570814 0.46437031
-0.063700661 0.082557224 0.46430576
-0.063279703 0.082543656 0.4642413
-0.062832408 0.082495317 0.46398124
-0.062430605 0.082506478 0.46405569
-0.061976619 0.082448356 0.46374044
-0.061551448 0.082428053 0.4636378
-0.061138544 0.082424022 0.46362656
-0.060695399 0.082378894 0.46338412
-0.060264967 0.082350515 0.4632358
-0.059842125 0.082332194 0.463144
-0.059422795 0.0823185 0.46307811
-0.058991864 0.082288407 0.46291998
-0.058555458 0.08225023 0.46271619
-0.058119856 0.082212642 0.46251568
-0.057704665 0.082203604 0.46247572
-0.057273116 0.082170956 0.46230286
-0.056852803 0.082154088 0.46221867
-0.056423701 0.082124189 0.46206108
-0.056009747 0.08211606 0.46202585
-0.055546228 0.08203461 0.46157804
-0.05514551 0.082045369 0.46164906
-0.05472384 0.082024917 0.46154428
-0.054299597 0.082000263 0.46141577
-0.053876746 0.081977352 0.46129707
-0.053458888 0.081961744 0.46121934
-0.053013384 0.081903197 0.46089986
-0.052609269 0.081908174 0.4609378
-0.052191339 0.081891544 0.46085408
-0.051757071 0.08184883 0.46062353
-0.051329065 0.081815422 0.4604452
-0.050903935 0.081786096 0.46028981
-0.050491534 0.081776917 0.4602477
-0.050085008 0.081777185 0.46025866
-0.0496822 0.081783578 0.46030405
-0.049281932 0.081794292 0.46037367
-0.048887827 0.081815489 0.46050227
-0.048485532 0.081823237 0.46055499
-0.048094831 0.081850834 0.4607195
-0.024428155 0.080327004 0.45252439
-0.024006613 0.080253355 0.45211387
-0.023604501 0.080243275 0.45206141
-0.023198079 0.080217943 0.45192295
-0.022793664 0.08019878 0.45181915
-0.022377256 0.080136001 0.45146954
-0.02197196 0.080111459 0.45133525
-0.02157337 0.080110915 0.45133612
-0.021175431 0.080112807 0.45135063
-0.020769395 0.080083564 0.45118967
-0.02036055 0.080042139 0.45095989
-0.019954383 0.080009788 0.45078126
-0.019553328 0.079997048 0.45071295
-0.019148763 0.079969116 0.45055902
-0.018750923 0.079968683 0.45055991
-0.018349031 0.079950571 0.45046115
-0.017948601 0.079938181 0.45039451
-0.017539022 0.079883568 0.4500899
-0.017135929 0.079856634 0.44994119
-0.016725631 0.079794064 0.44959155
-0.016333148 0.079815499 0.4497152
-0.01593375 0.079803392 0.44964972
-0.015530385 0.079770274 0.44946581
-0.015131776 0.079760492 0.44941333
-0.014727161 0.079717673 0.44917461
-0.014328292 0.079704471 0.44910261
-0.013927227 0.079677947 0.44895554
-0.013529059 0.079666927 0.44889572
-0.013125923 0.079625107 0.44866228
-0.012733565 0.079648107 0.44879401
-0.012331185 0.079607897 0.44856945
-0.011929248 0.079567961 0.44834641
-0.011529874 0.07954298 0.44820747
-0.01113227 0.079528868 0.44812977
-0.010733793 0.079507247 0.44800964
-0.010337516 0.079500906 0.44797552
-0.0099386526 0.079473384 0.447822
-0.0095415497 0.079458244 0.44773814
-0.0091477549 0.079470538 0.44780877
-0.008754991 0.079493292 0.44793832
-0.06414526 0.083012372 0.46452498
-0.063737743 0.083016604 0.46456057
-0.063311003 0.082995698 0.46445546
-0.062862143 0.082945332 0.46418533
-0.06243597 0.082924441 0.4640801
-0.062015831 0.082911327 0.46401837
-0.061594587 0.08289656 0.46394724
-0.061134186 0.082828537 0.46357805
-0.060730454 0.082836904 0.46363622
-0.060300414 0.082809255 0.46349284
-0.059889309 0.082807414 0.46349373
-0.059457485 0.082776695 0.46333295
-0.058997963 0.08270672 0.46295238
-0.05859359 0.082713626 0.46300203
-0.058139525 0.082649991 0.46265677
-0.05772141 0.082636908 0.46259439
-0.057298712 0.082617052 0.46249399
-0.056884613 0.082609393 0.46246183
-0.056444481 0.082563527 0.46221572
-0.05603949 0.082568787 0.46225572
-0.0556111 0.082539387 0.46210164
-0.055173814 0.082496263 0.46187055
-0.054718073 0.082424693 0.46148017
-0.054330595 0.082455635 0.46166366
-0.053909231 0.08243525 0.46155968
-0.053485539 0.082410954 0.46143377
-0.053053614 0.082373515 0.46123415
-0.052618951 0.082331203 0.46100715
-0.052197374 0.082308866 0.46089196
-0.05176853 0.082274638 0.46071008
-0.051381078 0.082306162 0.46089631
-0.050953515 0.082273424 0.46072263
-0.050504215 0.082204796 0.46034783
-0.050093058 0.082197621 0.46031716
-0.049682677 0.082191631 0.46029297
-0.049285736 0.082207955 0.46039373
-0.048883613 0.082215846 0.4604471
-0.04848877 0.082236193 0.46057028
-0.048081748 0.082236074 0.46057871
-0.047699895 0.082279354 0.46083018
-0.02486176 0.080838032 0.45312652
-0.024433425 0.080744602 0.45260727
-0.024016352 0.080685906 0.45228267
-0.023605306 0.0806458 0.45206219
-0.023205986 0.080645077 0.4520624
-0.022797864 0.080613203 0.45188788
-0.022396773 0.080605507 0.45184878
-0.021991968 0.080583915 0.45173177
-0.021585986 0.080557145 0.45158559
-0.021179274 0.08052659 0.45141816
-0.020776095 0.080508552 0.45132083
-0.020375554 0.08050023 0.45127782
-0.0199733 0.080484696 0.45119435
-0.019560777 0.080426283 0.45087039
-0.019161368 0.080420502 0.4508414
-0.018752877 0.080375545 0.45059273
-0.018357623 0.080386616 0.45065805
-0.017949792 0.080341868 0.45041034
-0.017549939 0.080331631 0.45035604
-0.017151352 0.08032684 0.45033225
-0.016736507 0.080243878 0.44987008
-0.01633811 0.080237657 0.44983804
-0.015941503 0.080240145 0.44985473
-0.015538597 0.080210254 0.44968981
-0.015137669 0.080189265 0.44957477
-0.014737451 0.080171011 0.44947493
-0.014336314 0.080146618 0.44934067
-0.013932949 0.080108032 0.44912666
-0.013530538 0.080072828 0.44893157
-0.013135065 0.080077805 0.44896165
-0.012737175 0.080067895 0.44890824
-0.012337726 0.080047242 0.44879445
-0.011938158 0.080024421 0.44866848
-0.011537398 0.07999178 0.44848734
-0.01113656 0.079956248 0.44828993
-0.010740735 0.079955436 0.44828704
-0.010341824 0.079930693 0.44814998
-0.0099426955 0.079902261 0.44799209
-0.0095464205 0.079895347 0.4479548
-0.0091507649 0.079893254 0.44794443
-0.0087568089 0.079906493 0.44801992
-0.063765563 0.083464354 0.46474788
-0.063321047 0.083420157 0.4645136
-0.062913731 0.083424717 0.46455079
-0.062479179 0.083392985 0.46438575
-0.062026735 0.0833368 0.46408448
-0.061620384 0.083342187 0.46412605
-0.061206605 0.083337553 0.46411166
-0.060751095 0.083275653 0.46377832
-0.060337633 0.083270922 0.4637633
-0.059904918 0.083239406 0.463599
-0.059488151 0.083229743 0.46355638
-0.059030622 0.083162531 0.46319309
-0.05861526 0.083154194 0.46315771
-0.058179013 0.08311592 0.46295542
-0.057745229 0.083080642 0.46276978
-0.057324108 0.083063208 0.46268344
-0.05691478 0.083062738 0.46269149
-0.056488063 0.083036691 0.46255708
-0.05604028 0.082979083 0.46224669
-0.055630542 0.082977362 0.46224761
-0.055202663 0.082948379 0.46209651
-0.054781549 0.082929194 0.46199995
-0.05435583 0.0829027 0.46186262
-0.053957216 0.082917459 0.46195498
-0.053511634 0.082859717 0.46164337
-0.053073935 0.082813382 0.46139526
-0.052657031 0.082799032 0.46132526
-0.052230816 0.082769707 0.46117169
-0.051810257 0.082748964 0.46106586
-0.051383428 0.082717776 0.46090183
-0.050976049 0.082717672 0.46091086
-0.050544303 0.082677715 0.46069771
-0.050107926 0.082629457 0.46043828
-0.049695436 0.082620114 0.46039566
-0.049285747 0.082615331 0.46037829
-0.048885074 0.082625702 0.46044531
-0.048485603 0.082638308 0.46052468
-0.048085149 0.082649425 0.46059573
-0.047680669 0.082653746 0.4606289
-0.047289807 0.082681969 0.46079507
-0.046881396 0.082679726 0.46079147
-0.025279779 0.081296518 0.45342925
-0.024860384 0.081234276 0.45308667
-0.024438165 0.08116062 0.45268035
-0.024031427 0.081136778 0.45255181
-0.023629332 0.081128076 0.45250759
-0.023219692 0.081092745 0.45231473
-0.022811277 0.081060514 0.45213914
-0.022406701 0.081041016 0.45203447
-0.021992216 0.080984339 0.45172232
-0.021600941 0.081012614 0.45188394
-0.021189611 0.080965333 0.45162404
-0.020785693 0.080945089 0.4515149
-0.020379521 0.080915116 0.45135134
-0.019977886 0.080902316 0.45128354
-0.019573592 0.080878012 0.45115149
-0.019168485 0.080849275 0.45099461
-0.018763606 0.080820292 0.45083627
-0.018366629 0.080824852 0.45086494
-0.017967016 0.080817752 0.45082849
-0.017570587 0.080824956 0.45087183
-0.01716513 0.080790028 0.45067999
-0.016761547 0.080762468 0.45052922
-0.016351439 0.080701366 0.45019117
-0.015944462 0.080653071 0.44992453
-0.015552158 0.080678403 0.45006856
-0.015151829 0.08066237 0.44998169
-0.014743252 0.080600366 0.44963834
-0.014339915 0.080564395 0.44944006
-0.013940853 0.080551066 0.44936806
-0.013537776 0.080513075 0.44915846
-0.013143347 0.080525786 0.44923154
-0.012745569 0.080518126 0.44919094
-0.012343328 0.080480903 0.44898528
-0.01193912 0.08042793 0.44869176
-0.011545349 0.080444075 0.44878367
-0.011140694 0.080382816 0.44844371
-0.010744978 0.080383942 0.4484517
-0.010345776 0.080358088 0.44830903
-0.0099482052 0.080343328 0.44822827
-0.0095508089 0.080328837 0.44814888
-0.0091606257 0.080376372 0.44841543
-0.063774601 0.083887741 0.46479812
-0.063366912 0.083892174 0.46483448
-0.062927552 0.083854452 0.46463725
-0.062512748 0.083849169 0.46461964
-0.062082715 0.083823256 0.46448764
-0.061628796 0.083764531 0.46417376
-0.061231688 0.083782762 0.46428627
-0.060790226 0.083740138 0.46406144
-0.060375363 0.083733827 0.46403775
-0.059925396 0.083678409 0.46374184
-0.059507396 0.083667167 0.46369073
-0.059081506 0.083644599 0.46357676
-0.058652528 0.08361733 0.46343657
-0.058210965 0.083571598 0.46319407
-0.057771433 0.083528161 0.46296418
-0.057357159 0.083520882 0.46293458
-0.056928784 0.083492823 0.46278974
-0.056503862 0.08346945 0.46267083
-0.056081627 0.083449744 0.46257216
-0.055673275 0.083450556 0.46258709
-0.055234391 0.083405271 0.46234646
-0.05483165 0.083414309 0.46240687
-0.0543909 0.083365209 0.46214497
-0.053961076 0.083332263 0.46197242
-0.05353209 0.083300091 0.46180421
-0.053105138 0.083270639 0.46165091
-0.052688234 0.083256602 0.46158302
-0.052259754 0.083223909 0.46141163
-0.051839668 0.08320418 0.461312
-0.051417131 0.083180159 0.46118852
-0.050978743 0.083129928 0.46091962
-0.050582219 0.083147697 0.46102768
-0.050152872 0.083111361 0.46083567
-0.049715955 0.083061792 0.46057019
-0.049299218 0.083045386 0.46048856
-0.04888903 0.083039843 0.46046701
-0.04848285 0.083041064 0.46048295
-0.048080526 0.08304897 0.46053585
-0.047677513 0.083055809 0.46058279
-0.047278285 0.083069421 0.46066719
-0.046874639 0.083075441 0.46070945
-0.046480488 0.083098546 0.46084633
-0.025705058 0.08177685 0.45384991
-0.025280613 0.081700228 0.45342931
-0.024854857 0.081616841 0.45297113
-0.024447225 0.081591211 0.45283335
-0.024039106 0.081563078 0.45268163
-0.023638532 0.081560031 0.45266899
-0.023237385 0.081554875 0.45264465
-0.022813847 0.081469573 0.45217538
-0.022415821 0.081473969 0.45220384
-0.022004707 0.0814301 0.45196432
-0.021606077 0.081431642 0.45197684
-0.021203393 0.081417702 0.45190325
-0.020793285 0.081374153 0.45166531
-0.020394521 0.081374176 0.4516691
-0.019987827 0.08134193 0.45149371
-0.019582156 0.081312604 0.45133448
-0.019178459 0.081290461 0.45121494
-0.018791158 0.081338331 0.45148402
-0.014747682 0.081022516 0.44975987
-0.014346213 0.080997594 0.44962397
-0.013947618 0.080987938 0.44957271
-0.013548369 0.080973811 0.44949654
-0.013148684 0.080956161 0.44940075
-0.012750681 0.080948085 0.44935805
-0.012350024 0.080922097 0.44921583
-0.011951964 0.080911979 0.44916159
-0.011549391 0.08086957 0.44892803
-0.011147326 0.080827817 0.44869807
-0.010750158 0.080819823 0.44865537
-0.010349562 0.08078447 0.44846076
-0.0099560777 0.08080402 0.44857079
-0.0095571298 0.080779016 0.44843346
-0.009162629 0.080791071 0.44850174
-0.063403264 0.084352136 0.46508551
-0.062980391 0.084336616 0.46501169
-0.062534772 0.084290236 0.46476766
-0.062111009 0.084272906 0.46468368
-0.061672397 0.084235065 0.46448654
-0.06126295 0.084236816 0.46450767
-0.0608229 0.084196217 0.46429518
-0.060397632 0.084175684 0.46419322
-0.059970167 0.084151775 0.46407264
-0.059531637 0.084111907 0.46386391
-0.059108637 0.084093601 0.463774
-0.058660474 0.084038973 0.46348369
-0.058255605 0.084046036 0.46353361
-0.057819866 0.084008344 0.46333662
-0.057402503 0.083997026 0.46328488
-0.056959905 0.083948337 0.46302703
-0.056555681 0.083955906 0.46307942
-0.05609699 0.083882146 0.46268314
-0.055673458 0.083860271 0.4625729
-0.055261906 0.083856255 0.46256113
-0.054829046 0.083819591 0.4623692
-0.054421797 0.083821833 0.46239182
-0.053991262 0.083787963 0.46221516
-0.053551529 0.083739206 0.46195623
-0.053136282 0.083728276 0.46190599
-0.052708097 0.083696641 0.46174133
-0.052297838 0.083693199 0.46173218
-0.051848732 0.083627045 0.46137699
-0.051450476 0.08364252 0.461472
-0.051011384 0.08359129 0.46119907
-0.050588038 0.083565295 0.46106508
-0.050171312 0.083549857 0.46098945
-0.049746625 0.08352083 0.46083862
-0.049309179 0.083469711 0.46056589
-0.048901923 0.083469301 0.46057281
-0.048486989 0.083455637 0.46050659
-0.048081327 0.083457857 0.46052787
-0.04767675 0.083462015 0.46055979
-0.04727418 0.083469771 0.46061158
-0.046870518 0.083475739 0.46065328
-0.046468899 0.083485469 0.46071577
-0.046074085 0.083507709 0.4608472
-0.045666248 0.083506539 0.46084934
-0.026133133 0.082264297 0.45430541
-0.025710665 0.082196169 0.45393389
-0.025278205 0.08209344 0.45337123
-0.024870284 0.082068369 0.4532373
-0.024456451 0.082022659 0.45298937
-0.02405485 0.082017139 0.45296326
-0.023648163 0.081993788 0.45283866
-0.023240449 0.081966028 0.45268956
-0.022834148 0.081942357 0.45256302
-0.022427166 0.081915364 0.45241797
-0.022022439 0.081895791 0.45231384
-0.021616479 0.081870809 0.45217982
-0.021214012 0.081858374 0.45211497
-0.020805437 0.081821442 0.4519147
-0.020408515 0.081829786 0.4519645
-0.019998737 0.081785895 0.45172566
-0.019600678 0.081789121 0.45174694
-0.014350954 0.081422314 0.44975895
-0.013947044 0.081382379 0.44954067
-0.013551034 0.081387565 0.44957158
-0.013152595 0.08137802 0.44952109
-0.012752085 0.081354693 0.44939429
-0.012355638 0.081356607 0.44940692
-0.011954574 0.081327245 0.4492467
-0.011557023 0.081320599 0.44921187
-0.011152087 0.081259683 0.4488771
-0.010751338 0.081225894 0.44869214
-0.010354222 0.081218019 0.44865027
-0.0099575445 0.081213102 0.4486247
-0.0095640579 0.08123491 0.44874656
-0.062990054 0.084761359 0.46506727
-0.062575236 0.084756576 0.46505263
-0.062153041 0.084741659 0.46498239
-0.061717514 0.084708244 0.46481058
-0.061287172 0.084681548 0.46467555
-0.060859986 0.084658876 0.46456251
-0.060422298 0.084621206 0.46436706
-0.059978221 0.084573999 0.46411923
-0.059568748 0.084575273 0.46413735
-0.059132352 0.08453808 0.46394432
-0.058703437 0.084511131 0.46380743
-0.058261804 0.084465362 0.46356714
-0.057854533 0.084469132 0.46359867
-0.057448789 0.084475189 0.46364266
-0.056992639 0.084406681 0.46327737
-0.056568883 0.084385514 0.46317178
-0.056130774 0.084342465 0.46294609
-0.055714399 0.084331691 0.46289733
-0.055287261 0.08430434 0.46275759
-0.054862626 0.084280424 0.46263662
-0.054442916 0.084263779 0.46255547
-0.054007173 0.084221877 0.46233565
-0.053590428 0.084209189 0.46227604
-0.053161517 0.084177054 0.46210963
-0.052742932 0.084160872 0.46203074
-0.05232783 0.084150076 0.46198127
-0.051883403 0.084091552 0.46166977
-0.051475637 0.084092006 0.4616819
-0.051035121 0.084038533 0.46139795
-0.050618056 0.084023133 0.46132293
-0.050180644 0.083973445 0.46105951
-0.049767964 0.083964646 0.46102059
-0.049346387 0.083940573 0.46089774
-0.048922524 0.083912179 0.46075106
-0.048501331 0.08388795 0.46062711
-0.048094019 0.08388751 0.46063375
-0.047676589 0.083869256 0.46054253
-0.047274575 0.083878048 0.46059969
-0.046867091 0.083877206 0.46060389
-0.046463765 0.083883852 0.46064916
-0.046060037 0.083889879 0.46069095
-0.045659319 0.083901554 0.46076366
-0.045256384 0.083909325 0.46081489
-0.026955254 0.082726903 0.4546147
-0.0265464 0.082703844 0.45449284
-0.026134936 0.082671829 0.45432168
-0.025714459 0.082609855 0.45398584
-0.025292026 0.082539544 0.45360407
-0.024879502 0.082499824 0.45339036
-0.02447197 0.082475625 0.45326188
-0.024067905 0.082462512 0.45319417
-0.023658834 0.08243151 0.45302814
-0.023257548 0.082427032 0.45300776
-0.022836583 0.082351439 0.45259646
-0.022438513 0.082357183 0.4526321
-0.022024283 0.082302757 0.45233694
-0.021627439 0.082312495 0.45239437
-0.02121295 0.082254171 0.45207766
-0.020815901 0.082262546 0.4521274
-0.020419315 0.082273103 0.45218912
-0.020009654 0.082230344 0.4519577
-0.013957335 0.081840515 0.44985884
-0.013558909 0.081832923 0.44981942
-0.013159297 0.0818175 0.4497368
-0.012757034 0.081784137 0.44955552
-0.012358238 0.08177156 0.44948843
-0.01196233 0.081777893 0.44952518
-0.011560353 0.08174175 0.44932839
-0.011160094 0.081715643 0.44918665
-0.010760632 0.081693649 0.44906744
-0.010359882 0.081659831 0.44888315
-0.0099612968 0.081641063 0.44878152
-0.0095758848 0.081733182 0.44928941
-0.0091783786 0.081725582 0.449249
-0.06300661 0.085195571 0.46517375
-0.062601164 0.08520367 0.46522954
-0.062154714 0.085155673 0.46497908
-0.061757229 0.085174583 0.46509388
-0.061311513 0.08512678 0.46484426
-0.060896266 0.085120916 0.46482363
-0.06045853 0.085083328 0.46462968
-0.060025465 0.085051849 0.46446893
-0.059591953 0.085019305 0.46430233
-0.059156071 0.084982887 0.46411458
-0.058728576 0.084958106 0.46399021
-0.058300458 0.084932074 0.4638589
-0.057883967 0.084922731 0.4638187
-0.05745285 0.08489164 0.46365964
-0.057016086 0.08485169 0.46345219
-0.056591138 0.084828883 0.46333817
-0.056169987 0.084811479 0.46325368
-0.055736732 0.084775411 0.46306708
-0.055288143 0.084715314 0.46274918
-0.054899268 0.084746487 0.46292982
-0.054469477 0.084714517 0.46276534
-0.054042712 0.084686801 0.46262404
-0.053609606 0.084648639 0.46242568
-0.053189099 0.084629945 0.46233353
-0.052742518 0.084569156 0.46201131
-0.05234861 0.084592529 0.4621489
-0.051917668 0.084555961 0.46195886
-0.051471166 0.084493257 0.46162596
-0.051063746 0.084494248 0.46164095
-0.050645739 0.084477574 0.46155941
-0.050216984 0.084442563 0.46137759
-0.049809419 0.084442906 0.4613888
-0.049385097 0.084414609 0.46124351
-0.048958953 0.084382705 0.46107838
-0.048517335 0.084323376 0.46076331
-0.048101325 0.084307924 0.46068794
-0.047687203 0.084295541 0.46062925
-0.047271542 0.084280215 0.46055436
-0.04686949 0.084289096 0.4606117
-0.046461411 0.084287181 0.46061
-0.046057172 0.084292278 0.46064651
-0.045646206 0.084285036 0.46061558
-0.045244619 0.084295146 0.46067932
-0.044843245 0.084305838 0.46074623
-0.027392928 0.083239071 0.45519638
-0.026965739 0.083161354 0.45477632
-0.026547872 0.083110459 0.45450288
-0.026119743 0.083025396 0.45404249
-0.025713017 0.083006762 0.45394528
-0.025299601 0.082965605 0.45372489
-0.024890158 0.082936354 0.4535695
-0.024482116 0.08291091 0.4534348
-0.02407838 0.082899444 0.45337647
-0.023665698 0.08285626 0.45314464
-0.02326232 0.082844734 0.45308581
-0.022854621 0.082817137 0.45293906
-0.022444833 0.082780883 0.45274481
-0.022035807 0.082746148 0.45255885
-0.021638613 0.082755394 0.45261332
-0.021234464 0.0827379 0.45252144
-0.020826727 0.082705475 0.45234784
-0.02042588 0.082699686 0.45231983
-0.020033808 0.082729906 0.45248869
-0.019641045 0.082758442 0.45264825
-0.019252433 0.082806006 0.45291185
-0.013565654 0.082271904 0.4500297
-0.0131635 0.082241774 0.4498671
-0.012767497 0.082249396 0.44991085
-0.012367238 0.082229227 0.44980255
-0.01196535 0.082196526 0.44962561
-0.011563732 0.082163498 0.44944683
-0.011165331 0.082151793 0.4493846
-0.010766325 0.082134627 0.44929239
-0.010368776 0.082127683 0.449256
-0.0099681038 0.082094476 0.44907591
-0.0095780334 0.082149461 0.4493781
-0.0091842208 0.082175694 0.449523
-0.062613666 0.085632727 0.46530655
-0.062192578 0.085619539 0.4652465
-0.061766133 0.085598752 0.46514505
-0.061330769 0.085565239 0.46497437
-0.060911551 0.085553974 0.46492445
-0.060492881 0.085543305 0.46487781
-0.060068395 0.085524216 0.46478528
-0.059635073 0.085492209 0.46462244
-0.059232231 0.085503757 0.46469623
-0.058774486 0.085435636 0.46433705
-0.0583281 0.085383207 0.46406296
-0.057904486 0.085363597 0.4639672
-0.057474677 0.085334517 0.46381992
-0.05705874 0.085325755 0.46378297
-0.056641798 0.085315369 0.4637371
-0.056191627 0.085254401 0.46341622
-0.055788048 0.085263766 0.46347755
-0.055349715 0.085219733 0.46324864
-0.054916963 0.085183717 0.46306312
-0.054498762 0.085169904 0.46299824
-0.05407526 0.085147537 0.46288678
-0.053649876 0.08512184 0.46275714
-0.053199686 0.085056089 0.4624097
-0.052795097 0.085062787 0.46245602
-0.052385502 0.085061476 0.46245867
-0.051938791 0.08499939 0.4621309
-0.051527444 0.084994666 0.46211487
-0.051088162 0.084943406 0.46184579
-0.050670441 0.084927469 0.46176866
-0.050238788 0.084887736 0.46156201
-0.049821325 0.084871516 0.46148321
-0.0493812 0.084816106 0.46119124
-0.048986908 0.084839165 0.46132576
-0.048565578 0.084815383 0.46120563
-0.048132297 0.08477015 0.4609687
-0.047694433 0.084716015 0.46068326
-0.04727979 0.084702536 0.46061885
-0.046872046 0.0847013 0.46062094
-0.046458773 0.084689967 0.46056804
-0.046055082 0.08469604 0.46060973
-0.045647804 0.084695585 0.46061587
-0.045240305 0.084694698 0.46061957
-0.044837248 0.084702194 0.46066874
-0.044427581 0.084697232 0.46065012
-0.04402912 0.08471372 0.46074811
-0.043614756 0.084699661 0.46067977
-0.02823128 0.083743706 0.45572588
-0.027822373 0.083724365 0.45562577
-0.027400054 0.083663493 0.45529953
-0.02696275 0.083554357 0.45471063
-0.026539735 0.0834869 0.45434839
-0.026127091 0.083450489 0.454155
-0.025733382 0.083474368 0.45428967
-0.025317498 0.083425932 0.45403069
-0.024910005 0.083404027 0.45391607
-0.024498273 0.08336699 0.45371896
-0.024085699 0.083325811 0.45349923
-0.023673721 0.083285339 0.45328325
-0.023279069 0.083305463 0.45339707
-0.02286968 0.083272651 0.4532226
-0.022461034 0.083241418 0.45305666
-0.02205378 0.083214313 0.45291311
-0.021650318 0.083200768 0.45284337
-0.021245345 0.083180808 0.45273852
-0.020833574 0.08313296 0.45248181
-0.020444235 0.083174497 0.45271155
-0.02005011 0.08319784 0.45284221
-0.019653773 0.083212771 0.45292693
-0.019267268 0.083270825 0.45324636
-0.013563054 0.082654335 0.44992986
-0.013170715 0.082685225 0.45010021
-0.012770181 0.082664989 0.44999215
-0.012371883 0.082658388 0.44995826
-0.011974643 0.082658671 0.44996169
-0.01157252 0.082624108 0.44977543
-0.011169981 0.082584016 0.44955897
-0.010777487 0.082617968 0.44974551
-0.010373424 0.082562447 0.44944489
-0.0099752024 0.082550876 0.44938338
-0.0095836185 0.08259552 0.44962794
-0.0091881668 0.082609288 0.44970423
-0.062214486 0.086061843 0.46539444
-0.061799653 0.086057328 0.46538156
-0.061371263 0.086033747 0.46526545
-0.060929447 0.085990906 0.46504506
-0.060504321 0.085971192 0.46494973
-0.060087953 0.085963733 0.46492061
-0.059680011 0.085968323 0.46495658
-0.059227925 0.085908942 0.46464646
-0.05880145 0.085886143 0.4645341
-0.058366783 0.085850969 0.46435475
-0.057921182 0.085799105 0.46408504
-0.057508852 0.085796133 0.46407974
-0.057079155 0.085767023 0.46393296
-0.05668284 0.085788019 0.46405709
-0.056227963 0.085720055 0.46369994
-0.055806462 0.085702322 0.46361452
-0.055361409 0.085647918 0.46333054
-0.054939933 0.085629441 0.46324086
-0.054522868 0.085617617 0.4631871
-0.054091506 0.085582986 0.46300989
-0.053680629 0.085580491 0.46300647
-0.053247984 0.085542992 0.46281353
-0.052814536 0.085503608 0.46261039
-0.052404448 0.085501716 0.46260998
-0.051973388 0.085465327 0.46242279
-0.051559094 0.08545614 0.46238279
-0.05111748 0.08540117 0.46209493
-0.050683435 0.085358046 0.46187112
-0.050258759 0.085330136 0.46172956
-0.049853645 0.085335277 0.46176669
-0.049414501 0.085281752 0.46148634
-0.049004029 0.08527723 0.46147108
-0.048575763 0.085241415 0.4612864
-0.048157647 0.085222952 0.46119553
-0.047734544 0.085195281 0.46105474
-0.047311112 0.085166551 0.46090811
-0.046892941 0.085146867 0.46081039
-0.046464961 0.085108869 0.46061349
-0.046054862 0.085103244 0.4605917
-0.04564942 0.085106201 0.46061629
-0.045240294 0.085102282 0.46060356
-0.044830892 0.085097753 0.46058753
-0.044420961 0.085092157 0.46056551
-0.044016905 0.085097805 0.4606044
-0.043613113 0.085104071 0.46064648
-0.043200608 0.08509329 0.46059629
-0.042810049 0.085125953 0.4607811
-0.042390365 0.085100785 0.4606528
-0.028649317 0.084192567 0.45595294
-0.028234961 0.084157817 0.45576993
-0.027821414 0.084124506 0.45559466
-0.027388738 0.084031522 0.45509616
-0.026962409 0.083955541 0.45468959
-0.026550815 0.083923839 0.45452276
-0.026137937 0.083887048 0.4543283
-0.025735326 0.08388257 0.45430878
-0.025323449 0.083847269 0.45412222
-0.024909239 0.083802991 0.45388696
-0.024504719 0.083790399 0.45382321
-0.024099255 0.083774105 0.45373935
-0.023689259 0.08374124 0.45356569
-0.023288013 0.083738722 0.45355624
-0.022877021 0.083700433 0.45335302
-0.022475097 0.083694577 0.45332539
-0.022064934 0.083657257 0.45312724
-0.021657376 0.083628632 0.45297605
-0.021255326 0.083620593 0.45293635
-0.020852016 0.083607204 0.45286757
-0.020453351 0.083612263 0.45289865
-0.020060297 0.083640948 0.45305756
-0.019664872 0.083660707 0.45316806
-0.019271992 0.08369232 0.45334277
-0.013567858 0.083081961 0.45007566
-0.013173976 0.083104171 0.45019811
-0.012774341 0.083090343 0.45012531
-0.012380217 0.083112642 0.45024812
-0.011978654 0.083084799 0.45009926
-0.011578158 0.083062731 0.44998154
-0.011176525 0.083030626 0.44980943
-0.010771296 0.082968466 0.44947439
-0.010374986 0.082972907 0.44950002
-0.0099834418 0.083017312 0.44974214
-0.0095906928 0.083054975 0.44994763
-0.0091949599 0.083068945 0.45002466
-0.061799712 0.086469531 0.46536598
-0.061392367 0.086475484 0.46540946
-0.06095919 0.086444892 0.46525609
-0.060538515 0.086431727 0.46519652
-0.060118996 0.086420044 0.46514484
-0.059683096 0.086384483 0.46496454
-0.05925661 0.086362161 0.46485546
-0.05882512 0.086332187 0.46470508
-0.058406226 0.086320393 0.46465254
-0.057964467 0.086274423 0.46441582
-0.057542071 0.086256802 0.46433178
-0.05710971 0.0862239 0.46416527
-0.056678168 0.086191766 0.46400288
-0.056241997 0.086152062 0.46379966
-0.055827383 0.086145051 0.4637723
-0.055400372 0.086118668 0.46364063
-0.05497301 0.086091332 0.46350375
-0.054532435 0.086042747 0.46325237
-0.054129615 0.086053446 0.46332011
-0.053700052 0.086021461 0.46315795
-0.053275961 0.085997835 0.46304071
-0.052848794 0.08596883 0.46289441
-0.052420165 0.085936971 0.46273273
-0.051984541 0.085893065 0.46250606
-0.051574487 0.085891038 0.4625048
-0.051159099 0.085880034 0.46245515
-0.050726131 0.0858391 0.46224424
-0.050307024 0.085821152 0.46215698
-0.04986123 0.08575701 0.46182093
-0.049436919 0.085729063 0.46167973
-0.049025096 0.085722499 0.4616535
-0.048603904 0.08569929 0.46153766
-0.048197892 0.085702688 0.46156499
-0.047758553 0.085646376 0.46127069
-0.047345277 0.085636236 0.46122494
-0.046917386 0.085599266 0.46103463
-0.046489738 0.085562088 0.46084315
-0.046069335 0.085537702 0.46072045
-0.04565246 0.085519508 0.46063098
-0.045238364 0.085506231 0.46056798
-0.044829015 0.085501753 0.4605523
-0.044420891 0.08549957 0.46054885
-0.044012748 0.085497312 0.46054491
-0.04360285 0.085491568 0.46052217
-0.043193795 0.085487373 0.46050769
-0.042783279 0.085480191 0.46047705
-0.042380661 0.085488819 0.46053141
-0.04196934 0.085479863 0.46049109
-0.041560203 0.085475244 0.46047395
-0.029907115 0.084736772 0.45668045
-0.029494157 0.084709227 0.45653746
-0.029069412 0.08464659 0.45620522
-0.028641116 0.084571712 0.45580694
-0.028234761 0.084560409 0.45575124
-0.027812038 0.084499061 0.45542571
-0.027382063 0.084413543 0.45496985
-0.026963336 0.084360681 0.45468992
-0.026561335 0.08435934 0.45468754
-0.026155101 0.08434432 0.45461136
-0.025745593 0.084318094 0.45447472
-0.025345787 0.084323324 0.45450753
-0.024932671 0.084283739 0.4542987
-0.024518952 0.084240772 0.45407158
-0.024111805 0.084219337 0.45396048
-0.023702215 0.084188513 0.45379862
-0.023293372 0.08415933 0.45364553
-0.022890978 0.084152818 0.45361459
-0.022486379 0.08413785 0.45353794
-0.022070142 0.084077977 0.45321921
-0.021672999 0.084090002 0.4532879
-0.021260036 0.084039941 0.45302185
-0.020866038 0.084064357 0.45315719
-0.020465614 0.084063336 0.4531554
-0.020068593 0.084076546 0.45323017
-0.019674709 0.084103681 0.45337999
-0.019285729 0.084153377 0.45365122
-0.013177919 0.083527647 0.45031932
-0.012784471 0.083554983 0.45046881
-0.012385235 0.083545052 0.45041725
-0.011986863 0.083540484 0.45039454
-0.011582221 0.083490394 0.45012635
-0.011181546 0.083466366 0.44999859
-0.010779397 0.083429165 0.44979972
-0.01038202 0.083427459 0.44979215
-0.0099756327 0.08335036 0.44937795
-0.0095894355 0.083442539 0.4498764
-0.061416667 0.086922027 0.46557757
-0.060995862 0.086909153 0.46551991
-0.060566135 0.086883284 0.46539268
-0.060130019 0.086847857 0.46521404
-0.05971285 0.086839482 0.46518034
-0.059283026 0.086812459 0.46504661
-0.058858391 0.08679273 0.46495184
-0.058424309 0.086758673 0.4647803
-0.057980381 0.086709425 0.46452728
-0.057569332 0.086708993 0.46453568
-0.057147253 0.086691819 0.46445435
-0.056711353 0.086653285 0.46425846
-0.056281082 0.086622849 0.4641059
-0.055863507 0.086611651 0.46405631
-0.055417892 0.086556487 0.46377113
-0.054994997 0.086536266 0.46367303
-0.054565948 0.086505972 0.46352094
-0.054157581 0.086508267 0.46354336
-0.053719588 0.086462915 0.46331036
-0.053300347 0.086447276 0.46323651
-0.052861273 0.086398989 0.46298763
-0.052451428 0.08639808 0.46299261
-0.052015305 0.08635354 0.46276364
-0.051579747 0.086309232 0.46253589
-0.051175788 0.086317524 0.46258992
-0.050745238 0.086280741 0.46240225
-0.050330114 0.086269796 0.46235302
-0.049892548 0.086219892 0.46209493
-0.049484532 0.086220652 0.46210828
-0.049045831 0.086167522 0.46183267
-0.048637226 0.086166807 0.46183801
-0.048209436 0.086131811 0.46165946
-0.047779262 0.086091936 0.46145469
-0.047364637 0.08607962 0.46139753
-0.046930909 0.086032085 0.46115148
-0.046518285 0.086022727 0.46111009
-0.046095639 0.085994504 0.46096748
-0.045669526 0.085959256 0.46078712
-0.045249511 0.085934982 0.46066543
-0.044825673 0.085902922 0.46050194
-0.044419415 0.08590427 0.46051756
-0.044006594 0.085892849 0.46046451
-0.04359962 0.085892729 0.46047208
-0.043189861 0.085887067 0.46044978
-0.042787351 0.085895844 0.46050486
-0.042371489 0.085877739 0.46041578
-0.04196148 0.085871257 0.46038887
-0.041553207 0.085868232 0.46038046
-0.041144527 0.085864305 0.46036708
-0.040732294 0.085852817 0.46031314
-0.040320907 0.085842893 0.46026748
-0.039902031 0.085816674 0.46013433
-0.039490458 0.085805766 0.46008325
-0.031170221 0.085285828 0.45742589
-0.030741746 0.085218117 0.45706844
-0.030331023 0.085198477 0.45696875
-0.029908899 0.085145876 0.45669207
-0.029491113 0.085104331 0.45647472
-0.029059835 0.085022166 0.45603937
-0.028642632 0.084979445 0.45581555
-0.028229244 0.084946997 0.45564669
-0.027824191 0.084939063 0.45560923
-0.027388137 0.084834851 0.4550553
-0.026981328 0.084819488 0.45497784
-0.026569128 0.08478646 0.45480555
-0.026165323 0.08477962 0.45477366
-0.02576153 0.084772602 0.4547407
-0.025357435 0.084764361 0.45470113
-0.024933593 0.084688775 0.45430019
-0.02453549 0.084699571 0.4543626
-0.024125133 0.084667742 0.45419618
-0.023717107 0.084643133 0.45406854
-0.023309857 0.084620506 0.45395136
-0.022907918 0.084616713 0.45393515
-0.022492805 0.084563255 0.45365241
-0.022088863 0.084550619 0.45358863
-0.021675302 0.084500022 0.45332104
-0.02127189 0.084487826 0.45325947
-0.020873902 0.084497124 0.45331308
-0.020471083 0.084486857 0.45326158
-0.020079989 0.084525526 0.45347264
-0.019685566 0.084551483 0.4536154
-0.019294314 0.084592402 0.45383835
-0.012783987 0.083950587 0.45043826
-0.012386766 0.08395417 0.45045954
-0.011988373 0.083949797 0.45043802
-0.011590515 0.083949 0.45043555
-0.011191678 0.083940797 0.45039335
-0.010783535 0.083859637 0.44995958
-0.010387667 0.083871379 0.45002416
-0.0099797538 0.083782919 0.44955108
-0.0095919697 0.083863154 0.449983
-0.061016545 0.087351017 0.46566159
-0.060602292 0.087347537 0.46565431
-0.060172524 0.087321505 0.46552673
-0.059762165 0.087323472 0.46554834
-0.059311885 0.087266721 0.46525684
-0.05889738 0.087262206 0.4652437
-0.05845328 0.087213457 0.46499464
-0.058033425 0.08720044 0.46493608
-0.057593953 0.087157562 0.46471816
-0.057177451 0.087149084 0.46468362
-0.056733806 0.087098807 0.46442613
-0.056309659 0.087077953 0.46432537
-0.055888075 0.087060787 0.46424428
-0.055452198 0.087020926 0.4640421
-0.05501477 0.086978026 0.46382359
-0.054608624 0.086984314 0.46386731
-0.054182198 0.086958155 0.46373788
-0.053752489 0.086926281 0.46357802
-0.053329531 0.086904921 0.46347404
-0.052890394 0.086856663 0.46322653
-0.052463915 0.086828604 0.46308669
-0.052030202 0.086788036 0.46288005
-0.051620349 0.086786941 0.46288389
-0.051182479 0.086738341 0.46263424
-0.050762791 0.086720034 0.46254605
-0.050335184 0.086687788 0.46238348
-0.04992288 0.086681582 0.4623597
-0.049506284 0.086667754 0.46229526
-0.0490635 0.086607479 0.46198291
-0.048650727 0.086599618 0.46195006
-0.048231825 0.086580619 0.4618578
-0.047821801 0.086577371 0.46184936
-0.047385409 0.086525917 0.46158376
-0.04696599 0.086504839 0.46148011
-0.046534244 0.086460479 0.46125215
-0.046113051 0.086435117 0.46112555
-0.045699883 0.086424485 0.46107733
-0.045271747 0.086385094 0.46087569
-0.044862859 0.086382054 0.46086788
-0.044431519 0.086335354 0.46062699
-0.044012297 0.086311527 0.46050811
-0.043595575 0.086292215 0.46041325
-0.04318846 0.08629173 0.46041879
-0.042774238 0.086276919 0.46034771
-0.042361274 0.086264364 0.46028873
-0.041958638 0.086272821 0.46034163
-0.0415502 0.086269386 0.46033111
-0.041139804 0.086261779 0.46029821
-0.040726174 0.086247176 0.46022791
-0.040307034 0.086220495 0.46009308
-0.039898135 0.086215399 0.46007335
-0.039488643 0.08620891 0.46004611
-0.03907923 0.08620245 0.46001899
-0.038664117 0.086183161 0.45992321
-0.038249463 0.086164482 0.45983073
-0.037819654 0.08611092 0.4595519
-0.03740501 0.086091086 0.45945305
-0.032414421 0.085775308 0.45784515
-0.03200195 0.085753813 0.4577364
-0.031583171 0.085714668 0.45753327
-0.031164233 0.085674055 0.45732227
-0.030746464 0.085635647 0.45712292
-0.030319514 0.085570298 0.45677966
-0.029905465 0.085540079 0.45662394
-0.029473493 0.085457094 0.45618635
-0.029057901 0.085419945 0.45599341
-0.028647466 0.085397117 0.45587686
-0.028237803 0.085376002 0.4557693
-0.027833536 0.085370801 0.45574668
-0.027416464 0.085325614 0.45551047
-0.026997805 0.085274056 0.45524019
-0.02658011 0.085224055 0.45497808
-0.026178831 0.085225947 0.45499298
-0.025774375 0.085217394 0.454952
-0.025368934 0.085205272 0.45489192
-0.024951182 0.085150734 0.45460531
-0.024550155 0.08515244 0.4546189
-0.02413993 0.085121758 0.45445943
-0.023736874 0.085115753 0.45443171
-0.023318134 0.085052341 0.45409736
-0.022917995 0.085055739 0.45411965
-0.022501137 0.084996104 0.4538053
-0.022095466 0.084977344 0.4537091
-0.021692187 0.084967248 0.45365912
-0.021288101 0.084953561 0.45358986
-0.020882254 0.084932186 0.45347944
-0.020477057 0.084912665 0.45337889
-0.020084387 0.084945366 0.45355704
-0.019688088 0.084963746 0.45365867
-0.019299159 0.085015327 0.4539375
-0.013203425 0.084488109 0.45116359
-0.012793544 0.084412403 0.45076144
-0.012396308 0.084417954 0.45079309
-0.011997005 0.084409334 0.45074898
-0.011594379 0.08437594 0.45057255
-0.011193395 0.084352545 0.45044941
-0.010795381 0.084350646 0.45044094
-0.0103933 0.084315613 0.45025545
-0.0099946549 0.084306769 0.45020977
-0.060191557 0.087761514 0.46565774
-0.059781142 0.087763593 0.46567994
-0.059346683 0.087730169 0.46551359
-0.058910567 0.087693825 0.46533164
-0.058469515 0.087649547 0.46510756
-0.058061976 0.087655246 0.4651486
-0.057637028 0.087634549 0.46504954
-0.057189159 0.087578475 0.46476254
-0.056766968 0.087561183 0.46468133
-0.056349743 0.087551348 0.46463969
-0.055922188 0.087525226 0.46451142
-0.05547116 0.087461688 0.46418458
-0.055024531 0.087404191 0.46388969
-0.054622851 0.087417774 0.46397194
-0.054192379 0.087385133 0.4638088
-0.053790912 0.087399125 0.46389312
-0.053368691 0.087379359 0.46379814
-0.052951384 0.087367378 0.46374446
-0.05249707 0.087293684 0.46336311
-0.052074645 0.087272286 0.46325922
-0.051634863 0.087221213 0.46299779
-0.051214494 0.087202393 0.46290743
-0.050789226 0.087174848 0.46277073
-0.050362904 0.087145053 0.46262193
-0.049946785 0.087132558 0.46256495
-0.049524665 0.087109298 0.46245071
-0.049098212 0.087077983 0.4622936
-0.048668247 0.087039843 0.46210024
-0.048242614 0.087008879 0.46194488
-0.047831263 0.087003373 0.46192458
-0.047415923 0.086990446 0.46186483
-0.046988659 0.086955234 0.46168664
-0.046571076 0.08693748 0.46160108
-0.046148978 0.086910903 0.46146867
-0.045725729 0.086881667 0.46132195
-0.045310605 0.086867481 0.46125513
-0.044878732 0.08682064 0.46101481
-0.044444822 0.08676897 0.46074873
-0.044018429 0.086731151 0.46055615
-0.043607004 0.086722404 0.46051782
-0.043190528 0.086703345 0.46042472
-0.042772353 0.086680479 0.46031132
-0.042361174 0.086671501 0.46027151
-0.041953452 0.086669482 0.46026865
-0.04154193 0.086659491 0.46022338
-0.041131724 0.086652093 0.46019176
-0.040719133 0.086639456 0.46013227
-0.040306982 0.086627521 0.46007639
-0.039898321 0.086622924 0.4600594
-0.039485499 0.08660911 0.45999345
-0.039068915 0.086586662 0.45988151
-0.038653102 0.086565457 0.45977616
-0.038235862 0.086540587 0.45965117
-0.037824806 0.086529344 0.45959851
-0.037415255 0.08652132 0.45956287
-0.037001114 0.086502403 0.45946926
-0.036583491 0.086474836 0.45932969
-0.036163326 0.086440578 0.4591544
-0.03574932 0.086420417 0.45905399
-0.032829855 0.086209223 0.45797643
-0.032412123 0.086174294 0.4577969
-0.031998925 0.086150669 0.45767727
-0.031562939 0.086064301 0.45722434
-0.031154349 0.086051382 0.45716146
-0.03074548 0.08603733 0.45709246
-0.030317042 0.085967422 0.45672667
-0.029900357 0.085929416 0.45653024
-0.029481594 0.085884303 0.45629603
-0.029059313 0.085827552 0.45599988
-0.028655808 0.085825458 0.45599398
-0.02825477 0.085830778 0.45602751
-0.027837897 0.085787475 0.4558025
-0.027427142 0.085762024 0.45567229
-0.027021246 0.085751235 0.45561993
-0.02658529 0.085643284 0.45505124
-0.026194222 0.085678838 0.45524496
-0.025780056 0.085638791 0.45503685
-0.025377398 0.085636288 0.45502821
-0.024964321 0.085598007 0.45482931
-0.024560599 0.085591063 0.45479688
-0.024144316 0.085539393 0.45452666
-0.023744304 0.085544601 0.45455864
-0.023330845 0.085500702 0.45432961
-0.022927798 0.085494094 0.45429865
-0.022521973 0.085476711 0.45421034
-0.022102786 0.085407071 0.45384425
-0.021692738 0.085370816 0.45365548
-0.021294409 0.085380204 0.45370913
-0.020889485 0.085362993 0.45362142
-0.020487087 0.085355647 0.45358601
-0.020090435 0.085372403 0.45367864
-0.019694572 0.08539328 0.45379305
-0.019293804 0.085393317 0.45379668
-0.018907165 0.085457221 0.45413959
-0.013197846 0.084851645 0.45095924
-0.012798396 0.084843636 0.45091879
-0.012399783 0.084840849 0.45090598
-0.012002233 0.084845394 0.45093206
-0.011602553 0.084834673 0.45087692
-0.011202479 0.084820211 0.45080185
-0.010799457 0.084781565 0.45059812
-0.060227998 0.088227294 0.4659234
-0.059799008 0.088202357 0.46580279
-0.059366956 0.08817254 0.46565634
-0.058937725 0.088146508 0.46552983
-0.058496919 0.088102691 0.46530926
-0.058075737 0.088088013 0.46524253
-0.057656936 0.08807677 0.46519384
-0.057221342 0.088039525 0.46500778
-0.056814283 0.088045962 0.46505234
-0.056368217 0.08799161 0.46477574
-0.055935748 0.087957837 0.46460775
-0.055506874 0.087929264 0.46446711
-0.055076446 0.08789777 0.46431106
-0.05465037 0.087872818 0.46418941
-0.054232527 0.087860815 0.46413615
-0.05379463 0.087815896 0.46390888
-0.053385887 0.087818258 0.46393129
-0.052951947 0.087778881 0.46373314
-0.052530397 0.087759584 0.46364096
-0.052099001 0.087723412 0.46345958
-0.050384652 0.087592378 0.46280539
-0.049987726 0.087613776 0.46292779
-0.049541246 0.087547958 0.46258926
-0.049119368 0.087524898 0.46247655
-0.048691496 0.087490663 0.46230474
-0.048277766 0.087481476 0.46226522
-0.047862355 0.087469064 0.4622086
-0.047434319 0.087433167 0.46202776
-0.047006447 0.08739695 0.46184519
-0.046590973 0.08738336 0.46178207
-0.046163052 0.087345973 0.46159312
-0.045744915 0.087326594 0.46149927
-0.045322098 0.087297864 0.46135592
-0.044912864 0.087295011 0.46134922
-0.044501241 0.087287411 0.46131739
-0.04407075 0.08724235 0.46108741
-0.043634884 0.087185673 0.46079606
-0.043207914 0.08714588 0.46059385
-0.042801667 0.087147534 0.46061057
-0.042371668 0.087100402 0.46036935
-0.041952956 0.087075785 0.46024704
-0.041537337 0.087057158 0.46015635
-0.041125424 0.087046005 0.46010506
-0.040717173 0.087042466 0.460094
-0.040298488 0.087016322 0.45996332
-0.039891507 0.087015174 0.45996469
-0.039476056 0.086995356 0.45986727
-0.039065756 0.086986579 0.4598282
-0.038642041 0.086947434 0.45962849
-0.038241509 0.086960182 0.45970297
-0.037815765 0.086915262 0.45947257
-0.037406009 0.086906508 0.45943326
-0.036998175 0.086902082 0.45941675
-0.036578637 0.086869754 0.45925263
-0.036164377 0.086849377 0.45915163
-0.035749931 0.086828105 0.4590458
-0.03533591 0.08680737 0.4589428
-0.034911327 0.086759917 0.45869839
-0.034489688 0.08671876 0.45848718
-0.034078989 0.08670444 0.4584178
-0.033664096 0.086679004 0.45828956
-0.033251472 0.086658835 0.45818916
-0.032828942 0.086612046 0.45794779
-0.032403734 0.086556934 0.4576624
-0.031991657 0.08653596 0.45755744
-0.031575181 0.086502403 0.45738584
-0.031155787 0.08645986 0.4571667
-0.030735014 0.086412355 0.4569211
-0.030329561 0.086407207 0.45689949
-0.029909074 0.086358517 0.45664757
-0.029494835 0.086326793 0.45648524
-0.029072978 0.086271569 0.45619854
-0.02866572 0.086258739 0.45613599
-0.028265156 0.086265974 0.45617941
-0.027854813 0.086243138 0.45606378
-0.027439283 0.086203337 0.45585835
-0.027029701 0.08618132 0.45574686
-0.026601097 0.086097069 0.45530617
-0.026194027 0.086081006 0.455226
-0.025793118 0.086084999 0.45525184
-0.025385007 0.086064711 0.45514917
-0.024986139 0.086075611 0.45521134
-0.024569118 0.086023308 0.45493919
-0.02416393 0.08601138 0.45488051
-0.02374927 0.085964784 0.4546383
-0.02334219 0.085944474 0.45453516
-0.022927422 0.085894667 0.45427585
-0.02253505 0.085928485 0.45445874
-0.022116963 0.085863695 0.45412007
-0.021703726 0.085815698 0.45387012
-0.021300318 0.085805483 0.45381987
-0.020898812 0.085802682 0.45380881
-0.020496055 0.085794553 0.45376945
-0.02009581 0.085796818 0.453785
-0.019696359 0.085802637 0.45381925
-0.019295068 0.085800514 0.45381147
-0.018899515 0.08582437 0.45394096
-0.018501347 0.085837126 0.45401162
-0.01320128 0.08527308 0.4510628
-0.012803742 0.085278474 0.45109344
-0.012409331 0.085305728 0.45123962
-0.01200799 0.085285567 0.45113492
-0.011605974 0.085259072 0.45099661
-0.011209035 0.08526931 0.45105255
-0.010809465 0.085259557 0.45100269
-0.059819106 0.088644668 0.46594304
-0.059382454 0.088608049 0.46576151
-0.05897966 0.088621795 0.46584472
-0.058535095 0.088572517 0.46559656
-0.058109909 0.088552095 0.46549994
-0.05768897 0.088537879 0.46543595
-0.057255942 0.088504784 0.46527261
-0.056839179 0.088496536 0.46523976
-0.056413017 0.088473417 0.46512875
-0.055983383 0.088444479 0.46498704
-0.055549689 0.088408664 0.46480903
-0.055099372 0.088345654 0.464488
-0.054678876 0.088329867 0.46441516
-0.054234926 0.088275671 0.46414033
-0.053821925 0.088271417 0.46412793
-0.053414244 0.088275872 0.46416134
-0.052972089 0.088222995 0.46389312
-0.052557986 0.088216387 0.46386817
-0.052140113 0.088203281 0.46380898
-0.050388403 0.08800865 0.46282357
-0.049528409 0.08793468 0.4624531
-0.04912094 0.087937102 0.46247503
-0.048705257 0.087924734 0.46241909
-0.048291486 0.087915652 0.46238029
-0.047885742 0.087921143 0.46241811
-0.047461156 0.087891832 0.46227282
-0.047050431 0.087887913 0.46226102
-0.04660828 0.087824717 0.46193728
-0.046177328 0.087781683 0.46171957
-0.045764387 0.087772422 0.4616794
-0.045346543 0.087753519 0.46158844
-0.044915646 0.087708786 0.4613615
-0.044517182 0.087727137 0.46146637
-0.04409169 0.087692082 0.46129018
-0.043669023 0.087662041 0.46114033
-0.043232352 0.087603062 0.46083814
-0.042829439 0.087612018 0.46089321
-0.042397115 0.0875604 0.46062961
-0.041969862 0.087518357 0.46041626
-0.041556269 0.087504268 0.46034986
-0.04113793 0.0874798 0.46022883
-0.040723138 0.087462448 0.46014515
-0.040299933 0.087426521 0.45996362
-0.039889984 0.087418899 0.45993096
-0.039470173 0.087389283 0.45978254
-0.039059654 0.08737985 0.45974016
-0.038639564 0.087348588 0.45958287
-0.03823312 0.08734782 0.45958596
-0.03781781 0.087326586 0.45948127
-0.037406161 0.087313429 0.45941898
-0.036986466 0.087280981 0.45925519
-0.036571708 0.08725962 0.45914954
