# .PCD v0.7 - Point Cloud Data file format
VERSION 0.7
FIELDS x y z
SIZE 4 4 4
TYPE F F F
COUNT 1 1 1
WIDTH 1379
HEIGHT 1
VIEWPOINT 0 0 0 1 0 0 0
POINTS 1379
DATA ascii
0.033392947 0.019675378 0.42222741
0.033757355 0.019671109 0.42212784
0.034113605 0.019662229 0.4219293
0.034482673 0.019660853 0.4218916
0.034843504 0.019654857 0.42175478
0.035209902 0.019652095 0.42168719
0.035578255 0.019650472 0.42164403
0.035950921 0.019651236 0.42165202
0.036314622 0.019647136 0.42155555
0.036664888 0.019635925 0.4213064
0.037033178 0.019634493 0.421267
0.037379164 0.019621383 0.42097703
0.03775955 0.019626407 0.421076
0.038113397 0.019617675 0.42087975
0.038475059 0.019613096 0.42077255
0.038828641 0.019604525 0.42057961
0.039192799 0.019601403 0.42050353
0.039571252 0.019605422 0.42058057
0.039917503 0.019593563 0.42031687
0.040282167 0.019590875 0.42024988
0.040640246 0.01958506 0.42011574
0.041002493 0.019581342 0.42002648
0.041362952 0.019576844 0.41992041
0.04171871 0.01957022 0.41976872
0.042081796 0.019567121 0.41969252
0.042454422 0.019568473 0.41971171
0.042801552 0.019558148 0.41948044
0.043164689 0.019555254 0.41940838
0.043528248 0.0195526 0.41934139
0.043885488 0.019547172 0.41921496
0.044244621 0.019542677 0.41910833
0.044609811 0.019540904 0.41906008
0.044968609 0.019536385 0.41895285
0.045326844 0.019531697 0.41884193
0.045692109 0.019530086 0.41879696
0.046056606 0.019528178 0.41874552
0.046420097 0.019525878 0.41868556
0.046783268 0.019523481 0.41862348
0.047146507 0.019521149 0.41856268
0.04751059 0.019519197 0.41851005
0.047874391 0.019517163 0.41845548
0.048242249 0.0195168 0.41843674
0.04860533 0.019514527 0.41837692
0.048972417 0.019513881 0.41835195
0.049339827 0.019513376 0.41832989
0.049706817 0.019512709 0.41830435
0.05007676 0.019513203 0.41830358
0.026122192 0.020173872 0.4250308
0.026487157 0.020166937 0.4248783
0.026858807 0.020165214 0.42483553
0.027226454 0.020160574 0.42473122
0.027589999 0.020153064 0.42456642
0.027936943 0.02013379 0.42415363
0.028300619 0.020126922 0.4240022
0.028673746 0.02012687 0.42399421
0.029025896 0.020112282 0.42367995
0.029396178 0.020110467 0.42363474
0.029760905 0.020104947 0.42351133
0.03013042 0.020102756 0.42345801
0.030489642 0.020093838 0.42326286
0.030855199 0.020089254 0.42315903
0.0312263 0.020088349 0.42313251
0.031588405 0.020081745 0.42298594
0.031949397 0.020074598 0.42282781
0.032309525 0.020067077 0.42266178
0.032683257 0.020068081 0.42267516
0.033046123 0.020062465 0.42254907
0.033409897 0.020057516 0.42243698
0.03377036 0.020050716 0.42228577
0.034136292 0.020047272 0.42220518
0.034489524 0.020036524 0.42197073
0.034859452 0.0200356 0.42194313
0.035217151 0.020027744 0.42176938
0.035594929 0.02003135 0.42183694
0.03595949 0.020027516 0.42174783
0.036321864 0.020022562 0.42163494
0.036687758 0.020019626 0.42156455
0.037051037 0.020015335 0.42146552
0.037403736 0.02000547 0.42124906
0.037766885 0.020001333 0.42115313
0.038138237 0.020001579 0.42114943
0.038491305 0.019992327 0.42094561
0.03885131 0.019986814 0.42082053
0.039216164 0.019983878 0.4207496
0.039584789 0.0199829 0.42071986
0.039946888 0.019978678 0.42062166
0.040295072 0.019967638 0.42037985
0.040659387 0.019964717 0.42030895
0.041016314 0.019958258 0.42016345
0.041386638 0.019958371 0.4201563
0.041749436 0.019954886 0.42007327
0.042101331 0.019946294 0.41988271
0.042466499 0.01994409 0.41982651
0.042822562 0.019937683 0.41968176
0.043188367 0.019935882 0.41963392
0.043547034 0.019930845 0.41951784
0.04389929 0.019922983 0.41934228
0.044259887 0.019919004 0.41924837
0.044622026 0.019915782 0.41917029
0.04497974 0.019910652 0.41905203
0.045339458 0.019906489 0.41895398
0.045703981 0.019904478 0.41890123
0.046063356 0.019900281 0.41880238
0.046421863 0.019895779 0.418697
0.04678895 0.019894993 0.41866976
0.047148835 0.019891182 0.41857883
0.047511417 0.019888559 0.41851282
0.047868781 0.01988381 0.41840199
0.048242312 0.019885795 0.41843277
0.048604876 0.019883268 0.41836852
0.048970856 0.019882161 0.41833413
0.049338754 0.019881848 0.41831627
0.049706612 0.019881519 0.41829813
0.050072245 0.019880313 0.41826141
0.050434526 0.019877803 0.41819718
0.050800059 0.019876605 0.41816047
0.051180825 0.019881338 0.41824847
0.02540458 0.020572904 0.42554978
0.025772795 0.020567872 0.42543945
0.026130158 0.020554448 0.42515546
0.026491109 0.020544184 0.42493677
0.026858792 0.020539351 0.42483035
0.027217869 0.020528164 0.42459241
0.027573284 0.020514553 0.42430428
0.027941257 0.020510525 0.42421424
0.028305622 0.020503987 0.42407227
0.028678387 0.020503625 0.42405793
0.029034344 0.020491414 0.42379841
0.029403735 0.020488869 0.42373878
0.029774312 0.020487204 0.42369723
0.03013942 0.020481866 0.42357966
0.030500006 0.02047362 0.42340186
0.030868046 0.020470517 0.42333037
0.031236516 0.020467769 0.42326614
0.031595379 0.020458868 0.42307454
0.031958196 0.020452701 0.42293942
0.032329582 0.020452097 0.4229193
0.032695502 0.020448091 0.42282873
0.033059698 0.020443106 0.42271787
0.033419192 0.020435357 0.42254978
0.033789311 0.020434203 0.42251793
0.034156311 0.020431209 0.42244801
0.034514431 0.020423029 0.42227072
0.034884699 0.020422129 0.42224389
0.035229918 0.020406742 0.4219175
0.035603318 0.020407828 0.42193162
0.03596738 0.020403594 0.42183563
0.03633745 0.020402821 0.42181113
0.036696773 0.020396087 0.42166337
0.03705696 0.020389967 0.42152816
0.037429206 0.020390535 0.4215312
0.037774 0.020376286 0.42122781
0.038141359 0.020374363 0.42117918
0.038502034 0.020368949 0.42105824
0.038868181 0.020366499 0.42099857
0.039235301 0.020364601 0.42095023
0.039593786 0.020358298 0.42081073
0.039958797 0.020355437 0.42074233
0.040320255 0.020350834 0.42063788
0.040676598 0.02034376 0.42048222
0.041038174 0.020339405 0.42038268
0.041395817 0.020333195 0.42024478
0.041765761 0.020333085 0.42023289
0.042114798 0.020322887 0.42001238
0.042485002 0.02032299 0.42000473
0.042839188 0.0203155 0.41984004
0.043200068 0.020311281 0.41974291
0.043569114 0.020310942 0.41972589
0.043912631 0.020298809 0.41946507
0.044281799 0.020298636 0.4194513
0.04464018 0.02029356 0.41933617
0.044992402 0.020285791 0.41916534
0.045369327 0.020289196 0.41922531
0.045726694 0.02028387 0.41910481
0.046077099 0.020275567 0.41892269
0.046446491 0.020275682 0.4189145
0.046800561 0.020269161 0.41876906
0.047155719 0.020263208 0.41863534
0.047512822 0.020258177 0.41852057
0.047871076 0.020253714 0.41841742
0.048236672 0.020252397 0.41837928
0.0486058 0.020252574 0.41837189
0.048969712 0.020250589 0.41831976
0.049334053 0.020248812 0.41827184
0.049701359 0.020248268 0.41824934
0.050066546 0.020246878 0.41820925
0.050431825 0.020245543 0.41817024
0.050801441 0.020245954 0.41816726
0.051164053 0.020243589 0.41810688
0.051528629 0.020242028 0.41806298
0.051902089 0.020243956 0.41809109
0.052275132 0.020245695 0.41811523
0.024670579 0.020960439 0.42581654
0.025045989 0.020960996 0.42582175
0.025401391 0.020945037 0.42549133
0.025768816 0.020939304 0.42536873
0.026120393 0.020921046 0.42499149
0.026485231 0.020913776 0.42483744
0.02685448 0.02091014 0.42475715
0.027220115 0.020903833 0.42462245
0.027591355 0.020901937 0.42457733
0.02795195 0.02089214 0.42437157
0.028312439 0.020882521 0.42416942
0.028682839 0.020880364 0.42411876
0.029053003 0.020878095 0.42406577
0.029414561 0.020869778 0.42388976
0.029782783 0.020866338 0.42381284
0.030152019 0.020863684 0.42375174
0.030512631 0.020855201 0.42357218
0.030876705 0.02084926 0.42344418
0.031246392 0.020847203 0.42339498
0.031613074 0.020843217 0.42330655
0.03198126 0.020840304 0.42323977
0.032349735 0.02083764 0.42317805
0.032705836 0.020827156 0.42295742
0.033075139 0.020825224 0.42291036
0.033433653 0.020816619 0.42272773
0.033803869 0.020815402 0.42269507
0.03416279 0.020807337 0.42252326
0.034526926 0.020802585 0.42241865
0.034891155 0.020797994 0.42231721
0.03525652 0.020794166 0.4222312
0.035612285 0.020784819 0.42203304
0.035975549 0.02077999 0.42192656
0.036344651 0.0207786 0.42188987
0.036724679 0.020783423 0.42197919
0.037065126 0.02076597 0.42161617
0.037433077 0.020764122 0.42156991
0.037798449 0.020760898 0.42149562
0.038151111 0.020750817 0.42128208
0.038522433 0.020750983 0.42127648
0.038881976 0.02074486 0.42114314
0.039253272 0.020745067 0.42113826
0.039607592 0.02073638 0.42095271
0.03997891 0.020736672 0.42094931
0.040335245 0.020729257 0.42078948
0.040689871 0.020721108 0.4206146
0.04105369 0.020717746 0.42053688
0.041408334 0.02070985 0.42036706
0.041775599 0.020708358 0.42032713
0.042131446 0.020701278 0.42017367
0.042499546 0.020700287 0.42014378
0.042857058 0.020694204 0.42001045
0.043214645 0.020688258 0.41987982
0.043574516 0.020683499 0.41977319
0.043940682 0.020681782 0.41972828
0.044302728 0.020678172 0.4196448
0.044661235 0.020672979 0.41952923
0.045023672 0.020669684 0.41945198
0.045372896 0.020660417 0.41925356
0.045736928 0.020657994 0.41919392
0.046109095 0.020659251 0.41920888
0.046456613 0.02064953 0.41900107
0.046825182 0.020649251 0.41898468
0.047168706 0.020638013 0.41874593
0.047524944 0.020632476 0.4186227
0.047891613 0.020631509 0.41859224
0.048247971 0.020626154 0.41847259
0.04860751 0.020622229 0.41838193
0.048970606 0.02061986 0.41832274
0.049336944 0.020618882 0.41829172
0.049701534 0.020617193 0.41824618
0.050066952 0.020615868 0.41820797
0.050426748 0.020612266 0.41812351
0.050794758 0.02061205 0.4181076
0.051164452 0.020612514 0.41810548
0.051530968 0.020611702 0.41807735
0.051893663 0.020609383 0.41801861
0.052261718 0.020609207 0.41800329
0.05264046 0.020613223 0.41807291
0.053028043 0.020620618 0.41821095
0.023945522 0.021357225 0.42625833
0.0243125 0.021350067 0.42610952
0.024677206 0.021341158 0.42592576
0.025040584 0.021331387 0.42572469
0.025393864 0.021313427 0.42536008
0.025763365 0.021309402 0.4252736
0.026128655 0.021302063 0.4251208
0.02649137 0.021292862 0.42493075
0.026861245 0.021289591 0.42485905
0.027228296 0.021284202 0.42474496
0.0275988 0.02128162 0.42468679
0.02796033 0.021272281 0.42449373
0.028329296 0.02126877 0.42441687
0.028694317 0.021262424 0.42428342
0.029062869 0.021258827 0.42420468
0.029431166 0.021255137 0.42412403
0.029795868 0.021248976 0.42399397
0.030162491 0.021244317 0.42389387
0.030524269 0.021236403 0.4237287
0.030892229 0.021232927 0.42365199
0.031252425 0.021224264 0.42347175
0.031620048 0.021220786 0.42339486
0.031987809 0.021217488 0.42332146
0.032351788 0.021211777 0.42319986
0.032714043 0.021205084 0.4230586
0.033089288 0.021206861 0.42308629
0.033456113 0.021203268 0.42300668
0.033809971 0.021191623 0.42276642
0.034176365 0.021188006 0.42268619
0.034545258 0.021185998 0.422638
0.034915056 0.021184579 0.42260149
0.035277646 0.021178864 0.42247924
0.035636328 0.02117095 0.42231297
0.036000017 0.021166136 0.42220855
0.036361955 0.021160409 0.42208579
0.036727399 0.021156812 0.4220055
0.037083924 0.021148203 0.42182511
0.03745658 0.021148872 0.4218297
0.037807561 0.021137411 0.4215923
0.038177911 0.021136893 0.42157307
0.038535535 0.021129411 0.42141485
0.038902789 0.021127298 0.42136371
0.039260697 0.0211202 0.42121297
0.039622527 0.021115324 0.42110658
0.039989524 0.021113263 0.42105621
0.040356789 0.021111382 0.42100933
0.040717617 0.0211062 0.42089659
0.041080572 0.021102203 0.42080736
0.041429237 0.021091003 0.42057446
0.041788477 0.021085339 0.42045185
0.042157643 0.021084733 0.42043009
0.042516951 0.021079252 0.42031097
0.042883374 0.021077367 0.4202635
0.043243494 0.021072438 0.42015529
0.043610267 0.02107081 0.42011279
0.043958098 0.021060135 0.41988984
0.044317268 0.021055019 0.41977772
0.044676062 0.021049818 0.41966376
0.045032494 0.021043595 0.41952935
0.045393169 0.021039438 0.41943613
0.045762591 0.021039374 0.41942436
0.046114765 0.021031441 0.41925567
0.046466794 0.021023568 0.41908813
0.046836488 0.02102375 0.41908106
0.047191653 0.021017458 0.41894493
0.047552668 0.021013848 0.41886213
0.04791053 0.021008912 0.41875285
0.048265584 0.021002829 0.41862062
0.048609573 0.020992061 0.41839492
0.048979547 0.02099259 0.41839439
0.049340401 0.020989234 0.41831625
0.049707919 0.02098874 0.4182952
0.050073501 0.020987442 0.41825798
0.05043108 0.020982832 0.41815469
0.050794419 0.020980669 0.41810009
0.05116199 0.020980272 0.41808066
0.051526636 0.020978691 0.4180375
0.051900476 0.020980846 0.41806877
0.052262273 0.02097814 0.41800305
0.052633826 0.020979358 0.41801551
0.053001255 0.020978928 0.41799501
0.053378217 0.020982251 0.41804919
0.023216212 0.02175222 0.4266496
0.023588415 0.021749208 0.42658478
0.023946358 0.021733349 0.42626792
0.02431106 0.021724019 0.42607901
0.024674917 0.021714227 0.42588097
0.025038427 0.021704432 0.42568278
0.025394803 0.021688826 0.42537057
0.02577081 0.021690199 0.42539126
0.026142051 0.02168758 0.42533359
0.026506316 0.021679323 0.42516533
0.026867099 0.021668494 0.42494643
0.027233118 0.021662122 0.42481494
0.027605437 0.021660866 0.42478374
0.027974648 0.02165724 0.42470589
0.028338196 0.021649381 0.42454502
0.028711911 0.021649396 0.42453846
0.029074056 0.021640794 0.42436284
0.029440416 0.02163551 0.42425215
0.029813057 0.021634914 0.42423341
0.030175067 0.021626716 0.4240655
0.030544853 0.021624224 0.42400929
0.030906642 0.021616194 0.42384455
0.031275529 0.021613264 0.4237797
0.031637598 0.021605747 0.42362478
0.031998836 0.021597842 0.42346221
0.03235922 0.021589551 0.42329201
0.032729991 0.021588299 0.42325974
0.033099346 0.021586154 0.42320985
0.033469733 0.021584718 0.42317379
0.033835068 0.021580091 0.42307517
0.034199979 0.021575298 0.42297316
0.034555234 0.021564584 0.42275497
0.034922138 0.021561291 0.42268223
0.035288259 0.021557586 0.42260131
0.035648201 0.021550225 0.42244866
0.036021922 0.021551259 0.42246047
0.036383767 0.021545239 0.42233396
0.03674712 0.021540225 0.42222708
0.037105974 0.021532698 0.42207092
0.037469774 0.021528166 0.42197332
0.037844963 0.021530198 0.42200434
0.03819621 0.021518705 0.42177019
0.03855354 0.021510826 0.42160678
0.038910419 0.021502845 0.42144135
0.039285578 0.021505028 0.42147496
0.039647251 0.021499852 0.42136434
0.039988853 0.021483991 0.42104423
0.040363282 0.021485893 0.42107216
0.040728908 0.021483118 0.42100835
0.041102547 0.021484582 0.42102754
0.041455049 0.021475069 0.42083153
0.041815232 0.021469669 0.42071608
0.042170592 0.02146191 0.42055428
0.042530838 0.021456748 0.42044339
0.04289683 0.021454552 0.42039043
0.043268166 0.021455042 0.4203901
0.043619342 0.021445611 0.42019531
0.043977309 0.021439651 0.42006841
0.044333793 0.021433074 0.41992939
0.044702072 0.021432258 0.41990316
0.045056738 0.021424985 0.41975033
0.045411889 0.021418054 0.41960418
0.045786034 0.021420129 0.41963431
0.046139847 0.021412728 0.41947886
0.046493854 0.021405537 0.41932732
0.046860754 0.021404348 0.41929337
0.047223739 0.021401403 0.41922492
0.047569804 0.021390894 0.4190082
0.04793673 0.021389857 0.41897699
0.048289999 0.02138279 0.41882756
0.048653234 0.021380203 0.4187659
0.049006961 0.021373514 0.41862375
0.049366403 0.021369396 0.41853189
0.049722049 0.021363711 0.41840926
0.050074026 0.02135654 0.41825753
0.050436106 0.021353753 0.41819155
0.050799116 0.021351403 0.418134
0.051159758 0.021348091 0.41805762
0.051525824 0.021347076 0.41802612
0.051895134 0.021347411 0.41802096
0.052264027 0.021347569 0.41801229
0.05263266 0.021347618 0.41800144
0.052998047 0.021346362 0.41796494
0.053368907 0.021347312 0.41797155
0.053738419 0.021347709 0.41796729
0.054107293 0.021347854 0.41795799
0.022857027 0.022143699 0.42695403
0.02322798 0.022139139 0.42686048
0.023577722 0.022114832 0.42638606
0.023943095 0.022105714 0.42620444
0.024310904 0.022099094 0.4260709
0.024685048 0.022098346 0.42605048
0.025046144 0.022086116 0.42580864
0.025415935 0.022081794 0.4257192
0.025779214 0.022072027 0.42552465
0.026143784 0.02206363 0.42535645
0.026515869 0.022061719 0.42531323
0.026879469 0.022052901 0.42513677
0.027245039 0.022045918 0.4249956
0.027614327 0.022042092 0.42491525
0.027980791 0.022036145 0.4247939
0.028351994 0.022034034 0.42474645
0.028720658 0.022030035 0.42466247
0.029093616 0.022029391 0.4246431
0.029457396 0.022021895 0.42449161
0.029823922 0.022016617 0.42438278
0.030185049 0.022007536 0.42420053
0.030555328 0.022005264 0.42414951
0.03092183 0.022000361 0.42404765
0.031280331 0.021989951 0.42383957
0.031656444 0.021992018 0.42387193
0.032012042 0.021979954 0.42363185
0.032377843 0.021975089 0.4235304
0.032749861 0.021974508 0.42351151
0.033121955 0.021973994 0.42349374
0.033480037 0.021964295 0.42329895
0.033839982 0.021956015 0.42313141
0.034215175 0.021957707 0.42315593
0.034571588 0.021947436 0.42294991
0.034927677 0.021937182 0.4227441
0.035306863 0.021941496 0.42281896
0.035663217 0.021931678 0.42262146
0.036029041 0.021927832 0.42253888
0.03639381 0.021923425 0.42244545
0.036763109 0.021921808 0.42240569
0.037118617 0.021912083 0.42220965
0.037492804 0.021913467 0.42222759
0.037847389 0.021903479 0.42202631
0.038208414 0.021897376 0.42189983
0.038567085 0.021890055 0.42174983
0.038939245 0.021890456 0.42174846
0.03930527 0.021887437 0.4216812
0.039650321 0.021872899 0.4213919
0.040017616 0.021870788 0.42134199
0.0403837 0.021868061 0.42128012
0.04074689 0.021863833 0.42118922
0.04111708 0.021863397 0.42117137
0.041469578 0.021853652 0.42097399
0.04184518 0.021856144 0.42101237
0.042194821 0.021845153 0.42079088
0.042552538 0.021838496 0.4206529
0.04291258 0.021833137 0.4205398
0.043271005 0.021827053 0.42041269
0.043643158 0.02182794 0.42041975
0.044002492 0.021822454 0.420304
0.044349022 0.021810763 0.42006862
0.044720974 0.021811664 0.42007574
0.045081265 0.021806907 0.41997382
0.045429111 0.02179626 0.41975838
0.045800272 0.02179688 0.41975987
0.046168797 0.021796245 0.41973707
0.046519574 0.021787308 0.41955435
0.046879105 0.021782577 0.41945258
0.047247142 0.021781845 0.41942772
0.047587611 0.021768514 0.41916016
0.047956321 0.021768201 0.41914329
0.048321333 0.021766232 0.41909435
0.048674066 0.021758804 0.41894028
0.049041562 0.021758035 0.41891438
0.049402565 0.021754421 0.41883358
0.049752325 0.021745944 0.41865912
0.050099943 0.021736665 0.41846913
0.050457146 0.021731649 0.41836116
0.050824758 0.021731153 0.41834012
0.051167972 0.021720313 0.41811988
0.05153437 0.021719392 0.41809058
0.051902965 0.021719407 0.41807917
0.052261397 0.0217152 0.41798639
0.052629482 0.021715032 0.41797134
0.052997835 0.021714978 0.41795838
0.053370409 0.021716643 0.41797844
0.053737167 0.021715933 0.41795272
0.054106187 0.02171614 0.41794458
0.05446966 0.021714136 0.41789383
0.054843873 0.02171641 0.4179253
0.055210475 0.021715658 0.41789851
0.022127466 0.022541989 0.42738277
0.022493858 0.022532254 0.42719275
0.022856642 0.022519289 0.42694134
0.023218429 0.022505775 0.42667946
0.02357417 0.022486923 0.42631632
0.023946676 0.022484403 0.42626277
0.024318056 0.022480918 0.42619079
0.024685645 0.022474092 0.42605537
0.025052045 0.022466399 0.42590347
0.025424756 0.022464512 0.42586154
0.025784269 0.022451185 0.4256027
0.026156291 0.022448976 0.42555454
0.026524818 0.022443872 0.4254514
0.026897201 0.022442129 0.42541188
0.027270492 0.022441179 0.42538732
0.027629469 0.022428634 0.42514288
0.027995702 0.022422235 0.42501491
0.028364725 0.02241821 0.42493185
0.028727373 0.022409318 0.42475644
0.029103303 0.022410883 0.42477915
0.029471878 0.022406813 0.42469499
0.029837614 0.022400716 0.42457232
0.030201571 0.022393448 0.42442736
0.030566331 0.022386948 0.42429695
0.030929312 0.022379316 0.42414495
0.031298947 0.022376625 0.42408651
0.031668413 0.022373877 0.42402694
0.032036763 0.022370411 0.42395368
0.032400016 0.022363508 0.42381522
0.032756943 0.022352448 0.42359784
0.033132937 0.0223545 0.42362893
0.033495355 0.022347445 0.42348734
0.033859123 0.022341438 0.42336556
0.034218784 0.022332883 0.42319536
0.034588188 0.022330798 0.4231478
0.034955066 0.022327149 0.4230704
0.035319902 0.02232228 0.42296991
0.035667837 0.022306945 0.42267099
0.036043648 0.022309186 0.42270496
0.036413319 0.022307612 0.42266667
0.036768619 0.02229736 0.4224638
0.037135966 0.022294544 0.42240179
0.037497886 0.022288557 0.42227963
0.037865449 0.022286009 0.42222252
0.038233623 0.022283865 0.42217302
0.038594037 0.022277284 0.42203939
0.038947906 0.022267086 0.42183715
0.039311603 0.022262648 0.42174393
0.03967439 0.022257783 0.42164254
0.040034745 0.022251653 0.42151719
0.040406436 0.02225188 0.42151216
0.040764228 0.02224452 0.42136329
0.041121781 0.022237159 0.42121437
0.041483354 0.022232087 0.42110872
0.04184752 0.022228481 0.42103076
0.042215459 0.022226928 0.4209916
0.042578876 0.02222304 0.42090815
0.042929344 0.022212517 0.420699
0.043301105 0.022213098 0.42070004
0.043656524 0.022205357 0.42054343
0.044018701 0.022201153 0.4204537
0.044376969 0.022195069 0.42032829
0.044739351 0.02219112 0.42024329
0.045091175 0.022182046 0.42006108
0.045455903 0.022179414 0.42000088
0.045817636 0.022175377 0.41991395
0.046173658 0.022168659 0.4197762
0.04653684 0.022165462 0.41970509
0.046906076 0.02216517 0.41968888
0.047253549 0.022154685 0.41947955
0.04762429 0.022155186 0.41947821
0.047981586 0.022149472 0.41935909
0.048332572 0.022140954 0.41918686
0.048685648 0.022133514 0.41903499
0.049054358 0.022133244 0.41901872
0.049412828 0.022128388 0.4189156
0.04977965 0.022127317 0.4188841
0.050130352 0.02211915 0.41871813
0.050489973 0.022115011 0.41862836
0.050845362 0.022109091 0.4185048
0.051194161 0.022100406 0.41832888
0.051557001 0.022097869 0.41826919
0.051900879 0.022087298 0.41805744
0.052264269 0.022085119 0.41800445
0.052636981 0.022086881 0.41802597
0.053000547 0.02208481 0.41797486
0.053367142 0.022084018 0.41794792
0.053735267 0.022083869 0.41793302
0.05410441 0.022084136 0.41792592
0.054471973 0.022083757 0.41790658
0.054843359 0.022084927 0.41791642
0.055207711 0.022083262 0.41787261
0.05558145 0.022085354 0.41789979
0.021761242 0.022928739 0.42757675
0.022131843 0.02292286 0.42746171
0.022487016 0.022901464 0.42705721
0.022848669 0.022887263 0.42678684
0.023208501 0.022871725 0.42649144
0.023581402 0.02286936 0.42644155
0.023954101 0.022866873 0.42638937
0.024324877 0.022862654 0.42630482
0.024696514 0.022859359 0.4262374
0.025060156 0.022848874 0.42603585
0.025430728 0.022844926 0.42595604
0.025802299 0.022841975 0.4258948
0.026167659 0.022833686 0.42573398
0.026535109 0.022827432 0.42561096
0.026900748 0.022819815 0.42546248
0.027272396 0.022817433 0.42541152
0.027636074 0.022808539 0.42523909
0.028015137 0.022812409 0.42530453
0.028373901 0.022799866 0.42506391
0.028737335 0.022791352 0.42489833
0.029108888 0.022789411 0.42485523
0.02948482 0.022790907 0.42487606
0.02984594 0.022781059 0.42468539
0.030213669 0.022776436 0.42459202
0.030579675 0.022770643 0.42447677
0.030945327 0.022764729 0.42435917
0.031313758 0.022760976 0.42428181
0.031676024 0.022752883 0.42412344
0.032038692 0.022745267 0.42397389
0.032410491 0.022744231 0.42394689
0.032779373 0.022741189 0.42388254
0.033143323 0.022734838 0.42375633
0.033510327 0.022730701 0.42367133
0.033872891 0.022723673 0.42353234
0.034236826 0.022717712 0.42341322
0.034601849 0.022712586 0.42330956
0.034969471 0.022709263 0.42323941
0.0353374 0.022706205 0.42317414
0.035696607 0.022697665 0.42300662
0.036058359 0.022690903 0.42287216
0.036422383 0.022685695 0.4227666
0.036789589 0.022682555 0.42269948
0.037150189 0.022675442 0.42255825
0.037520465 0.02267432 0.42252862
0.037879951 0.022666764 0.42237899
0.0382438 0.022661937 0.42228019
0.038599189 0.022652239 0.42209047
0.038969509 0.022651408 0.42206591
0.039324645 0.022641843 0.42187864
0.039687492 0.022636861 0.42177659
0.040063526 0.022639422 0.42181501
0.040422406 0.022632329 0.42167354
0.040780474 0.022624914 0.42152593
0.041144747 0.02262105 0.42144445
0.041509498 0.02261751 0.42136893
0.041868001 0.022610661 0.42123166
0.042239498 0.022610886 0.42122614
0.042583585 0.022596564 0.42094952
0.042950463 0.022594476 0.42090079
0.043311279 0.022589266 0.42079374
0.043686897 0.022591796 0.42083085
0.044032827 0.022579059 0.42058349
0.044402171 0.022578442 0.42056182
0.044763926 0.022574009 0.42046899
0.045110606 0.022562107 0.420237
0.045481201 0.022562264 0.42022949
0.045832876 0.022553105 0.42004848
0.046205454 0.022554299 0.42006016
0.046566308 0.022549795 0.41996565
0.046912257 0.022538204 0.4197391
0.047286082 0.022540078 0.41976324
0.047621053 0.022523548 0.41944459
0.04800009 0.022527954 0.41951573
0.048342496 0.022515232 0.41926783
0.048703011 0.022511071 0.41917932
0.049064763 0.022507541 0.41910249
0.049420692 0.022501415 0.4189772
0.049798336 0.022505192 0.41903621
0.050143581 0.022494379 0.41882357
0.050505139 0.022490988 0.41874903
0.050860666 0.022484977 0.41862568
0.051219571 0.022480542 0.41853151
0.051576331 0.022475231 0.41842103
0.051938023 0.022472128 0.41835156
0.052276507 0.022459101 0.41809729
0.052654203 0.022462983 0.41815773
0.053003516 0.022454787 0.41799322
0.053374715 0.022455912 0.41800219
0.053738717 0.022454016 0.41795483
0.054105576 0.022453329 0.41792995
0.054472912 0.022452846 0.41790882
0.054838941 0.02245184 0.41787776
0.055209775 0.022452796 0.41788325
0.055579793 0.022453411 0.41788229
0.055953506 0.022455504 0.41790876
0.056327298 0.022457598 0.41793516
0.021391328 0.023312181 0.42770359
0.021759331 0.023303201 0.42753348
0.022119543 0.023286324 0.42721841
0.022489537 0.023280136 0.42709941
0.022859747 0.023274371 0.42698807
0.023224544 0.023263372 0.42678061
0.023594068 0.02325738 0.42666495
0.02395528 0.023243513 0.42640471
0.024334218 0.023247005 0.42646289
0.024700115 0.023238121 0.42629394
0.025067788 0.023231151 0.42615998
0.025437934 0.023226643 0.42607117
0.025811359 0.023225216 0.42603877
0.026174594 0.023214791 0.42584121
0.026548972 0.023214405 0.42582777
0.026918231 0.023209613 0.42573336
0.027287543 0.023204999 0.42564225
0.027653782 0.023197934 0.425506
0.02802111 0.023191955 0.42538965
0.028391292 0.023188466 0.42531887
0.02875472 0.023179624 0.42514983
0.029124353 0.023175946 0.42507541
0.029490167 0.023169363 0.42494762
0.029859364 0.023165567 0.42487091
0.03022662 0.023160374 0.42476851
0.03059369 0.023155171 0.42466581
0.030958822 0.023148643 0.42453876
0.031321514 0.023140468 0.42438143
0.031694721 0.023140166 0.42436835
0.032058381 0.023132974 0.42422891
0.032420974 0.023125194 0.42407855
0.032793023 0.023124253 0.42405358
0.03315429 0.023115819 0.42389113
0.033519436 0.023110248 0.42378107
0.033888429 0.023107421 0.42372122
0.034246866 0.023097532 0.42353189
0.034618925 0.023096951 0.42351308
0.034980778 0.023089645 0.4233709
0.03534361 0.023083128 0.42324314
0.035716489 0.02308324 0.42323685
0.036082845 0.023079179 0.42315397
0.036438983 0.023068734 0.4229539
0.036795307 0.023058617 0.42275983
0.037166685 0.023058036 0.42274055
0.037532363 0.02305397 0.42265725
0.037890956 0.023045674 0.42249635
0.038254041 0.023040241 0.42238784
0.038616616 0.023034614 0.42227569
0.038988698 0.023034707 0.42226836
0.039336994 0.023020882 0.4220058
0.03970829 0.023020646 0.42199227
0.040066224 0.023012741 0.4218381
0.040430143 0.023008388 0.42174897
0.040790226 0.023001947 0.4216215
0.041154109 0.022997752 0.42153507
0.0415272 0.022998724 0.4215433
0.041882038 0.022989664 0.42136762
0.04224794 0.022986783 0.42130506
0.042610273 0.022982026 0.42120808
0.042965714 0.022973664 0.42104495
0.043328639 0.022969415 0.42095715
0.043687224 0.022962956 0.42082873
0.044051077 0.022959353 0.42075258
0.044407748 0.022952095 0.42060944
0.044766959 0.022946259 0.42049226
0.045128681 0.022941796 0.42040011
0.04549196 0.022938188 0.42032364
0.045844231 0.022929138 0.42014733
0.046209671 0.022926765 0.4200933
0.04657973 0.022926703 0.42008156
0.046932627 0.022918256 0.41991609
0.047295298 0.022914682 0.41983989
0.047665086 0.022914583 0.41982722
0.048014715 0.022904871 0.41963837
0.048370909 0.022898415 0.41950908
0.048737526 0.022896951 0.41947123
0.049086642 0.022887353 0.41928425
0.049449839 0.02288441 0.41921914
0.049807463 0.022878952 0.41910791
0.050171018 0.022876278 0.41904756
0.050538968 0.022875633 0.41902435
0.050887365 0.022866214 0.41884029
0.051232327 0.022855392 0.41863057
0.051595181 0.022852654 0.41856879
0.051955089 0.022848658 0.41848391
0.052313868 0.022844225 0.41839096
0.05268462 0.022845045 0.41839415
0.053028319 0.022834206 0.41818371
0.053377904 0.022826035 0.4180221
0.053745698 0.022825705 0.41800404
0.05410637 0.022822376 0.41793096
0.054468486 0.0228197 0.41786975
0.054839961 0.022820955 0.41788051
0.055213343 0.02282298 0.41790521
0.055578958 0.022821788 0.41787097
0.055948969 0.022822404 0.41786981
0.056329593 0.022827314 0.41794717
0.056702547 0.022829069 0.41796666
0.02102825 0.023703802 0.42797384
0.021397403 0.023695527 0.42781919
0.021750186 0.023669722 0.42734793
0.022125619 0.023669025 0.42732996
0.022501554 0.023668878 0.42732185
0.022862922 0.023653667 0.42704159
0.02322788 0.023642601 0.42683616
0.023603678 0.023642743 0.42683297
0.0239709 0.023634424 0.42667699
0.024339829 0.023628021 0.42655548
0.02471404 0.02362686 0.42652854
0.025080973 0.023618879 0.42637843
0.025456609 0.02361921 0.42637828
0.025817471 0.023606025 0.42613393
0.026187718 0.02360167 0.42604905
0.026556129 0.023595806 0.42593685
0.026924441 0.023590023 0.42582598
0.027292782 0.023584422 0.42571828
0.027661074 0.023578929 0.42561254
0.028034704 0.023578072 0.42559037
0.028401192 0.023571311 0.42546153
0.028771816 0.023568112 0.42539698
0.029137431 0.023560947 0.42526069
0.029512577 0.023561571 0.42526492
0.029876756 0.023553533 0.42511272
0.030238738 0.023543987 0.42493325
0.030607091 0.023539567 0.42484626
0.030974099 0.023534238 0.4247427
0.03134032 0.02352844 0.42463064
0.031703375 0.023520436 0.42447868
0.032073803 0.023518018 0.42442748
0.03243567 0.02350945 0.42426521
0.032802422 0.023504581 0.42416963
0.033161249 0.023494206 0.42397454
0.033531338 0.023491951 0.42392597
0.033902314 0.02349036 0.42388928
0.034276173 0.023490781 0.42388886
0.034630138 0.023477707 0.42364481
0.034995452 0.02347252 0.42354301
0.035359442 0.023466565 0.42342725
0.035720792 0.023458999 0.42328238
0.036091384 0.023457596 0.42324865
0.036461093 0.023455657 0.42320514
0.036825795 0.023450563 0.42310464
0.037172984 0.023434535 0.42280677
0.037546162 0.023435043 0.42280722
0.037914164 0.023432344 0.4227497
0.038274303 0.023424881 0.42260617
0.038642652 0.023422543 0.422555
0.039000049 0.023413669 0.4223859
0.039359801 0.023406368 0.42224506
0.039730202 0.023405476 0.42221975
0.040102571 0.023405746 0.42221537
0.040456329 0.023395253 0.42201671
0.040820889 0.023391137 0.42193305
0.041184034 0.023386294 0.42183614
0.041530725 0.023372276 0.42157373
0.041901216 0.02337178 0.42155516
0.042259175 0.023364367 0.42141172
0.04262498 0.023361383 0.42134809
0.042974934 0.023349836 0.42112994
0.043352041 0.023353115 0.42117915
0.043708649 0.023345388 0.42102975
0.044075243 0.023343083 0.4209781
0.044440564 0.023340145 0.42091492
0.0447965 0.023332367 0.42076442
0.045146983 0.023321899 0.42056531
0.04550603 0.02331599 0.42044836
0.045861363 0.023308288 0.42029902
0.046222869 0.023303825 0.42020801
0.046594083 0.023304285 0.42020565
0.046953529 0.023298899 0.42009786
0.047307353 0.023290828 0.4199416
0.047665078 0.023284789 0.41982189
0.048026856 0.023280809 0.41973919
0.048392583 0.023278788 0.41969177
0.048756167 0.023275776 0.41962641
0.049108442 0.023267448 0.41946515
0.049466193 0.023261821 0.41935253
0.049820181 0.023254523 0.41920969
0.05018305 0.023251444 0.41914284
0.050549623 0.023250114 0.41910747
0.050911624 0.023246717 0.41903475
0.051278733 0.023245683 0.41900459
0.051617552 0.023231931 0.41874507
0.051974744 0.023226587 0.41863704
0.05232475 0.023218127 0.41847277
0.052701291 0.02322148 0.4185214
0.053051099 0.023213085 0.41835818
0.053401977 0.023205273 0.41820541
0.053770911 0.023205362 0.41819498
0.054122042 0.023197817 0.41804689
0.054480888 0.023193659 0.41795975
0.054842204 0.023190599 0.4178924
0.055213146 0.023191625 0.41789854
0.055580918 0.023191314 0.41788056
0.055955105 0.023193667 0.41791046
0.056326073 0.023194661 0.41791585
0.056699172 0.02319652 0.41793671
0.05706862 0.023196865 0.41793025
0.057459306 0.023205785 0.41807818
0.020308524 0.024120476 0.42868584
0.020674065 0.024106823 0.4284381
0.02102818 0.024080578 0.42796651
0.021388153 0.024061846 0.42762837
0.021760253 0.02405717 0.42753991
0.022137076 0.024057781 0.42754534
0.022502584 0.024046281 0.4273355
0.022875208 0.02404264 0.42726523
0.023241861 0.024032941 0.42708722
0.023616299 0.024031473 0.42705536
0.023985071 0.024024375 0.42692339
0.024351485 0.02401517 0.42675391
0.024724074 0.024012242 0.42669588
0.025091501 0.024004463 0.42655161
0.025461784 0.023999605 0.42645913
0.025839223 0.024001531 0.42648715
0.026198644 0.023986913 0.42622107
0.026568035 0.023981702 0.42612207
0.02693948 0.023978461 0.42605805
0.027300525 0.023966182 0.42583334
0.027671047 0.02396244 0.42576024
0.028041704 0.023958916 0.42569092
0.028411688 0.023954919 0.42561308
0.028781524 0.023950897 0.42553478
0.029149188 0.023945197 0.42542657
0.029518142 0.023940688 0.42533943
0.029884143 0.023933925 0.42521214
0.030246146 0.023924168 0.4250316
0.030615738 0.023920579 0.42496061
0.030982798 0.023915119 0.42485631
0.031350981 0.023910651 0.42476946
0.031721558 0.023908088 0.42471647
0.032077637 0.023894787 0.42447257
0.032449525 0.023893429 0.4244408
0.032821991 0.023892527 0.42441702
0.033181325 0.023882193 0.42422566
0.033550035 0.023878757 0.42415673
0.033917483 0.023874516 0.42407343
0.034275826 0.023864022 0.42387897
0.034640998 0.023858458 0.42377204
0.0350153 0.023859235 0.42377761
0.035374537 0.023849837 0.42360249
0.035736702 0.02384259 0.42346537
0.036106762 0.023840703 0.42342344
0.036464602 0.023830872 0.4232403
0.036843158 0.023834636 0.4232986
0.037188008 0.023816742 0.42297211
0.037567616 0.023821242 0.42304328
0.03793646 0.023818891 0.42299271
0.038292497 0.02380863 0.42280158
0.038651444 0.023800354 0.42264563
0.03902366 0.023800325 0.42263612
0.039382081 0.023791967 0.42247856
0.039732177 0.023778783 0.42223525
0.04010934 0.023781892 0.42228115
0.040472899 0.023776952 0.42218411
0.040831905 0.023769449 0.42204145
0.041198544 0.023766486 0.42197931
0.041553661 0.023756986 0.42180109
0.041912865 0.023749974 0.42166689
0.042277914 0.023746364 0.4215931
0.042642266 0.023742434 0.42151353
0.043001957 0.023735994 0.42138934
0.043358054 0.023727702 0.4212321
0.043718908 0.023722125 0.42112318
0.044102639 0.023728956 0.42123431
0.044462219 0.023722788 0.42111459
0.044807836 0.023709329 0.42086545
0.045173202 0.023706459 0.42080417
0.045535203 0.023701882 0.42071253
0.045882352 0.02368971 0.420486
0.046260606 0.023693662 0.42054567
0.046613432 0.023684638 0.42037481
0.04697445 0.02367988 0.42027968
0.047330905 0.023672914 0.42014533
0.047686104 0.023665434 0.42000172
0.048061121 0.023667829 0.42003334
0.048429534 0.023666959 0.4200069
0.048781615 0.023658182 0.4198401
0.049128782 0.023647171 0.41963354
0.04949405 0.023644973 0.41958335
0.049853697 0.023640143 0.41948634
0.050204873 0.023631396 0.41931981
0.050572656 0.023630535 0.41929314
0.050919481 0.023619965 0.41909409
0.051282175 0.023616856 0.41902739
0.051664561 0.023622796 0.41912112
0.052020468 0.023616629 0.41900003
0.052349225 0.023598308 0.41866323
0.052712139 0.023595538 0.41860223
0.053063035 0.023587462 0.41844705
0.053432874 0.02358786 0.41844213
0.053784762 0.023580382 0.41829747
0.05414762 0.02357778 0.41823918
0.054491881 0.023567174 0.41803882
0.054854374 0.02356454 0.41797987
0.055217426 0.02356218 0.41792569
0.055584546 0.023561575 0.41790259
0.055957027 0.023563238 0.41791961
0.056330793 0.023565415 0.41794565
0.056701809 0.023566423 0.41795093
0.057073537 0.023567706 0.41796103
0.057447605 0.023569936 0.41798782
0.057818465 0.023570832 0.41799086
0.058206219 0.023578556 0.41811496
0.019936161 0.02450395 0.42878979
0.020306401 0.024495387 0.42863494
0.020660926 0.024468526 0.42815983
0.021032801 0.024462806 0.42805454
0.02139804 0.0244497 0.42781997
0.021770211 0.024444833 0.42772949
0.022140455 0.024438007 0.42760465
0.022509631 0.024430251 0.42746338
0.022881337 0.024425445 0.42737374
0.023249386 0.024416953 0.42721951
0.023620967 0.024412384 0.42713383
0.023992421 0.02440783 0.4270483
0.024361564 0.024401098 0.42692465
0.024733234 0.024397068 0.42684811
0.025106495 0.024394698 0.42680061
0.025476402 0.024389191 0.42669809
0.02584504 0.024382643 0.42657733
0.026214596 0.024377136 0.42647469
0.026583208 0.02437092 0.42635956
0.026942022 0.024356022 0.42609245
0.027313305 0.024352649 0.42602688
0.027678544 0.024344048 0.42586979
0.028052162 0.02434295 0.42584389
0.028417431 0.024334731 0.4256933
0.028786458 0.024329903 0.42560199
0.029158877 0.024328023 0.4255622
0.029525546 0.024321463 0.42544037
0.029903311 0.024324084 0.42547911
0.030260371 0.02431001 0.42522576
0.030629449 0.024305817 0.42514518
0.03099129 0.024296053 0.42496702
0.031361684 0.024293147 0.42490876
0.031731274 0.024289688 0.42484078
0.032109477 0.02429283 0.42488816
0.032466944 0.024280392 0.42466298
0.032823756 0.024267755 0.42443421
0.033195034 0.024265975 0.42439523
0.033566028 0.024264028 0.4243533
0.033926673 0.024254724 0.42418265
0.034299552 0.024254274 0.42416671
0.034663536 0.024247611 0.42404205
0.035027955 0.024241392 0.4239251
0.035390262 0.024233861 0.42378509
0.035764497 0.024234563 0.42378905
0.036122266 0.024224212 0.42359957
0.036488615 0.024219766 0.42351332
0.036842238 0.024207052 0.42328241
0.037222639 0.024212001 0.42336032
0.037582003 0.024203314 0.42319965
0.037942227 0.024195343 0.42305145
0.038308956 0.024191635 0.42297772
0.038672201 0.024185818 0.42286703
0.039037876 0.024181614 0.42278448
0.03940244 0.02417681 0.42269138
0.039763279 0.024169832 0.42256019
0.040123977 0.0241629 0.42242968
0.040484887 0.024156218 0.42230353
0.040859669 0.024157861 0.42232284
0.041220296 0.02415118 0.42219654
0.041580018 0.024144096 0.42206311
0.041936163 0.024135076 0.42189574
0.04229648 0.024128597 0.42177281
0.042652875 0.024120009 0.42161286
0.043021485 0.024118416 0.42157516
0.043392129 0.024117984 0.42155764
0.043748584 0.024109742 0.42140353
0.044109169 0.024103891 0.42129117
0.044479232 0.024103275 0.42127022
0.044837728 0.024096452 0.42114073
0.045202166 0.024092911 0.42106852
0.045553964 0.024082741 0.42088038
0.045911018 0.024075493 0.42074326
0.046280455 0.024074802 0.42072064
0.046629481 0.024063593 0.42051411
0.046994492 0.024060737 0.42045355
0.047360964 0.024058672 0.42040667
0.047716103 0.024050929 0.42026049
0.04808449 0.024049927 0.42023212
0.048427604 0.024036398 0.41998473
0.048793629 0.024034357 0.41993806
0.04914692 0.024026126 0.41978309
0.049517971 0.02402663 0.41978073
0.049877502 0.024021583 0.41968128
0.050254647 0.024025029 0.4197301
0.050636299 0.024030562 0.41981539
0.050994005 0.024024734 0.41970205
0.051352508 0.024019366 0.4195967
0.05172253 0.02401942 0.41958603
0.052040502 0.023995474 0.41915601
0.052425116 0.024002379 0.41926482
0.052771345 0.023991732 0.41906705
0.053134862 0.02398904 0.41900811
0.053497721 0.02398609 0.41894457
0.053834096 0.023971388 0.41867572
0.054165218 0.023954567 0.4183698
0.054509949 0.023943944 0.41817212
0.054875106 0.023942379 0.41813254
0.055237152 0.023939485 0.41806966
0.055605046 0.023939149 0.41805142
0.055961039 0.023933727 0.41794428
0.056332976 0.023935152 0.41795659
0.056703072 0.023935776 0.41795489
0.057077687 0.023938291 0.41798615
0.057449043 0.023939416 0.41799301
0.05781522 0.02393838 0.4179621
0.058190372 0.023941051 0.41799584
0.019568929 0.024894373 0.42901012
0.019935522 0.02488072 0.42876992
0.02029831 0.024862913 0.42845803
0.0206702 0.024856701 0.42834589
0.02103856 0.024846539 0.42816561
0.021408502 0.024838576 0.4280231
0.021781271 0.024834104 0.42794073
0.022150064 0.024825331 0.42778414
0.02252442 0.02482298 0.42773816
0.022888217 0.024809264 0.42749622
0.023261206 0.024805792 0.42743069
0.023629246 0.024797235 0.42727754
0.024001468 0.024793265 0.42720333
0.024374627 0.024790373 0.42714757
0.024748046 0.024787826 0.42709771
0.025107695 0.024771772 0.42681503
0.025483159 0.024771564 0.42680529
0.025859168 0.02477188 0.42680454
0.026226154 0.02476367 0.42665678
0.026597882 0.024760105 0.42658895
0.0269663 0.024753602 0.42647046
0.027328255 0.024741426 0.42625412
0.027694203 0.024733145 0.42610481
0.028068418 0.02473237 0.42608476
0.028438475 0.024727998 0.42600265
0.028798031 0.024714725 0.42576715
0.02917737 0.024718558 0.42582622
0.029541936 0.024709933 0.42567059
0.029908445 0.024703132 0.42554632
0.030274924 0.024696473 0.4254244
0.030639913 0.024688778 0.42528459
0.031010272 0.024685537 0.42522147
0.031374488 0.024677545 0.4250764
0.031747516 0.024676591 0.42505246
0.032107368 0.024665536 0.42485446
0.03248027 0.024664646 0.42483145
0.032844726 0.024657436 0.42469952
0.033205301 0.024647506 0.4245207
0.033573385 0.024643313 0.42444056
0.03393795 0.02463665 0.42431784
0.034306321 0.024632867 0.42424464
0.034676213 0.024630245 0.42419139
0.035046 0.024627611 0.4241378
0.035399769 0.024613889 0.42389318
0.035773315 0.024614062 0.42388779
0.036137462 0.024607832 0.42377207
0.03650311 0.024602739 0.42367586
0.036864713 0.02459505 0.42353487
0.037236992 0.024594568 0.42351791
0.037597902 0.024586661 0.42337298
0.037964467 0.02458257 0.42329374
0.038328812 0.024577135 0.42319122
0.03868302 0.024565365 0.42297959
0.039046377 0.024559576 0.42287087
0.039402895 0.024549635 0.42269057
0.039776102 0.024550183 0.42269081
0.040139448 0.024544688 0.42258692
0.040508706 0.024542876 0.42254636
0.040868416 0.024535364 0.4224076
0.041230004 0.024529105 0.42229035
0.041599486 0.024527613 0.4222551
0.041958757 0.024520177 0.42211744
0.042317279 0.024512444 0.42197454
0.042677108 0.024505591 0.42184678
0.043042131 0.024501814 0.42177188
0.043400928 0.024494587 0.42163754
0.043759938 0.024487602 0.4215073
0.044123624 0.024483331 0.42142364
0.044482548 0.02447651 0.42129606
0.044854961 0.024477161 0.42129701
0.045215826 0.024471551 0.42119014
0.045583934 0.024469925 0.42115173
0.045925949 0.024454426 0.42087451
0.046291992 0.024451867 0.42081994
0.046648797 0.024444511 0.42068273
0.047016826 0.024443103 0.42064783
0.04737626 0.024437286 0.42053694
0.047744442 0.024436032 0.42050454
0.048093703 0.024425196 0.42030713
0.048444841 0.024415465 0.4201287
0.048807967 0.024411881 0.42005596
0.049182259 0.024413891 0.42007944
0.049546439 0.02441089 0.42001659
0.049920656 0.024412839 0.42003885
0.050287765 0.02441131 0.42000121
0.054529432 0.02432159 0.41831616
0.054896865 0.024320949 0.41829291
0.05524623 0.024312368 0.41813299
0.055613648 0.024311788 0.41811067
0.055981286 0.024311319 0.41809008
0.056342024 0.024307877 0.41801834
0.056707572 0.024306536 0.4179827
0.05707882 0.024307642 0.41798905
0.057448056 0.024307884 0.41798046
0.057816159 0.024307644 0.41796353
0.05819441 0.024311649 0.4180195
0.058561478 0.02431096 0.41799465
0.058929723 0.024310764 0.41797832
0.059313718 0.024317028 0.41807288
0.019204458 0.025289329 0.42930067
0.019568928 0.025272131 0.42900383
0.019937716 0.025261054 0.42881086
0.020304862 0.025248345 0.42859012
0.020673551 0.025237981 0.42840913
0.021045679 0.025232108 0.42830428
0.021418167 0.025226874 0.42821014
0.021788545 0.025219373 0.42807749
0.022161512 0.025215073 0.42799908
0.022531873 0.025207998 0.42787349
0.022900846 0.025199635 0.42772594
0.023273155 0.025195146 0.42764413
0.023644034 0.025189282 0.42753881
0.024009353 0.025177766 0.42733756
0.024381202 0.025173349 0.42725667
0.024754932 0.025170978 0.42721048
0.025115339 0.025155336 0.42693892
0.025494169 0.025158333 0.42698362
0.025866192 0.02515462 0.42691442
0.026237421 0.025150256 0.42683405
0.026608491 0.025145866 0.4267531
0.026980197 0.025142189 0.42668423
0.027346011 0.025133196 0.42652509
0.027713142 0.02512564 0.42639023
0.028082598 0.025120365 0.426294
0.028449785 0.025113227 0.42616609
0.028822685 0.025111252 0.42612571
0.029193241 0.025107311 0.42605188
0.029556483 0.025097258 0.42587426
0.029918121 0.025086112 0.42567804
0.030286282 0.025080647 0.42557809
0.030657049 0.025077445 0.42551652
0.031024115 0.025071325 0.42540532
0.0313899 0.025064332 0.42527926
0.031762049 0.025062526 0.42524105
0.032123826 0.025052676 0.42506635
0.032496657 0.02505157 0.42503995
0.032866314 0.025048068 0.42497277
0.03321778 0.025030937 0.42467433
0.033590522 0.025030043 0.42465127
0.033954475 0.025022691 0.42451859
0.03432316 0.025018945 0.424447
0.034687366 0.025012057 0.42432198
0.035057697 0.025009679 0.42427343
0.03542446 0.025004838 0.42418301
0.035785481 0.02499608 0.42402613
0.036154911 0.024993321 0.42397085
0.036513515 0.024983209 0.42379081
0.036874164 0.024974687 0.42363766
0.037245147 0.024973262 0.42360485
0.037609871 0.024967713 0.42350194
0.037976488 0.024963519 0.42342201
0.038339764 0.024957227 0.42330638
0.038702972 0.024951013 0.42319202
0.039065976 0.024944788 0.4230774
0.039438602 0.024944767 0.4230679
0.039792951 0.024933292 0.42286408
0.040153049 0.024925601 0.42272434
0.040510558 0.024916459 0.42255998
0.04087802 0.024913546 0.42250115
0.041246194 0.024911117 0.42245045
0.04160529 0.024903297 0.42230827
0.0419797 0.024904706 0.42232245
0.042339817 0.024897676 0.42219359
0.04269699 0.024889059 0.42203763
0.043063886 0.024886206 0.42197934
0.043428697 0.02488221 0.42190164
0.043774847 0.024867678 0.42164519
0.04415819 0.024874344 0.42174813
0.044509467 0.024862984 0.42154536
0.044878054 0.024861403 0.42150828
0.045229074 0.024850193 0.42130789
0.04559204 0.02484568 0.42122099
0.045948748 0.024837848 0.42107776
0.046312425 0.024833888 0.42100006
0.046675198 0.024829505 0.42091516
0.04704152 0.024827069 0.42086312
0.047399409 0.02482025 0.42073679
0.047756318 0.024813028 0.42060354
0.048134454 0.024816861 0.42065763
0.048473172 0.024800468 0.42036876
0.048831891 0.024794482 0.42025623
0.049197305 0.024791958 0.42020234
0.04957274 0.024794484 0.42023394
0.04995501 0.024800364 0.42032233
0.054913025 0.024697298 0.41841057
0.055267215 0.024690693 0.41828635
0.05564256 0.02469356 0.41832253
0.055987492 0.024682986 0.41813096
0.056354161 0.024682069 0.41810292
0.056717433 0.024679685 0.41804993
0.057081785 0.024677798 0.41800529
0.057451081 0.024678061 0.41799697
0.057823397 0.024679609 0.41801041
0.058194447 0.024680601 0.41801432
0.05855947 0.024679041 0.41797492
0.058931731 0.024680531 0.41798711
0.059307806 0.024683589 0.41802585
0.018466486 0.025691835 0.42971334
0.018841567 0.025687652 0.42963874
0.019202814 0.025665145 0.42925754
0.01956475 0.025644409 0.42890584
0.019941319 0.025643278 0.428882
0.020312341 0.025635185 0.42874163
0.020682815 0.025626708 0.42859477
0.021056483 0.02562242 0.42851785
0.021427615 0.025615251 0.42839274
0.021793775 0.02560249 0.42817396
0.022167152 0.025598494 0.42810172
0.022540409 0.025594495 0.42802936
0.022913223 0.025590135 0.42795086
0.02328868 0.025588818 0.42792317
0.023653837 0.025576407 0.42770988
0.024019286 0.025564691 0.42750815
0.024397042 0.025566237 0.42752808
0.024759265 0.025551703 0.42727906
0.025130013 0.025546271 0.4271822
0.025506033 0.025546281 0.42717615
0.025871703 0.025536072 0.42699924
0.026245143 0.025533717 0.42695355
0.02661771 0.025530586 0.42689484
0.02698971 0.025527008 0.42682853
0.027353078 0.025515476 0.42662916
0.027726792 0.025513779 0.42659411
0.028097687 0.025509564 0.42651698
0.028461207 0.025498854 0.42633107
0.028829608 0.025492735 0.42622197
0.029194444 0.025483668 0.42606339
0.029566754 0.025481269 0.42601624
0.029933326 0.025474045 0.42588836
0.030302851 0.025469482 0.42580491
0.030664925 0.025458843 0.42561978
0.031036854 0.025456546 0.42557403
0.031406734 0.025452642 0.42550135
0.031767238 0.025441322 0.42530459
0.032140348 0.02544024 0.42527893
0.032505326 0.025432825 0.42514729
0.032878913 0.025432235 0.42512971
0.03323748 0.02542017 0.42492023
0.033595432 0.025407912 0.42470738
0.033968344 0.025407109 0.42468607
0.034327723 0.025396315 0.42449751
0.034698017 0.025393737 0.42444634
0.035065901 0.025389468 0.4243668
0.035437237 0.025387766 0.42433006
0.035801303 0.025380947 0.42420772
0.036174364 0.02538058 0.42419311
0.03652554 0.025365015 0.42392448
0.036900096 0.025365839 0.42392969
0.037271988 0.025364833 0.42390421
0.037630334 0.025354723 0.42372647
0.037995104 0.025349095 0.42362362
