# .PCD v0.7 - Point Cloud Data file format
VERSION 0.7
FIELDS x y z
SIZE 4 4 4
TYPE F F F
COUNT 1 1 1
WIDTH 1340
HEIGHT 1
VIEWPOINT 0 0 0 1 0 0 0
POINTS 1340
DATA ascii
-0.039030321 0.044925869 0.45130643
-0.03861057 0.044900104 0.45105541
-0.038204681 0.044890095 0.45096257
-0.037789378 0.044868689 0.45075521
-0.037389748 0.044865642 0.45073214
-0.036983799 0.044854868 0.45063138
-0.03658567 0.044853445 0.4506245
-0.036178883 0.04484126 0.45050937
-0.035769835 0.044825982 0.45036307
-0.035365757 0.044816647 0.45027643
-0.034953438 0.044796541 0.45008147
-0.034543578 0.044779167 0.44991389
-0.034130879 0.04475766 0.44970471
-0.033738192 0.044762205 0.44975719
-0.033329841 0.044745829 0.44959933
-0.032927502 0.044737227 0.44951954
-0.032515865 0.044715639 0.44930914
-0.032104209 0.044693481 0.44909295
-0.031702626 0.044684973 0.44901383
-0.031301878 0.044677448 0.44894451
-0.030905599 0.044676181 0.44893798
-0.030507259 0.044671871 0.44890082
-0.030108044 0.044666149 0.44884932
-0.029706467 0.044656724 0.44876057
-0.029313572 0.044660274 0.44880211
-0.028923735 0.044668648 0.44889203
-0.028514883 0.044647481 0.44868499
-0.028116329 0.044642072 0.44863623
-0.02773761 0.044668447 0.44890684
-0.026138227 0.044637617 0.44861826
-0.02571518 0.044589087 0.44813564
-0.025321135 0.044590119 0.44815102
-0.024913028 0.044566035 0.44791391
-0.024505971 0.044543087 0.44768807
-0.02407001 0.044465985 0.44691792
-0.023659959 0.044434983 0.44661099
-0.023259645 0.044421539 0.44648039
-0.022872156 0.044432532 0.44659546
-0.022469914 0.044414762 0.44642121
-0.022074869 0.044410836 0.44638607
-0.02166944 0.0443855 0.44613564
-0.021266136 0.044363663 0.44592029
-0.020872906 0.044362415 0.44591179
-0.020472772 0.044346169 0.44575247
-0.020081362 0.044348549 0.44578028
-0.019681236 0.044331402 0.44561172
-0.019284079 0.044320371 0.44550458
-0.018883044 0.044299789 0.44530132
-0.01848924 0.044295661 0.44526336
-0.018094862 0.04428995 0.44520944
-0.017694304 0.044268522 0.44499743
-0.017303385 0.044270795 0.44502354
-0.016911428 0.044270452 0.4450233
-0.016520977 0.044274133 0.44506338
-0.016131032 0.044279385 0.44511923
-0.015741033 0.044284739 0.44517604
-0.06446439 0.046170391 0.45908734
-0.064001992 0.046129003 0.45868862
-0.063602284 0.046132572 0.45873681
-0.063165486 0.046109099 0.45851612
-0.062747449 0.046099123 0.45842943
-0.062313791 0.046077456 0.45822647
-0.061916031 0.046082225 0.45828635
-0.061487291 0.046063852 0.45811591
-0.061059762 0.046046149 0.45795211
-0.060655117 0.046045583 0.45795867
-0.060218792 0.046020798 0.45772427
-0.059792865 0.046003681 0.45756605
-0.059370317 0.04598894 0.45743138
-0.058951568 0.04597697 0.45732415
-0.058538146 0.045969021 0.45725685
-0.058118757 0.045956243 0.45714146
-0.057673324 0.045922548 0.45681787
-0.057264704 0.045917891 0.45678312
-0.056828823 0.045891162 0.45652866
-0.056434494 0.045897845 0.45660651
-0.056010067 0.045879968 0.45643994
-0.05560901 0.045881111 0.45646256
-0.055191871 0.045868918 0.45635235
-0.054752171 0.045837648 0.4560523
-0.054330908 0.045821466 0.45590228
-0.053909704 0.045805097 0.45575032
-0.053506207 0.04580364 0.45574662
-0.053084575 0.045786522 0.455587
-0.052658208 0.045765027 0.45538372
-0.052243613 0.045753509 0.45527974
-0.051827341 0.045740336 0.4551591
-0.051415101 0.045730539 0.45507202
-0.051008683 0.045725815 0.4550353
-0.050589517 0.045709491 0.45488313
-0.050170146 0.045692727 0.45472643
-0.049765673 0.045689367 0.45470303
-0.049339302 0.045665689 0.4544774
-0.048934955 0.045662176 0.45445231
-0.048511919 0.045641009 0.4542515
-0.048090056 0.04562062 0.45405832
-0.047675792 0.045607146 0.45393386
-0.04727501 0.04560646 0.45393658
-0.046860546 0.04559245 0.45380661
-0.046445731 0.04557785 0.45367074
-0.046033885 0.04556594 0.45356148
-0.045615319 0.045547109 0.45338327
-0.045212835 0.045544147 0.45336294
-0.04479038 0.045520831 0.45313996
-0.044391081 0.04552085 0.45314911
-0.043965667 0.045493852 0.45288923
-0.043561131 0.045488149 0.45284128
-0.043157198 0.045482982 0.45279858
-0.042741667 0.04546538 0.45263204
-0.042322993 0.045444075 0.45242849
-0.041907858 0.045426201 0.45225903
-0.041517053 0.045434609 0.45235112
-0.041095678 0.045409396 0.45210847
-0.040677767 0.045387566 0.45189935
-0.040257085 0.045362175 0.4516547
-0.039855529 0.045358051 0.45162168
-0.039447371 0.045346253 0.45151222
-0.039050125 0.045346882 0.45152634
-0.038646441 0.045339972 0.4514654
-0.038234454 0.045323085 0.45130497
-0.037806977 0.045287281 0.45095605
-0.037394945 0.045269415 0.4507857
-0.036996759 0.045268111 0.45078024
-0.036594525 0.04526177 0.45072448
-0.036196794 0.045260925 0.45072332
-0.035793155 0.045252595 0.45064762
-0.035373304 0.045223344 0.45036343
-0.034962922 0.045205675 0.45019454
-0.034563933 0.045202516 0.45017001
-0.034159493 0.045192052 0.45007271
-0.033744693 0.045167487 0.44983488
-0.033344664 0.045162342 0.44979036
-0.032933049 0.045141187 0.44958627
-0.032528944 0.045129947 0.44948089
-0.032123718 0.045116853 0.44935688
-0.031720974 0.045106959 0.44926473
-0.031301819 0.045073189 0.44893467
-0.030915136 0.045085911 0.44906759
-0.030523093 0.045091044 0.44912484
-0.03012841 0.045092367 0.44914404
-0.029710364 0.045058288 0.44881055
-0.029305151 0.045043018 0.44866431
-0.028909033 0.045041505 0.44865501
-0.028513659 0.045041118 0.44865686
-0.028129531 0.045058738 0.448838
-0.027740363 0.045068674 0.44894248
-0.027350217 0.045077294 0.44903377
-0.026953142 0.045074571 0.44901198
-0.026554298 0.045068767 0.44895947
-0.026136702 0.045030478 0.44858325
-0.025707226 0.044970237 0.44798821
-0.025315506 0.044975195 0.44804266
-0.02490489 0.044946209 0.44775879
-0.024499338 0.044925578 0.4475581
-0.024076054 0.044871226 0.44702139
-0.023674851 0.044856906 0.44688338
-0.023270788 0.044836588 0.44668555
-0.022874855 0.044831518 0.44663948
-0.022477591 0.044823606 0.44656506
-0.022081316 0.044817422 0.44650781
-0.021679262 0.044799075 0.44632927
-0.021280741 0.044787481 0.44621789
-0.020879421 0.044769458 0.44604239
-0.020481803 0.044758834 0.44594049
-0.020085579 0.044750903 0.44586539
-0.019690583 0.044745445 0.44581479
-0.019292662 0.044732984 0.44569436
-0.018895438 0.044721656 0.4455851
-0.018496109 0.044704758 0.44542032
-0.018097088 0.044687897 0.44525576
-0.017699802 0.044674672 0.44512734
-0.017307356 0.044673331 0.44511729
-0.016914671 0.044671305 0.44510031
-0.016522799 0.044671383 0.44510418
-0.016133899 0.04467969 0.44519004
-0.015743162 0.044683207 0.44522801
-0.015352262 0.044686429 0.44526294
-0.014961049 0.04468888 0.44529015
-0.064465448 0.046576567 0.45908555
-0.064037271 0.046559714 0.45893222
-0.063641407 0.046566285 0.45900971
-0.063199967 0.046539381 0.45875716
-0.062780559 0.046528455 0.45866206
-0.062353503 0.046511684 0.45850924
-0.061927304 0.046495341 0.45836052
-0.061512947 0.046487726 0.45829782
-0.061101399 0.046482153 0.45825511
-0.059366029 0.046389423 0.45738909
-0.05897598 0.046399906 0.45750427
-0.058561713 0.046391346 0.45743167
-0.058119409 0.046360306 0.45713729
-0.057723541 0.046366129 0.45720637
-0.057300851 0.046350345 0.45706218
-0.056865629 0.046324119 0.45681503
-0.05646167 0.046323176 0.45681712
-0.056047823 0.046314046 0.45673838
-0.055621292 0.046294227 0.45655414
-0.055199798 0.046278339 0.45640859
-0.054788675 0.046270989 0.45634711
-0.054361615 0.046249963 0.45615071
-0.053942338 0.046235293 0.45601693
-0.053529054 0.046225578 0.45593193
-0.053106856 0.046207968 0.45576897
-0.052705642 0.046208482 0.45578468
-0.052271087 0.046179555 0.4555099
-0.051852308 0.046164218 0.45536909
-0.051438186 0.046152823 0.4552671
-0.051025286 0.046142358 0.45517418
-0.050612662 0.046131976 0.455082
-0.050194748 0.046116568 0.45494014
-0.049792286 0.046115227 0.45493695
-0.049366403 0.046091992 0.45471776
-0.048957501 0.046084367 0.4546524
-0.048523117 0.04605243 0.45434713
-0.048121583 0.046051394 0.45434669
-0.047703542 0.046034418 0.45418882
-0.047298741 0.046030041 0.45415521
-0.046878792 0.046010721 0.4539741
-0.0464729 0.046004977 0.45392686
-0.046044797 0.045976963 0.45365974
-0.045635711 0.045967616 0.45357671
-0.045221195 0.045952585 0.45343757
-0.044817835 0.045948721 0.45340854
-0.044405088 0.045935079 0.45328289
-0.044001259 0.045930501 0.45324662
-0.043573666 0.045900803 0.45296237
-0.043161962 0.045887452 0.45283934
-0.042747226 0.045870598 0.45268166
-0.042346861 0.045868993 0.45267445
-0.04193709 0.045857076 0.45256531
-0.04152713 0.045844715 0.45245174
-0.041112419 0.045826823 0.45228344
-0.040699072 0.045810118 0.45212683
-0.040285401 0.045792714 0.45196319
-0.039870832 0.045773935 0.45178589
-0.039477289 0.045779157 0.45184544
-0.039064668 0.045762133 0.45168534
-0.038667358 0.045762885 0.45170057
-0.038249459 0.045739036 0.45147288
-0.03783761 0.045721997 0.4513123
-0.037410989 0.045686554 0.45097002
-0.037016924 0.045690536 0.45101681
-0.036613699 0.045683175 0.45095152
-0.036209699 0.045674674 0.45087489
-0.035800103 0.045658849 0.45072591
-0.035391491 0.045643944 0.4505859
-0.03498733 0.045634504 0.45049977
-0.034573875 0.045612581 0.45029035
-0.034169987 0.045602921 0.45020184
-0.033776056 0.045606479 0.45024377
-0.033352643 0.045569852 0.44988886
-0.032960981 0.045576233 0.44995853
-0.032542195 0.045544814 0.44965488
-0.032145407 0.045543797 0.44965124
-0.031730138 0.045516234 0.44938552
-0.031331412 0.045512009 0.44935006
-0.030938633 0.04551642 0.44939983
-0.030530348 0.045497846 0.44922256
-0.030140227 0.045506209 0.44931117
-0.029732056 0.045487184 0.44912925
-0.029304212 0.045437131 0.44864094
-0.028908104 0.045435596 0.44863153
-0.028517023 0.045442037 0.44870082
-0.028124543 0.045446392 0.44874945
-0.027730679 0.045448609 0.44877681
-0.027345074 0.045464616 0.44894034
-0.026947813 0.045461435 0.44891429
-0.026548894 0.045455322 0.44885918
-0.026119705 0.04539641 0.44828263
-0.025703415 0.045358457 0.44791293
-0.025308114 0.045356937 0.44790292
-0.024905136 0.045341395 0.44775438
-0.024511179 0.045342039 0.44776559
-0.024101745 0.045313615 0.44748959
-0.023690023 0.045279864 0.44716099
-0.023286793 0.045261484 0.44698402
-0.022885893 0.045247074 0.44684625
-0.022484463 0.045231093 0.44669285
-0.022093002 0.045234963 0.44673535
-0.021689339 0.045213535 0.44652799
-0.021293122 0.045207132 0.44646886
-0.020889103 0.04518361 0.4462406
-0.020491567 0.04517347 0.4461444
-0.020093795 0.045162413 0.44603914
-0.019700792 0.045161847 0.44603735
-0.01930093 0.045145214 0.44587681
-0.018901356 0.04512858 0.44571614
-0.018502044 0.045111883 0.44555479
-0.018105632 0.045101684 0.44545749
-0.01771035 0.04509392 0.44538417
-0.017314246 0.045083657 0.44528607
-0.016918357 0.045073494 0.44518891
-0.016524728 0.045069017 0.44514778
-0.016136004 0.045078017 0.44523978
-0.015744405 0.045079246 0.44525486
-0.015353253 0.04508185 0.44528344
-0.014963431 0.0450886 0.44535288
-0.064927243 0.047023144 0.45946538
-0.06450101 0.047007915 0.45932946
-0.064099252 0.047010452 0.45936704
-0.063656792 0.046982981 0.45911136
-0.063241147 0.04697508 0.45904678
-0.062840067 0.046977956 0.45908746
-0.06238408 0.046939559 0.45872474
-0.062003165 0.046957515 0.45891267
-0.061602823 0.046960905 0.45895812
-0.059326768 0.046762284 0.45707726
-0.058968998 0.046798266 0.45744082
-0.057739459 0.046782635 0.4573231
-0.057320807 0.046770096 0.45721203
-0.056894053 0.046750717 0.45703405
-0.056480538 0.046742018 0.45696041
-0.056059748 0.04672714 0.45682621
-0.055660572 0.046730187 0.45686722
-0.055241194 0.046716191 0.45674151
-0.054804977 0.046687648 0.45647353
-0.054389704 0.046676662 0.45637709
-0.053967986 0.046659939 0.45622441
-0.053559706 0.046654664 0.45618364
-0.053156439 0.046653718 0.45618516
-0.052711673 0.046616055 0.45582747
-0.052312113 0.0466181 0.45585802
-0.051879454 0.046590451 0.45559818
-0.051457569 0.046572115 0.45542929
-0.051045023 0.046562023 0.45534089
-0.050638128 0.046556961 0.45530161
-0.050221808 0.046543088 0.45517609
-0.049816601 0.046539366 0.45514977
-0.049407415 0.046531841 0.45508614
-0.048998032 0.046524011 0.45501947
-0.048546646 0.046475839 0.45455813
-0.048137374 0.046467513 0.45448646
-0.047727536 0.046458505 0.45440796
-0.047327057 0.046458527 0.45441777
-0.046900406 0.046432637 0.45417404
-0.046487562 0.046420094 0.45406076
-0.046070855 0.046403442 0.45390719
-0.045651101 0.0463834 0.45372036
-0.045245331 0.046377342 0.45367026
-0.04483787 0.04636943 0.45360193
-0.044419318 0.046349797 0.45341885
-0.044014014 0.046343759 0.45336872
-0.043602422 0.046330929 0.45325202
-0.043181695 0.046308067 0.45303708
-0.042766031 0.04629026 0.45287153
-0.042355798 0.046278045 0.45276061
-0.041951474 0.046272129 0.45271122
-0.041550677 0.04627002 0.45269901
-0.041139558 0.046256263 0.45257273
-0.04072072 0.046233475 0.45235801
-0.040309537 0.046219021 0.4522247
-0.039893802 0.046199005 0.45203692
-0.039478656 0.046179269 0.45185181
-0.039081313 0.046180177 0.45186856
-0.038674191 0.046169419 0.45177114
-0.038270548 0.046162646 0.45171258
-0.03784908 0.046134003 0.45143992
-0.037437849 0.04611735 0.45128456
-0.037025847 0.046099398 0.45111632
-0.036618665 0.046087109 0.45100349
-0.036230132 0.046098284 0.45112014
-0.035809394 0.046068277 0.45083371
-0.03540628 0.046060525 0.45076498
-0.035005365 0.046055488 0.45072275
-0.034583371 0.046022292 0.45040482
-0.034183167 0.046017658 0.45036638
-0.033779468 0.046008151 0.45028013
-0.033377171 0.046000361 0.45021057
-0.032978632 0.045997616 0.45019034
-0.032575592 0.045988455 0.45010722
-0.032162346 0.045964476 0.44987899
-0.03174828 0.045938723 0.4496333
-0.03134099 0.045922246 0.4494783
-0.030940937 0.045916088 0.44942424
-0.030547762 0.045920111 0.44946972
-0.030155264 0.045925271 0.44952625
-0.029751888 0.045913782 0.44941971
-0.029322647 0.045861527 0.44891408
-0.028910717 0.04583529 0.44866306
-0.028514115 0.045832966 0.44864601
-0.02811943 0.045833703 0.44865882
-0.027722582 0.045830883 0.44863674
-0.027329568 0.045834415 0.44867676
-0.02693104 0.04582867 0.44862586
-0.026523916 0.045807909 0.44842789
-0.026108187 0.045771431 0.44807595
-0.02570338 0.045753285 0.44790339
-0.025305955 0.04574791 0.4478558
-0.024910744 0.045746438 0.44784629
-0.024508972 0.045732673 0.44771636
-0.024111057 0.04572577 0.44765356
-0.023705505 0.045703925 0.44744435
-0.023290828 0.045663446 0.4470526
-0.0228949 0.045658965 0.44701326
-0.02249698 0.045650292 0.4469327
-0.022099271 0.045641743 0.44685337
-0.021705942 0.045642097 0.44686106
-0.0213101 0.045637079 0.44681606
-0.020901302 0.045603614 0.44649246
-0.02049749 0.045579944 0.44626471
-0.020103725 0.045578137 0.44625089
-0.019708578 0.045573059 0.44620496
-0.019310262 0.045560297 0.44608375
-0.018909181 0.045540348 0.44589204
-0.018511198 0.045527175 0.44576663
-0.018114826 0.045517486 0.44567519
-0.017716575 0.045502536 0.4455322
-0.017320486 0.045492593 0.44543812
-0.016924866 0.045483444 0.44535175
-0.016529465 0.04547447 0.44526699
-0.016137706 0.045475323 0.44527838
-0.01574593 0.045476172 0.44528964
-0.015355065 0.045479767 0.44532767
-0.014963937 0.045482747 0.44535962
-0.014573883 0.045489248 0.44542596
-0.064934194 0.04743401 0.45950517
-0.064533621 0.047437545 0.45955235
-0.064125329 0.047435425 0.4595446
-0.063679442 0.047405284 0.45926532
-0.063280359 0.047409825 0.45932192
-0.06284187 0.047384713 0.45909125
-0.06243467 0.047383022 0.45908734
-0.062038127 0.047389451 0.45916203
-0.056916997 0.047173172 0.45720893
-0.056506697 0.047167227 0.45716265
-0.056089304 0.047155224 0.45705763
-0.055675816 0.047146358 0.45698291
-0.055265795 0.047140319 0.45693552
-0.054840121 0.047120746 0.45675683
-0.054428447 0.047112998 0.45669273
-0.053978547 0.047071803 0.45630425
-0.053572278 0.047068328 0.45628133
-0.053173441 0.047071375 0.45632163
-0.052757289 0.047059026 0.45621255
-0.052345078 0.047050029 0.45613587
-0.051901158 0.047012173 0.45577931
-0.051487405 0.047001261 0.45568395
-0.051065039 0.046982259 0.45551002
-0.050649535 0.046969317 0.45539477
-0.050237715 0.046959613 0.45531085
-0.049828574 0.046952274 0.45524976
-0.049412597 0.046938326 0.4551245
-0.04899187 0.046919607 0.45495284
-0.048581123 0.046910204 0.45487157
-0.048168235 0.04689857 0.45476842
-0.047745183 0.046876755 0.45456657
-0.047333609 0.04686594 0.45447129
-0.046927493 0.046860397 0.454427
-0.04651776 0.04685111 0.4543463
-0.046082865 0.046816099 0.45401615
-0.045668639 0.04680166 0.45388532
-0.045263272 0.046796121 0.45384076
-0.044854909 0.046787366 0.45376489
-0.044446018 0.046777893 0.45368204
-0.044034921 0.046765905 0.45357466
-0.043621171 0.046750855 0.45343754
-0.043213692 0.046742313 0.45336339
-0.04277499 0.046699524 0.45295703
-0.042373683 0.04669714 0.45294249
-0.04195964 0.046680547 0.45279002
-0.041557066 0.046676509 0.45275927
-0.041157227 0.046675496 0.45275775
-0.040730342 0.046643499 0.45245561
-0.040307298 0.046615299 0.45219022
-0.039895892 0.046600144 0.45205125
-0.039496813 0.046599224 0.45205033
-0.039092392 0.046591919 0.4519873
-0.038686551 0.046582755 0.45190623
-0.038276188 0.046567895 0.4517698
-0.037866961 0.046554126 0.45164385
-0.037449751 0.046530146 0.45141879
-0.037049588 0.04652705 0.45139623
-0.036641695 0.046514083 0.45127779
-0.036239941 0.046508707 0.45123297
-0.035832763 0.046496186 0.45111865
-0.035429962 0.046489116 0.45105723
-0.035006698 0.046454735 0.45073068
-0.034601659 0.046444025 0.45063373
-0.034193907 0.046429392 0.45049864
-0.033801511 0.046435501 0.45056474
-0.033392437 0.046418574 0.45040721
-0.03298993 0.046410479 0.45033529
-0.032590434 0.046406485 0.45030305
-0.032177374 0.046382837 0.45008001
-0.031758279 0.046349786 0.44976568
-0.03135233 0.04633534 0.44963178
-0.030956216 0.046335232 0.44963697
-0.030563839 0.046340797 0.44969705
-0.030162729 0.046333097 0.44962832
-0.02975584 0.046316192 0.44947028
-0.029345201 0.046292923 0.44925028
-0.028918572 0.046243437 0.44877583
-0.028519351 0.046237025 0.44871929
-0.028129648 0.046246074 0.44881272
-0.02773298 0.046243776 0.44879588
-0.027342008 0.046251047 0.44887191
-0.02693508 0.046231139 0.4486841
-0.026526749 0.046208203 0.44846672
-0.026103366 0.046157956 0.44798422
-0.025706634 0.046154018 0.44795108
-0.025310321 0.046150714 0.44792402
-0.024921712 0.046161588 0.44803447
-0.024520298 0.046148706 0.44791427
-0.024113346 0.046124812 0.44768712
-0.023715369 0.046117578 0.44762155
-0.023310684 0.046096835 0.4474248
-0.022911534 0.046086513 0.4473291
-0.022508213 0.046067294 0.44714698
-0.022106711 0.046051186 0.4469949
-0.021712232 0.046049386 0.44698167
-0.021309424 0.046029527 0.44679305
-0.0209164 0.046030462 0.44680619
-0.020506274 0.045993064 0.44644713
-0.020106439 0.045977741 0.44630229
-0.019719064 0.045990881 0.44643363
-0.019313555 0.045961395 0.44615114
-0.018924063 0.045969591 0.44623432
-0.018522918 0.045949232 0.44604024
-0.018115837 0.04591294 0.44569144
-0.017723897 0.045914281 0.44570777
-0.017326035 0.045899976 0.4455722
-0.016933296 0.045898907 0.44556504
-0.016535522 0.045883816 0.44542167
-0.016143585 0.045884583 0.44543213
-0.015747471 0.045873217 0.44532478
-0.015359487 0.045885578 0.44544756
-0.014964221 0.045876242 0.44535974
-0.014575194 0.045886055 0.4454577
-0.014184753 0.045891844 0.44551647
-0.013796011 0.045903612 0.44563323
-0.065430202 0.047906186 0.46011996
-0.064965002 0.047862541 0.45971373
-0.064563841 0.047865812 0.45975801
-0.064146817 0.047857296 0.45968905
-0.063717648 0.047839552 0.45953134
-0.063296862 0.047827914 0.45943221
-0.062898792 0.047833413 0.4594976
-0.056513924 0.04757686 0.45721158
-0.056117255 0.047582373 0.45727587
-0.055701133 0.047571354 0.45718119
-0.055282444 0.047557969 0.45706365
-0.054866422 0.047546696 0.45696637
-0.054440007 0.047526184 0.45678023
-0.054013547 0.04750533 0.45659062
-0.053595576 0.047491688 0.45647031
-0.053182933 0.047482587 0.45639354
-0.052770764 0.047473781 0.45631954
-0.052352164 0.04745901 0.45618814
-0.051937733 0.047447819 0.45609105
-0.051521137 0.047434464 0.45597303
-0.051090438 0.047407802 0.45572707
-0.050690062 0.047409087 0.45574966
-0.050264321 0.047386479 0.45554245
-0.049857143 0.047381148 0.45550129
-0.049439959 0.047366146 0.45536703
-0.049016468 0.047344808 0.45517179
-0.048603594 0.047333449 0.45507246
-0.048176542 0.04730799 0.45483738
-0.047782678 0.047314961 0.45491406
-0.047365662 0.047298938 0.45476955
-0.046953145 0.047287162 0.45466587
-0.046531945 0.047266375 0.45447537
-0.046103701 0.047238011 0.45421195
-0.045693655 0.047227953 0.45412442
-0.045282219 0.04721627 0.4540213
-0.044875447 0.047209285 0.45396319
-0.044463482 0.047196668 0.45385084
-0.044054367 0.047186866 0.45376551
-0.043660119 0.047192957 0.45383292
-0.043252166 0.047184221 0.45375764
-0.042833086 0.047163062 0.4535628
-0.036241792 0.046909053 0.45124665
-0.035845339 0.046910483 0.45126763
-0.035435271 0.046893924 0.45111549
-0.035030078 0.04688352 0.45102239
-0.034617458 0.046862811 0.45083016
-0.034208238 0.046846285 0.45067808
-0.033807371 0.046840943 0.4506335
-0.033398811 0.046824701 0.45048389
-0.033007931 0.046833146 0.45057178
-0.032592226 0.046806142 0.45031852
-0.0321858 0.046791967 0.45018861
-0.031775113 0.046771169 0.44999483
-0.031380083 0.046773184 0.45002055
-0.03096294 0.046741862 0.44972536
-0.030567776 0.046743345 0.44974574
-0.030176586 0.046751022 0.44982564
-0.029770738 0.046735894 0.44968599
-0.029364672 0.046720017 0.44953912
-0.028943749 0.046679743 0.44915736
-0.028530745 0.046651296 0.44888934
-0.028134456 0.046649773 0.44888029
-0.027740264 0.046651728 0.44890463
-0.027345721 0.046653144 0.44892368
-0.026948076 0.04664924 0.44889143
-0.02653957 0.046626132 0.44867435
-0.02612678 0.046594687 0.44837692
-0.025709895 0.046554863 0.44799882
-0.02532004 0.046563506 0.44808698
-0.02492393 0.046560738 0.44806525
-0.024526276 0.046554953 0.44801444
-0.024121987 0.046536181 0.44783852
-0.023722829 0.046526853 0.44775337
-0.023319112 0.046508111 0.44757757
-0.02292024 0.046498556 0.44749013
-0.022522485 0.046490971 0.44742155
-0.022118445 0.046469916 0.44722325
-0.021715829 0.046451148 0.44704682
-0.021316221 0.046438232 0.44692665
-0.020920327 0.046433084 0.44688115
-0.020521887 0.046421975 0.44677824
-0.020117538 0.046396803 0.44653988
-0.019721217 0.046389524 0.44647357
-0.019325489 0.046383362 0.44641799
-0.018930659 0.046379145 0.44638106
-0.018529268 0.046358351 0.44618443
-0.018135637 0.046356477 0.44616985
-0.01773249 0.046329662 0.44591516
-0.017336143 0.046319801 0.44582355
-0.016937647 0.046303611 0.44567093
-0.016541023 0.046291895 0.44556126
-0.01615116 0.046298992 0.44563261
-0.015754169 0.046285503 0.44550571
-0.015359407 0.046278045 0.44543678
-0.014967779 0.046279885 0.44545725
-0.014575112 0.046278525 0.44544685
-0.014186229 0.046289444 0.44555452
-0.01379905 0.0463067 0.44572312
-0.065452345 0.048328932 0.46026617
-0.065019846 0.048309304 0.46009216
-0.064610019 0.048306383 0.46007723
-0.064184651 0.048291739 0.4599506
-0.063751258 0.048270833 0.45976418
-0.063363083 0.048284106 0.45990327
-0.062960722 0.048286688 0.4599404
-0.062615082 0.048333064 0.46039471
-0.056518231 0.047984127 0.45723689
-0.056131478 0.047998197 0.4573822
-0.05571473 0.04798663 0.4572832
-0.055306103 0.047981944 0.4572497
-0.054894667 0.047974739 0.45719203
-0.05447714 0.047962058 0.45708218
-0.054056328 0.047946278 0.45694268
-0.053621773 0.047917981 0.45668381
-0.05322092 0.047919601 0.45670995
-0.052790187 0.047894139 0.45647791
-0.052377693 0.04788496 0.45640099
-0.05195789 0.047868907 0.45625845
-0.051552258 0.047865756 0.45623884
-0.051137168 0.047853716 0.45613435
-0.050702468 0.047822978 0.45585161
-0.050293043 0.047815785 0.4557932
-0.04988094 0.047805909 0.4557091
-0.049472421 0.047799334 0.45565644
-0.049038503 0.047767919 0.45536682
-0.048618812 0.047749951 0.45520538
-0.048203897 0.047736414 0.45508605
-0.047781255 0.047714937 0.45489097
-0.047381662 0.047716308 0.45491362
-0.046976745 0.0477123 0.45488486
-0.046562862 0.04769903 0.45476779
-0.046148691 0.047685247 0.45464563
-0.045712851 0.047648624 0.45430571
-0.045292012 0.047627129 0.45410994
-0.044896692 0.047632329 0.45416856
-0.044521235 0.04765889 0.45443079
-0.034636334 0.047286164 0.45106658
-0.03421735 0.047256313 0.45078874
-0.033819027 0.047254633 0.45077947
-0.033416227 0.047246583 0.45070937
-0.033019636 0.047247227 0.45072213
-0.03261793 0.047240477 0.45066434
-0.03219657 0.047204748 0.4503299
-0.03178804 0.047187164 0.45016855
-0.031389061 0.04718351 0.45013994
-0.03098673 0.047174644 0.45006159
-0.030584538 0.047165766 0.449983
-0.030182574 0.047157023 0.4499056
-0.02977469 0.047138669 0.44973642
-0.029373124 0.047129963 0.44965923
-0.02896045 0.047102947 0.44940722
-0.02854576 0.047071859 0.44911629
-0.028150206 0.0470719 0.44912231
-0.027749462 0.047063142 0.44904423
-0.027356619 0.047067724 0.44909337
-0.026954306 0.047055904 0.44898596
-0.026550435 0.047040973 0.44884878
-0.026139874 0.04701357 0.44859242
-0.025742363 0.047009151 0.44855535
-0.025330579 0.046978127 0.44826433
-0.024937285 0.046980951 0.44829616
-0.024531132 0.046959251 0.44809395
-0.024137337 0.046960887 0.44811434
-0.023736585 0.04694882 0.44800389
-0.023324851 0.046914257 0.44767863
-0.022922307 0.046897314 0.44752142
-0.022530541 0.046902206 0.4475725
-0.022131475 0.046891816 0.44747767
-0.021734415 0.046885371 0.44742042
-0.021334339 0.046872068 0.44729757
-0.020932643 0.04685463 0.44713524
-0.020533435 0.046842217 0.44702071
-0.020129118 0.046817426 0.44678801
-0.019732878 0.046810806 0.44672868
-0.019334653 0.046799123 0.44662085
-0.018940577 0.04679719 0.4466061
-0.018543368 0.046787288 0.44651511
-0.018138159 0.046756327 0.44622311
-0.017746912 0.04676079 0.44626907
-0.01734468 0.046735853 0.44603434
-0.01694518 0.046717297 0.44586045
-0.016548511 0.046705853 0.44575432
-0.016154403 0.04670126 0.44571352
-0.015759507 0.046694096 0.4456481
-0.015366222 0.046691466 0.44562584
-0.014973538 0.04669058 0.44562018
-0.014578776 0.046682987 0.44555038
-0.01418807 0.046688333 0.44560397
-0.013800099 0.046703223 0.44574866
-0.065945968 0.048800241 0.46085519
-0.06546589 0.048745546 0.46035171
-0.065067284 0.04875122 0.46041825
-0.064639732 0.048735142 0.46027926
-0.064200662 0.048710104 0.46005565
-0.063783266 0.048701312 0.45998532
-0.063413352 0.048728898 0.46025848
-0.063034683 0.048750062 0.460471
-0.062649682 0.048766576 0.46063951
-0.056143638 0.048412438 0.45747161
-0.055754982 0.04842525 0.4576039
-0.055336602 0.048412248 0.45749214
-0.054911472 0.048393104 0.45732233
-0.054498397 0.048384387 0.45725089
-0.054080252 0.048371002 0.45713526
-0.053648945 0.048345555 0.45690557
-0.053231332 0.048332155 0.45678964
-0.052820429 0.048324693 0.45672977
-0.05240545 0.048313357 0.45663321
-0.051970471 0.048283264 0.45635927
-0.051557597 0.048273403 0.45627642
-0.051152516 0.04827074 0.45626158
-0.050726742 0.048248354 0.45606017
-0.050317101 0.048241079 0.45600155
-0.04990904 0.048235215 0.45595619
-0.049496453 0.04822484 0.4558681
-0.04907285 0.048203483 0.45567611
-0.048656307 0.048188761 0.4555468
-0.048213374 0.048147447 0.45516592
-0.047809865 0.04814513 0.45515367
-0.047393985 0.048130222 0.45502228
-0.046994086 0.048131425 0.45504311
-0.046587814 0.048126061 0.45500183
-0.046199396 0.048139218 0.45513552
-0.033423863 0.047654938 0.45080289
-0.033025328 0.047652923 0.45079044
-0.032624342 0.04764726 0.45074341
-0.032220781 0.047637656 0.45065904
-0.031810354 0.047617543 0.45047513
-0.031398118 0.047594182 0.45026037
-0.030998686 0.047589872 0.4502258
-0.030602941 0.047591191 0.45024443
-0.03019545 0.047574036 0.45008814
-0.029798876 0.047573857 0.45009238
-0.029391607 0.047556367 0.44993278
-0.028971471 0.047517296 0.4495689
-0.02856002 0.047491588 0.44933137
-0.028165068 0.047492974 0.44935006
-0.027757769 0.047473289 0.44916931
-0.027370073 0.047487047 0.44930491
-0.026967747 0.047475453 0.44920057
-0.026562022 0.047457438 0.44903538
-0.026152024 0.047431137 0.44879165
-0.025741477 0.047403011 0.44853064
-0.025344109 0.047398664 0.44849446
-0.024949798 0.047399987 0.44851193
-0.024551013 0.047392711 0.44844794
-0.024149982 0.047380798 0.44833994
-0.023747213 0.047365021 0.44819531
-0.023335742 0.047331057 0.44787851
-0.022939792 0.047327958 0.44785362
-0.022537678 0.047311801 0.44770518
-0.022144277 0.047313694 0.44772738
-0.021737466 0.047286484 0.44747412
-0.021342225 0.04728391 0.44745389
-0.020936145 0.04725676 0.44720104
-0.020542424 0.047257006 0.44720736
-0.020141525 0.04724044 0.44705445
-0.019741476 0.047225233 0.44691437
-0.019348932 0.047227737 0.44694173
-0.018946137 0.0472048 0.44672832
-0.018544527 0.047183905 0.44653416
-0.018149175 0.04717838 0.44648528
-0.017750585 0.047164001 0.4463526
-0.017349571 0.047142394 0.44615138
-0.016951254 0.04712728 0.44601154
-0.016557803 0.047125306 0.44599599
-0.016158158 0.047105167 0.44580841
-0.015766855 0.047108967 0.4458473
-0.015370735 0.047098193 0.44574821
-0.014974662 0.04708701 0.44564509
-0.014580981 0.047082938 0.44560927
-0.014189301 0.047085296 0.44563419
-0.013800769 0.047098525 0.44576189
-0.013412805 0.047114529 0.44591579
-0.065946586 0.049207777 0.46084979
-0.065484054 0.049165808 0.46046972
-0.065091811 0.049176414 0.46058205
-0.064646035 0.049146459 0.46031436
-0.064238921 0.049145702 0.46032009
-0.063815728 0.049132556 0.4602097
-0.063449629 0.049163483 0.46051201
-0.063067362 0.049182206 0.46069998
-0.062672384 0.049191188 0.46079662
-0.056178413 0.048846517 0.45774519
-0.05577201 0.048844121 0.45773393
-0.05535952 0.048836317 0.45767191
-0.054949608 0.048830684 0.45763019
-0.054512933 0.048801012 0.45736307
-0.054109432 0.048800819 0.45737216
-0.053657345 0.04875648 0.45696738
-0.053270251 0.048770968 0.45711389
-0.052836109 0.048742279 0.45685562
-0.052433513 0.048742469 0.45686799
-0.052016269 0.048728947 0.45675167
-0.051592872 0.048709404 0.45657888
-0.051167667 0.048687827 0.45638695
-0.05075293 0.048675962 0.45628592
-0.050339416 0.048665076 0.45619407
-0.049925085 0.04865323 0.45609304
-0.049515925 0.048646264 0.45603776
-0.049131695 0.048663881 0.45621276
-0.048228752 0.048564579 0.45530137
-0.047805823 0.048542656 0.45510551
-0.047407065 0.048545118 0.45513815
-0.047006004 0.048545241 0.45514882
-0.032227881 0.048045669 0.45074886
-0.031820741 0.048030477 0.45061269
-0.031406745 0.04800443 0.45037457
-0.031007295 0.048000224 0.45034137
-0.03061079 0.048000537 0.4503504
-0.030212324 0.047997743 0.45033017
-0.029811706 0.04799141 0.4502767
-0.029415904 0.047992762 0.45029527
-0.02898146 0.047930244 0.44971445
-0.028575299 0.047913421 0.44956231
-0.028169874 0.047897376 0.44941735
-0.027772924 0.047895491 0.44940519
-0.027385555 0.047910314 0.44954967
-0.026983999 0.047900386 0.44946188
-0.026584802 0.047894422 0.44941112
-0.026165279 0.047851097 0.44900981
-0.025762126 0.04783684 0.44888109
-0.025364125 0.047831863 0.4488394
-0.024958478 0.047812078 0.44865867
-0.024560111 0.047805823 0.44860479
-0.024160979 0.047797862 0.44853482
-0.023758519 0.047782935 0.44839945
-0.023348607 0.047752269 0.44811624
-0.022955069 0.047754612 0.44814268
-0.022545114 0.047722287 0.44784373
-0.022149233 0.047719132 0.44781843
-0.021752786 0.047714625 0.44778037
-0.021354528 0.047705911 0.44770271
-0.020953976 0.047691636 0.44757283
-0.020548724 0.04766592 0.44733548
-0.02014708 0.047647733 0.44716865
-0.019749321 0.047638196 0.44708294
-0.019349046 0.047622073 0.44693536
-0.018955227 0.047621511 0.44693369
-0.018554192 0.047602404 0.44675794
-0.018156877 0.047592226 0.44666585
-0.017758325 0.047578286 0.44653839
-0.017359518 0.047563016 0.44639835
-0.016959738 0.047544308 0.44622597
-0.016564382 0.047537416 0.4461644
-0.01616353 0.047514025 0.44594795
-0.015772646 0.047519512 0.4460023
-0.015375899 0.047507163 0.44588929
-0.014981564 0.047501817 0.44584185
-0.014586355 0.047493331 0.44576493
-0.014192889 0.047490224 0.44573832
-0.013800106 0.047489285 0.44573203
-0.01341189 0.047504466 0.44587696
-0.013022618 0.047516715 0.44599426
-0.012639401 0.047552504 0.44633245
-0.065948367 0.049616188 0.46085235
-0.065537356 0.04961288 0.46083468
-0.065131404 0.04961339 0.46085238
-0.064693838 0.049589675 0.46064499
-0.064278252 0.049582608 0.46059209
-0.063871287 0.04958215 0.46060058
-0.063480176 0.049594067 0.46072394
-0.063073829 0.04959416 0.46073741
-0.062699392 0.049619507 0.46098539
-0.056219269 0.049286436 0.45806831
-0.055789962 0.049264051 0.45787144
-0.055398975 0.049275421 0.45798826
-0.054980513 0.049262345 0.45787776
-0.054552872 0.049240787 0.45768833
-0.054121487 0.049215503 0.45746425
-0.05369712 0.049196277 0.45729628
-0.053294156 0.049196515 0.45730922
-0.052876893 0.049183451 0.45719838
-0.052441061 0.049152788 0.45692393
-0.052033156 0.049148031 0.45689017
-0.051615238 0.049133662 0.45676699
-0.051178932 0.049101435 0.45647767
-0.050768409 0.049093619 0.45641527
-0.050363682 0.049091335 0.45640415
-0.049950879 0.049081076 0.45631886
-0.049538203 0.049070783 0.45623311
-0.049148709 0.049083464 0.45636094
-0.048746284 0.049083345 0.45636964
-0.031014891 0.04840922 0.45044211
-0.030618329 0.0484096 0.45045173
-0.030219393 0.048406184 0.45042595
-0.029821159 0.048403822 0.45040995
-0.029423129 0.048401725 0.4503963
-0.028999761 0.048357327 0.44998893
-0.028602425 0.048355713 0.44997954
-0.028187145 0.048323281 0.44968337
-0.027786359 0.048315141 0.44961309
-0.027383771 0.048303571 0.4495109
-0.026998796 0.048323199 0.44969893
-0.026592113 0.048303977 0.4495253
-0.026176756 0.04826818 0.44919732
-0.025763556 0.048235323 0.44889665
-0.025363317 0.048226092 0.4488157
-0.024964498 0.048219312 0.44875747
-0.024568319 0.048217494 0.44874543
-0.024170531 0.048212402 0.44870278
-0.023766952 0.048195407 0.44854924
-0.023371771 0.048195153 0.44855145
-0.022955012 0.048149623 0.44813225
-0.022558132 0.048144944 0.44809306
-0.022158561 0.048134241 0.44799778
-0.021764465 0.048135269 0.44801155
-0.021363871 0.048121698 0.44788936
-0.020967251 0.048116725 0.44784716
-0.02056352 0.048094943 0.44764841
-0.020156989 0.048065633 0.44737947
-0.01975744 0.048052136 0.44725764
-0.019358216 0.048038896 0.4471381
-0.018963356 0.048036158 0.44711629
-0.018567134 0.048029792 0.44706053
-0.018160921 0.047996737 0.44675633
-0.017765896 0.047992449 0.4467198
-0.017367419 0.047978424 0.44659254
-0.016970528 0.047968246 0.44650099
-0.016574329 0.047959588 0.44642347
-0.016168861 0.047923032 0.4460862
-0.015776921 0.04792574 0.44611439
-0.015383813 0.047924969 0.44611004
-0.014982528 0.047898009 0.44586188
-0.01459103 0.047901731 0.44589916
-0.014195953 0.04789358 0.44582593
-0.013803354 0.047893573 0.44582838
-0.013412558 0.047900006 0.44589067
-0.013025041 0.04791889 0.44606879
-0.012636011 0.047933213 0.44620436
-0.06647712 0.050115339 0.46167749
-0.065961652 0.050033364 0.46093538
-0.065585978 0.050057061 0.46116671
-0.065142512 0.050028995 0.46092111
-0.064731307 0.050025508 0.46090186
-0.064299367 0.050005849 0.46073356
-0.063889049 0.050002862 0.46071872
-0.063487947 0.050007097 0.46077043
-0.063093238 0.050016455 0.46086922
-0.062704965 0.050031073 0.46101645
-0.062344935 0.050068565 0.46137434
-0.055826612 0.049700886 0.45816228
-0.055411473 0.049690932 0.45808166
-0.054999519 0.049683712 0.45802611
-0.054572202 0.049662396 0.45784062
-0.054146271 0.049642041 0.4576638
-0.053718925 0.049620077 0.45747209
-0.053313393 0.049618073 0.45746437
-0.052907702 0.049615897 0.45745492
-0.052476756 0.04958982 0.45722502
-0.052059755 0.049576618 0.4571138
-0.051631983 0.04955288 0.45690528
-0.051227231 0.049551029 0.45689854
-0.050793536 0.049520932 0.45663124
-0.050379694 0.049509864 0.45653933
-0.049970005 0.049502742 0.45648369
-0.049553681 0.049488869 0.45636576
-0.049153108 0.049490634 0.4563919
-0.030624552 0.048816763 0.45053366
-0.030233409 0.048826043 0.4506253
-0.029828707 0.048813365 0.45051429
-0.029431002 0.048811968 0.45050722
-0.029016681 0.048782598 0.45024189
-0.028607767 0.048761625 0.45005402
-0.028196737 0.048736405 0.44982684
-0.027799357 0.048734397 0.44981384
-0.02740993 0.048746478 0.44993076
-0.027007459 0.048735376 0.44983366
-0.02659844 0.048711956 0.44962272
-0.02619726 0.0487024 0.44953966
-0.025784045 0.048669837 0.44924417
-0.025383335 0.048660226 0.44916046
-0.024978783 0.048642829 0.44900483
-0.02458806 0.048652239 0.44909653
-0.024181243 0.048629601 0.44889224
-0.023780476 0.04861857 0.44879508
-0.023378564 0.04860479 0.44867244
-0.022973867 0.048584647 0.44849101
-0.022564318 0.048553359 0.44820657
-0.022166951 0.048547633 0.44815806
-0.02176824 0.048538715 0.44807991
-0.021368738 0.048527673 0.4479821
-0.020970207 0.048518453 0.44790107
-0.020571899 0.048509412 0.44782159
-0.020163512 0.048475783 0.44751504
-0.019766605 0.04846897 0.44745594
-0.019366607 0.048454143 0.44732276
-0.018972356 0.048453383 0.44731936
-0.018570656 0.048433162 0.44713622
-0.018177124 0.048433833 0.44714588
-0.017775701 0.048413046 0.44695732
-0.0173725 0.048386358 0.44671422
-0.016980393 0.048390053 0.44675156
-0.016578045 0.048364051 0.44651458
-0.016183773 0.048360921 0.44648871
-0.015790794 0.048361596 0.44649786
-0.015388955 0.048334472 0.44625035
-0.014987636 0.048307616 0.44600517
-0.014595563 0.048309915 0.44602901
-0.014200316 0.04830154 0.44595432
-0.013805154 0.048292991 0.44587791
-0.013415725 0.048304588 0.4459874
-0.013025528 0.048314042 0.44607699
-0.012635682 0.048325419 0.44618434
-0.066463448 0.050512791 0.46157256
-0.066033408 0.050495405 0.46142682
-0.065632999 0.050500598 0.46148732
-0.065177128 0.050462931 0.46115607
-0.064745381 0.050443582 0.46099207
-0.064327955 0.050435212 0.46092838
-0.06391041 0.050426647 0.46086282
-0.063502766 0.050425831 0.460868
-0.063092723 0.050423089 0.46085554
-0.062716089 0.050447177 0.46108824
-0.062336098 0.050468877 0.46129894
-0.061944488 0.050481383 0.46142566
-0.056324333 0.050188847 0.45890442
-0.05586125 0.050136451 0.45843658
-0.055426534 0.050108947 0.45819619
-0.055028927 0.050114829 0.45826101
-0.054608881 0.050100215 0.45813838
-0.054162096 0.050060675 0.4577876
-0.05377214 0.050073449 0.45791525
-0.053314678 0.050023086 0.45746538
-0.0529145 0.050026115 0.45750374
-0.052499697 0.050015252 0.45741493
-0.052082613 0.050002038 0.45730454
-0.051673304 0.049996134 0.45726097
-0.051225662 0.049952764 0.45687458
-0.050821967 0.049951896 0.45687687
-0.050398935 0.049931858 0.45670372
-0.049985006 0.049920596 0.45661077
-0.049573381 0.049911462 0.45653716
-0.049181368 0.049922097 0.45664436
-0.03023598 0.049227621 0.45065388
-0.029836733 0.049223911 0.45062584
-0.029436572 0.049218569 0.45058277
-0.029033281 0.049207784 0.45048979
-0.028620889 0.049181055 0.4502508
-0.028216334 0.049167231 0.45012981
-0.027810076 0.049150009 0.44997767
-0.027413351 0.049149383 0.44997734
-0.027013727 0.04914346 0.44992843
-0.026609873 0.049129553 0.44980639
-0.02620982 0.049122348 0.4497456
-0.025797233 0.049091075 0.44946435
-0.025397586 0.049083836 0.44940308
-0.024996195 0.049072944 0.44930825
-0.024594264 0.049060632 0.44920036
-0.024198586 0.049060591 0.44920468
-0.023793723 0.049041618 0.44903564
-0.023387501 0.04901915 0.44883451
-0.022983339 0.049000308 0.44866648
-0.022584476 0.048992306 0.44859761
-0.02218017 0.048971996 0.44841596
-0.021780115 0.048960514 0.44831502
-0.021381078 0.048950937 0.44823146
-0.020980222 0.048936754 0.44810569
-0.020581067 0.04892607 0.44801182
-0.020177888 0.048905224 0.44782481
-0.019783242 0.048904642 0.44782329
-0.019375317 0.048870545 0.44751474
-0.018979045 0.048865028 0.44746783
-0.01857971 0.048851237 0.44734508
-0.018183494 0.048845224 0.44729346
-0.017780324 0.048819844 0.44706446
-0.017386694 0.048820112 0.44707012
-0.016982634 0.048790425 0.44680148
-0.016591145 0.048796304 0.44685844
-0.016189601 0.048772182 0.44664055
-0.015793631 0.048764065 0.44656917
-0.01539311 0.048741128 0.44636196
-0.014997616 0.048733324 0.44629326
-0.01460012 0.048718426 0.44615951
-0.014205818 0.048713651 0.44611838
-0.013810819 0.048706152 0.44605222
-0.013417913 0.048705805 0.44605151
-0.013025942 0.048708946 0.44608259
-0.012635196 0.048717011 0.44615865
-0.012246978 0.048735645 0.44633153
-0.066468164 0.05092416 0.46159527
-0.066062182 0.05092521 0.46161786
-0.065635704 0.050910369 0.46149638
-0.065225787 0.050908264 0.46149027
-0.064782508 0.050879944 0.4612464
-0.064358413 0.050866421 0.46113661
-0.063930087 0.050849367 0.46099469
-0.06351684 0.050844155 0.46096009
-0.063123934 0.050855264 0.4610734
-0.062717214 0.050855324 0.46108642
-0.062339593 0.050879136 0.46131474
-0.061939243 0.050884582 0.46137649
-0.061534721 0.050886657 0.46140757
-0.061117128 0.050877877 0.46134013
-0.056350611 0.050617605 0.4591085
-0.055875532 0.050554112 0.45854375
-0.055457219 0.050541416 0.45843977
-0.055053353 0.050541807 0.45845434
-0.054635815 0.050529566 0.45835423
-0.054206889 0.050506532 0.45815617
-0.053800721 0.050504506 0.4581486
-0.053366296 0.050475724 0.45789823
-0.052930966 0.050445646 0.457636
-0.052514669 0.050433382 0.4575353
-0.052106429 0.050428737 0.45750359
-0.051689394 0.050415426 0.45739326
-0.051267494 0.050397135 0.4572376
-0.050837964 0.050370991 0.45701063
-0.050428096 0.05036407 0.45695794
-0.050007734 0.050346475 0.45680836
-0.049604245 0.050345711 0.4568114
-0.029044366 0.049624 0.450652
-0.028635271 0.049603034 0.45046726
-0.028226955 0.049582843 0.45028952
-0.027828157 0.049579043 0.45026049
-0.027424218 0.049565837 0.45014596
-0.027030537 0.049571056 0.45019874
-0.026624171 0.049552821 0.45003837
-0.026212357 0.049523745 0.44977948
-0.02581515 0.0495218 0.44976687
-0.025414182 0.049512472 0.44968712
-0.024999302 0.049475309 0.44935453
-0.024599522 0.049467318 0.44928676
-0.024206163 0.04947219 0.44933578
-0.023803899 0.049458724 0.44921815
-0.023399681 0.049440671 0.44905871
-0.022992905 0.049416505 0.44884369
-0.022591695 0.049403664 0.44873148
-0.022193737 0.049397606 0.44868076
-0.021789541 0.049377196 0.44849959
-0.021391014 0.049369115 0.44843033
-0.020991893 0.049359333 0.44834554
-0.020594776 0.04935398 0.4483009
-0.020187935 0.049324658 0.44803843
-0.019786475 0.049307588 0.44788715
-0.019386087 0.049292542 0.4477542
-0.018984411 0.049273532 0.44758514
-0.018595366 0.049287196 0.44771281
-0.018195057 0.049270947 0.44756866
-0.017790979 0.049243554 0.44732317
-0.017393291 0.049233004 0.44723064
-0.01698857 0.0492016 0.44694856
-0.016593752 0.049198065 0.44691956
-0.016195688 0.049184509 0.44679943
-0.015800126 0.049178068 0.44674385
-0.015402782 0.049165603 0.44663349
-0.015007204 0.049158279 0.44656971
-0.014607721 0.049137425 0.44638294
-0.014209897 0.049121153 0.44623771
-0.013816568 0.049119934 0.44622916
-0.013420813 0.049109768 0.44613922
-0.013028994 0.049113836 0.4461785
-0.012638927 0.049124964 0.44628185
-0.012248269 0.049134433 0.4463701
-0.011858171 0.049146853 0.44648498
-0.066480681 0.051341616 0.4616721
-0.066097096 0.051360134 0.46185172
-0.065670177 0.051344994 0.46172857
-0.065234557 0.051322829 0.46154222
-0.064804353 0.051304672 0.46139178
-0.064385734 0.051295508 0.46132219
-0.063960582 0.051280998 0.46120438
-0.063540213 0.051270165 0.46111956
-0.06312912 0.051266715 0.46110114
-0.062720224 0.051265031 0.46109846
-0.062335275 0.051283013 0.46127263
-0.061933491 0.051287297 0.4613235
-0.061535843 0.051295087 0.46140581
-0.061127417 0.051293936 0.46140763
-0.060719494 0.051293191 0.46141306
-0.057304349 0.051151428 0.46023169
-0.056874312 0.051129751 0.46004799
-0.056358028 0.05102966 0.45915872
-0.055901632 0.050982744 0.45874777
-0.055487454 0.050973926 0.45867956
-0.055068854 0.050960895 0.45857334
-0.054657415 0.050954342 0.4585253
-0.054223176 0.050926276 0.45828363
-0.053802166 0.050910309 0.45815074
-0.053370342 0.050883792 0.45792282
-0.052972198 0.050889228 0.45798236
-0.052547 0.050868552 0.45780686
-0.052129224 0.050854806 0.45769358
-0.051728211 0.05085732 0.4577266
-0.051306851 0.050839718 0.45757845
-0.050876945 0.050813302 0.45735091
-0.050454956 0.050794426 0.4571912
-0.02864247 0.050012879 0.45057073
-0.028240524 0.050003983 0.4504962
-0.027839584 0.049996648 0.45043561
-0.027432276 0.049977496 0.45026848
-0.027033061 0.049972739 0.45023099
-0.026638854 0.04997725 0.45027685
-0.026234841 0.04996321 0.45015556
-0.025823224 0.049934048 0.44989786
-0.025415717 0.049912039 0.44970456
-0.0250118 0.049896505 0.44956949
-0.024615576 0.049896058 0.4495703
-0.024210719 0.049877819 0.44941071
-0.023816533 0.049881324 0.44944692
-0.023403497 0.049844794 0.44912237
-0.023008797 0.049846739 0.44914433
-0.022603655 0.049825732 0.44895947
-0.022202324 0.049812526 0.44884479
-0.021800056 0.049796704 0.44870648
-0.021401394 0.049788695 0.44863844
-0.021000659 0.049775466 0.44852331
-0.020600941 0.04976419 0.44842562
-0.020196797 0.049741574 0.44822571
-0.019794788 0.04972342 0.44806591
-0.019391602 0.049701512 0.44787222
-0.018994005 0.049693316 0.44780201
-0.01860193 0.04969953 0.44786155
-0.018198345 0.049674593 0.44764027
-0.017803054 0.049671698 0.44761756
-0.017402828 0.049654592 0.44746664
-0.016998805 0.049625613 0.4472087
-0.016601413 0.04961507 0.44711682
-0.016201511 0.049596336 0.446951
-0.015805615 0.049589243 0.44689
-0.015414317 0.049596578 0.44695896
-0.015012139 0.049568374 0.44670758
-0.014613422 0.049550392 0.44654822
-0.014216973 0.049539316 0.44645098
-0.013821018 0.049529396 0.44636407
-0.013424918 0.049518354 0.44626698
-0.01303467 0.049528878 0.44636416
-0.012639789 0.049521912 0.44630364
-0.01224907 0.049531333 0.44639072
-0.011859217 0.04954499 0.44651589
-0.066533402 0.051790524 0.46202803
-0.066128135 0.051792454 0.46205834
-0.065684482 0.051764164 0.46181896
-0.065275691 0.051763162 0.46182299
-0.064844966 0.051744651 0.46167073
-0.064416826 0.051727977 0.46153474
-0.06396921 0.051695358 0.46125641
-0.063567884 0.051699966 0.46131015
-0.063150749 0.051691696 0.4612489
-0.062724166 0.051675532 0.46111718
-0.062319688 0.051677492 0.46114704
-0.06193351 0.051694751 0.4613134
-0.06152634 0.051694602 0.4613243
-0.06112045 0.051695529 0.46134478
-0.060713276 0.05169538 0.46135557
-0.060308322 0.051697131 0.46138322
-0.058629449 0.051652361 0.46103093
-0.058208298 0.051639508 0.46092781
-0.05775303 0.051595993 0.46055099
-0.057311196 0.051563952 0.46027642
-0.056881521 0.051542468 0.46009603
-0.056366708 0.051442977 0.45921922
-0.055930194 0.051414024 0.45897195
-0.055517174 0.051406402 0.458915
-0.055086859 0.051382538 0.45871302
-0.054683108 0.051383283 0.45873061
-0.054247476 0.051353861 0.45847878
-0.053829975 0.05134128 0.45837733
-0.053415071 0.051331021 0.45829639
-0.052992586 0.051313251 0.45814839
-0.052570622 0.051295731 0.45800248
-0.052146103 0.051275413 0.45783153
-0.051751655 0.051284593 0.45792386
-0.051308017 0.05124478 0.45757869
-0.050924405 0.051264763 0.45776734
-0.050483137 0.051226564 0.45743638
-0.027849264 0.050411418 0.45058236
-0.027443429 0.050395075 0.45044172
-0.027046353 0.050394569 0.45044252
-0.026642606 0.050381441 0.45033041
-0.026246119 0.05038185 0.45033926
-0.025838446 0.050360475 0.45015326
-0.025431933 0.050340723 0.44998172
-0.025021438 0.050312348 0.44973296
-0.02462275 0.050307173 0.44969156
-0.024226274 0.050306443 0.44968972
-0.023823814 0.05029304 0.44957462
-0.023422517 0.050281685 0.44947767
-0.023020845 0.050269123 0.44936985
-0.022610953 0.050237857 0.44909474
-0.022208208 0.050221644 0.44895414
-0.021809138 0.050213311 0.44888386
-0.021413831 0.05021349 0.44888958
-0.021009335 0.050191719 0.448699
-0.020609809 0.050181221 0.44860914
-0.020205552 0.050158564 0.44841048
-0.019805672 0.050146095 0.44830281
-0.01940768 0.050138 0.44823414
-0.019006509 0.050121181 0.44808739
-0.01860683 0.050107665 0.44797009
-0.018208023 0.050095968 0.44786894
-0.017807331 0.050078448 0.44771573
-0.017409988 0.050069783 0.44764152
-0.017010735 0.050055079 0.44751328
-0.016607815 0.050028637 0.44727996
-0.016212232 0.050023559 0.44723758
-0.015811889 0.050003171 0.44705823
-0.01541615 0.049996678 0.44700301
-0.015017738 0.049980942 0.44686511
-0.014623803 0.049979672 0.44685644
-0.014223792 0.049956989 0.44665623
-0.013827493 0.049946431 0.44656432
-0.01342963 0.049929433 0.44641477
-0.013033634 0.049918562 0.44631994
-0.012641654 0.049922884 0.4463608
-0.012251865 0.049936417 0.44648394
-0.011861252 0.049947374 0.44658399
-0.011471973 0.04996489 0.44674262
-0.01107715 0.04995865 0.44668874
-0.010677394 0.049928896 0.44642457
