# .PCD v0.7 - Point Cloud Data file format
VERSION 0.7
FIELDS x y z
SIZE 4 4 4
TYPE F F F
COUNT 1 1 1
WIDTH 1335
HEIGHT 1
VIEWPOINT 0 0 0 1 0 0 0
POINTS 1335
DATA ascii
0.026984517 -0.054151867 0.39816391
0.027329281 -0.054139186 0.39806449
0.027676074 -0.0541308 0.39799652
0.028024705 -0.05412617 0.39795613
0.028365748 -0.054107178 0.3978101
0.028703447 -0.054082356 0.39762107
0.029053777 -0.054081637 0.39760926
0.02939813 -0.054069944 0.39751661
0.029742191 -0.054057993 0.39742205
0.030085629 -0.054045208 0.39732125
0.0304267 -0.054028504 0.39719161
0.030775569 -0.054025874 0.39716539
0.031116677 -0.054009829 0.39704043
0.031461399 -0.05400034 0.39696363
0.031805735 -0.053990409 0.39688349
0.032148663 -0.05397832 0.39678743
0.032491542 -0.053966425 0.39669272
0.032839045 -0.053962372 0.39665562
0.033187125 -0.053959347 0.39662594
0.033532578 -0.053952154 0.39656559
0.033881191 -0.053950138 0.39654323
0.034228157 -0.053945567 0.39650205
0.034580577 -0.053949602 0.39652398
0.034925457 -0.053941905 0.39645967
0.035274949 -0.05394141 0.39644822
0.0081295688 -0.054519754 0.40372869
0.0084816478 -0.054495629 0.40354779
0.0088315951 -0.054460309 0.40328386
0.0091845924 -0.054445788 0.40317395
0.0095328437 -0.054405261 0.40287137
0.0098879132 -0.054405171 0.40286809
0.010240364 -0.054391164 0.40276176
0.010592573 -0.054376852 0.40265307
0.010943369 -0.054356445 0.40249917
0.011295532 -0.054343902 0.40240344
0.011646146 -0.054324895 0.40225974
0.012000074 -0.054322008 0.40223533
0.012355356 -0.054325238 0.40225619
0.012706388 -0.054310113 0.40214106
0.013057935 -0.054297954 0.40204778
0.013404864 -0.054267745 0.40182078
0.013761405 -0.054277003 0.40188593
0.014108164 -0.054248177 0.401669
0.01445957 -0.054238185 0.40159151
0.014813026 -0.054236189 0.40157309
0.015164635 -0.054227665 0.4015063
0.015515462 -0.05421681 0.40142217
0.015863137 -0.054195657 0.40126175
0.016211955 -0.05417924 0.40113628
0.016565865 -0.054180186 0.40113935
0.016914077 -0.054162845 0.40100691
0.017259732 -0.054138187 0.40082023
0.017613271 -0.054138757 0.40082023
0.017959978 -0.054118719 0.40066758
0.018306168 -0.054097917 0.40050924
0.018661687 -0.054104954 0.40055692
0.0190058 -0.054079264 0.40036225
0.019353757 -0.05406525 0.40025395
0.019703202 -0.054055825 0.40017954
0.020054011 -0.054050405 0.40013468
0.020401813 -0.054037206 0.40003219
0.020746073 -0.054015227 0.39986464
0.021101132 -0.054021638 0.39990717
0.021448953 -0.054009616 0.39981315
0.021797039 -0.053998623 0.39972669
0.022141118 -0.053978212 0.39957047
0.022484621 -0.053957071 0.39940873
0.022835473 -0.053953927 0.39938018
0.023188449 -0.053955834 0.39938891
0.023529069 -0.053929351 0.39918751
0.023875691 -0.053917203 0.39909205
0.024221798 -0.053904265 0.39899072
0.024569616 -0.053895451 0.39891982
0.024924703 -0.0539026 0.398967
0.025263805 -0.053875465 0.39876038
0.025610598 -0.053865254 0.3986789
0.02595376 -0.053847779 0.39854363
0.026300287 -0.053837653 0.39846271
0.026650846 -0.053835943 0.39844397
0.026989831 -0.053811204 0.39825469
0.027338611 -0.053806372 0.39821276
0.027684692 -0.053796429 0.39813283
0.028024018 -0.053773761 0.3979587
0.028374452 -0.053772707 0.39794448
0.02871651 -0.053755987 0.3978143
0.029063882 -0.053749517 0.3977598
0.02940554 -0.053732745 0.39762905
0.029753068 -0.053726979 0.39757964
0.030094402 -0.053710282 0.39744931
0.030435169 -0.05369297 0.39731437
0.030780366 -0.05368378 0.39723945
0.031124813 -0.053673498 0.39715636
0.031464599 -0.053655505 0.39701617
0.031814907 -0.053655643 0.39701006
0.032161437 -0.053649485 0.39695728
0.032499719 -0.053629842 0.39680466
0.032847703 -0.053626452 0.39677224
0.033187818 -0.053610433 0.39664629
0.033533357 -0.0536034 0.39658684
0.033882376 -0.053602036 0.39656916
0.034228027 -0.053595416 0.39651257
0.0345769 -0.053593922 0.39649382
0.034928612 -0.053596817 0.39650747
0.035274051 -0.05359013 0.39645016
0.035622764 -0.053588491 0.3964301
0.035971761 -0.053587303 0.39641339
0.0074198036 -0.054178014 0.4038516
0.0077755558 -0.054176804 0.40384045
0.008129755 -0.054165345 0.40375283
0.0084792757 -0.054124985 0.40344971
0.0088329595 -0.054113366 0.40336078
0.0091863731 -0.054101057 0.40326664
0.00953802 -0.054079652 0.40310454
0.0098889079 -0.054055624 0.40292287
0.010247272 -0.054072712 0.40304765
0.010593778 -0.054028187 0.402713
0.010949465 -0.054031834 0.40273744
0.011299864 -0.054009989 0.40257171
0.011652918 -0.054001763 0.40250748
0.012005368 -0.053991318 0.40242657
0.012356241 -0.053974576 0.40229872
0.012705966 -0.053953893 0.40214136
0.013062911 -0.053964153 0.40221462
0.01341078 -0.053937372 0.40201166
0.013763724 -0.053931851 0.40196714
0.014112647 -0.053911235 0.40181005
0.014463443 -0.053898621 0.40171251
0.01481691 -0.053896312 0.40169168
0.015168424 -0.053887177 0.40161991
0.015518793 -0.053874489 0.40152156
0.015867218 -0.053855754 0.40137815
0.016220342 -0.053853452 0.40135702
0.016567579 -0.053832099 0.40119395
0.016914019 -0.05380911 0.40101856
0.017271942 -0.053822849 0.40111682
0.017620124 -0.053806294 0.40098923
0.017968642 -0.053791381 0.40087378
0.018316001 -0.053773645 0.40073729
0.018660763 -0.053749103 0.40054995
0.019011447 -0.053742208 0.40049407
0.019363821 -0.053740244 0.40047491
0.019714432 -0.053733557 0.4004204
0.02006018 -0.053714082 0.40027058
0.020410234 -0.053706609 0.40021008
0.02075782 -0.053693 0.40010381
0.021108977 -0.053688932 0.40006858
0.021456851 -0.053676777 0.39997301
0.021805737 -0.053667504 0.39989883
0.022153888 -0.053656753 0.39981356
0.022499766 -0.053640913 0.3996903
0.022844872 -0.053623751 0.39955717
0.023194257 -0.053617004 0.3995015
0.023536574 -0.053594358 0.39932731
0.023886157 -0.053588681 0.39927951
0.024227217 -0.053564321 0.39909244
0.024579072 -0.053564191 0.39908579
0.024926882 -0.053555366 0.39901435
0.025273342 -0.053543925 0.39892331
0.025623403 -0.053540334 0.39889061
0.02596483 -0.053519029 0.39872599
0.026311997 -0.053509966 0.39865243
0.026654538 -0.053491864 0.3985115
0.027004212 -0.053488359 0.39847922
0.027347973 -0.053473372 0.39836138
0.027694324 -0.053463779 0.3982836
0.028032167 -0.053438202 0.39808667
0.028381268 -0.053434446 0.39805228
0.028726859 -0.053424258 0.39796987
0.029071398 -0.053412389 0.39787486
0.029414877 -0.05339887 0.39776748
0.029759038 -0.053386893 0.39767158
0.030100239 -0.053369951 0.39753857
0.030448264 -0.053365346 0.39749745
0.030795453 -0.053359408 0.39744627
0.031129092 -0.053330384 0.39722309
0.031482898 -0.053336166 0.39725909
0.031823523 -0.053319745 0.39712963
0.032171525 -0.0533159 0.39709377
0.032506753 -0.053291205 0.39690259
0.032850288 -0.053280503 0.39681551
0.033192199 -0.053267412 0.39671063
0.033540901 -0.053265385 0.39668804
0.033880822 -0.053249601 0.39656293
0.034231301 -0.053250562 0.39656246
0.034576945 -0.053244054 0.39650631
0.034925863 -0.053242669 0.39648822
0.035270382 -0.053234674 0.39642084
0.035621155 -0.053236168 0.39642411
0.035970885 -0.053236108 0.39641565
0.036317308 -0.053231191 0.39637098
0.036664236 -0.053227101 0.39633244
0.037026927 -0.053245757 0.39646316
0.0070699533 -0.053868636 0.40421638
0.0074196607 -0.053821281 0.40385902
0.0077736401 -0.053807832 0.40375596
0.0081261629 -0.053785909 0.40358928
0.0084816273 -0.053784486 0.40357628
0.0088357059 -0.053774733 0.4035008
0.0091886204 -0.053758923 0.40337977
0.0095418431 -0.053746026 0.40328047
0.0098932851 -0.053724382 0.40311548
0.010246247 -0.053712204 0.40302148
0.010599829 -0.053703982 0.40295705
0.01095218 -0.053690255 0.40285125
0.011305627 -0.053682592 0.40279093
0.011658471 -0.053672612 0.40271306
0.012009956 -0.053657155 0.40259409
0.012363239 -0.053650387 0.40254018
0.012710801 -0.053619854 0.40230796
0.013067296 -0.053627644 0.40236315
0.013417956 -0.053611703 0.40224025
0.013767324 -0.053591549 0.40208566
0.014119379 -0.053582612 0.40201509
0.014468877 -0.05356463 0.40187669
0.014819081 -0.053550072 0.40176383
0.015170827 -0.053541623 0.40169674
0.015523217 -0.053535786 0.40164918
0.015874621 -0.053526878 0.40157852
0.016221903 -0.053504761 0.4014087
0.016572541 -0.053494424 0.40132716
0.016925685 -0.053492445 0.40130824
0.017273838 -0.053475078 0.4011738
0.017624315 -0.053465471 0.40109751
0.017977711 -0.053464904 0.40108901
0.018325428 -0.053447813 0.40095642
0.018676102 -0.053439815 0.40089199
0.019024407 -0.053425476 0.4007799
0.019373534 -0.053413913 0.40068859
0.019718641 -0.053391874 0.40051866
0.020071108 -0.053390194 0.40050131
0.020414054 -0.053363681 0.40029764
0.020758001 -0.05334064 0.40011993
0.021110564 -0.053340141 0.40011126
0.021461338 -0.053335205 0.40006924
0.021811627 -0.053329244 0.40001941
0.022156103 -0.053309482 0.39986604
0.022505319 -0.053301569 0.39980149
0.022852475 -0.053289097 0.39970261
0.023203997 -0.053287026 0.39968169
0.023547417 -0.053266689 0.39952371
0.023893744 -0.053253431 0.39941874
0.024244219 -0.053249665 0.39938492
0.024587745 -0.053230967 0.399239
0.024928181 -0.05320619 0.39904749
0.025278457 -0.053202812 0.39901635
0.025625853 -0.053193562 0.39894107
0.025975993 -0.053190164 0.39890966
0.026317446 -0.053169318 0.3987473
0.026665796 -0.053162765 0.39869207
0.027014541 -0.053157162 0.39864385
0.027356828 -0.053139154 0.39850259
0.027703868 -0.053130724 0.39843309
0.028043294 -0.053108077 0.3982569
0.028390592 -0.053100716 0.39819521
0.02873534 -0.053088829 0.39809954
0.029082604 -0.05308181 0.39804035
0.029422935 -0.053062454 0.39788857
0.029772406 -0.053059854 0.39786232
0.030114856 -0.053044938 0.39774364
0.030458119 -0.053031784 0.39763817
0.030802691 -0.053021174 0.39755172
0.031149702 -0.05301496 0.3974981
0.031487223 -0.05299291 0.39732572
0.031828646 -0.052977838 0.39720556
0.032176849 -0.052974261 0.3971715
0.032523863 -0.052968819 0.39712346
0.032860458 -0.052946709 0.3969503
0.033207577 -0.052941836 0.39690638
0.033543158 -0.05291887 0.3967267
0.033894315 -0.052920688 0.39673275
0.034233287 -0.052903645 0.39659736
0.034580067 -0.052898888 0.39655399
0.034924041 -0.052889977 0.39647943
0.03527179 -0.052886896 0.39644849
0.035621993 -0.052887529 0.3964453
0.035967801 -0.052881673 0.39639348
0.036316842 -0.052880641 0.39637768
0.036663722 -0.052876521 0.39633867
0.037013695 -0.05287689 0.39633325
0.037356529 -0.052867148 0.39625198
0.037719235 -0.052885447 0.39638081
0.006716263 -0.053532951 0.40438703
0.0070670182 -0.05349043 0.40406382
0.0074202688 -0.053469963 0.40390718
0.0077748927 -0.053460803 0.40383589
0.008131396 -0.053464815 0.403864
0.0084850956 -0.053450808 0.40375596
0.0088385874 -0.053436682 0.40364686
0.0091907214 -0.053415749 0.40348634
0.0095440755 -0.053403199 0.40338904
0.0098982174 -0.0533958 0.40333056
0.010251543 -0.053384662 0.40324381
0.010602575 -0.05336272 0.40307534
0.010954749 -0.05334777 0.40295959
0.011309979 -0.053348165 0.4029597
0.011663235 -0.053339504 0.40289137
0.012013168 -0.053316608 0.40271538
0.012368104 -0.053316586 0.40271214
0.012718148 -0.053296071 0.40255398
0.013073927 -0.053300049 0.40258077
0.013423823 -0.053280454 0.40242946
0.01377493 -0.053266559 0.40232113
0.014126414 -0.053254776 0.40222862
0.01447442 -0.053230777 0.40204385
0.014824584 -0.053215671 0.40192616
0.015176532 -0.053207524 0.40186089
0.015528665 -0.053200379 0.4018032
0.015879991 -0.05319085 0.40172735
0.016230471 -0.05317897 0.40163374
0.016579274 -0.05316221 0.40150315
0.016927706 -0.053144984 0.40136901
0.017280288 -0.053141233 0.40133652
0.017629461 -0.053127341 0.40122741
0.017984061 -0.053130034 0.40124348
0.018333539 -0.053117793 0.40114668
0.018676186 -0.053086583 0.40090656
0.019026561 -0.0530781 0.40083796
0.01937882 -0.053075086 0.4008106
0.019726016 -0.05305855 0.40068108
0.020076634 -0.053051639 0.40062419
0.02042833 -0.053047769 0.40059015
0.020769812 -0.053017952 0.40036014
0.021122765 -0.053017933 0.40035504
0.021473093 -0.053011421 0.40030086
0.021820027 -0.052996885 0.400186
0.022161053 -0.052968681 0.39996788
0.022511065 -0.052962501 0.39991599
0.022857398 -0.052947991 0.39980111
0.02320442 -0.052935496 0.39970139
0.023555215 -0.052931853 0.39966843
0.023899909 -0.052914806 0.39953417
0.024249766 -0.052909512 0.39948863
0.024592467 -0.052888986 0.39932796
0.024937898 -0.05287483 0.39921534
0.025285592 -0.052865792 0.39914134
0.025630696 -0.052851655 0.39902869
0.025983136 -0.052852832 0.39903161
0.026327688 -0.052838139 0.39891466
0.026675994 -0.052831274 0.39885673
0.027019331 -0.052814867 0.39872673
0.027364086 -0.052801624 0.39862052
0.02770845 -0.052787963 0.39851108
0.028057327 -0.052783139 0.39846829
0.028400054 -0.052767009 0.39834005
0.028744843 -0.05275505 0.39824325
0.029083341 -0.05273198 0.3980625
0.029429626 -0.052723408 0.39799112
0.029780451 -0.052723069 0.39798185
0.030126659 -0.052714661 0.39791158
0.030470658 -0.052702628 0.39781389
0.03081296 -0.052687962 0.39769623
0.031155758 -0.052674465 0.39758733
0.031505011 -0.052672062 0.39756215
0.031841222 -0.052648142 0.39737445
0.032189123 -0.052643869 0.39733493
0.032541916 -0.052647594 0.39735577
0.032877237 -0.052623276 0.39716485
0.033221148 -0.05261308 0.39708048
0.033566058 -0.052604653 0.3970094
0.03389284 -0.052568283 0.39672732
0.034247298 -0.052575149 0.39677152
0.03458992 -0.052563883 0.39667878
0.034932643 -0.052552998 0.39658886
0.035275981 -0.052543238 0.39650738
0.035620298 -0.05253512 0.39643818
0.035971884 -0.052537773 0.39645022
0.036312804 -0.052524947 0.39634541
0.036668707 -0.05253382 0.39640427
0.037014816 -0.052528646 0.396357
0.037362881 -0.052526306 0.39633104
0.037709717 -0.052522298 0.39629248
0.038076144 -0.052545398 0.39645842
0.0060086902 -0.05322272 0.40475503
0.0063604014 -0.053181149 0.40443704
0.0067151613 -0.053168114 0.40433607
0.0070691141 -0.05315033 0.40419883
0.0074261203 -0.0531561 0.40424067
0.0077789123 -0.053132556 0.4040595
0.0081329979 -0.053119514 0.40395814
0.0084846299 -0.053092219 0.40374827
0.0088411383 -0.053096395 0.40377769
0.0091951657 -0.053085934 0.4036957
0.0095480997 -0.053070165 0.40357327
0.0099023199 -0.053062417 0.40351179
0.010256751 -0.053056289 0.40346256
0.010608 -0.053034678 0.40329546
0.010963747 -0.053036213 0.40330434
0.011315673 -0.053019747 0.40317628
0.011665626 -0.052995324 0.40298757
0.012018667 -0.052985948 0.40291324
0.012372348 -0.052979853 0.40286383
0.012721396 -0.052954812 0.40267023
0.013076077 -0.05295394 0.40266034
0.013426911 -0.052937943 0.40253538
0.013778463 -0.052925527 0.40243757
0.014132163 -0.052921768 0.40240553
0.014483435 -0.052909333 0.40230739
0.014835135 -0.052899018 0.40222535
0.015189872 -0.052899752 0.40222722
0.015537843 -0.052877422 0.40205371
0.015891127 -0.052873779 0.40202212
0.016238295 -0.052850373 0.40184024
0.016588366 -0.052837215 0.4017362
0.016938789 -0.052825708 0.40164465
0.017287567 -0.052809644 0.40151837
0.017639045 -0.052802298 0.40145832
0.017991291 -0.052797504 0.40141758
0.0183383 -0.052777819 0.40126354
0.018684085 -0.052755412 0.4010888
0.019034067 -0.052745484 0.40100875
0.019388394 -0.05274773 0.40102124
0.019739978 -0.052742556 0.40097728
0.020079842 -0.052706808 0.40070078
0.020427553 -0.052692536 0.40058747
0.020778762 -0.052687619 0.40054524
0.021134034 -0.052692987 0.40058109
0.021482741 -0.052682087 0.4004932
0.021823607 -0.052652612 0.40026402
0.022177264 -0.052654445 0.40027282
0.022518942 -0.052628234 0.40006831
0.022864124 -0.052610889 0.39993116
0.023211282 -0.05259854 0.39983192
0.02356717 -0.052606046 0.39988351
0.023911104 -0.052587047 0.39973357
0.024260933 -0.052581374 0.39968485
0.024603087 -0.052559469 0.39951268
0.024947191 -0.052542284 0.3993763
0.025291281 -0.052525546 0.39924327
0.025643289 -0.052525491 0.39923695
0.025984462 -0.052503545 0.39906415
0.026330454 -0.052491784 0.39896876
0.026678722 -0.05248481 0.39890966
0.027029812 -0.052483503 0.39889354
0.027373945 -0.052468888 0.3987762
0.027717642 -0.05245382 0.39865535
0.028059591 -0.05243586 0.39851251
0.028407259 -0.052428894 0.39845312
0.028753713 -0.052419886 0.39837813
0.029095169 -0.052402101 0.39823636
0.029449925 -0.052408401 0.39827758
0.029790511 -0.05238964 0.39812827
0.030132409 -0.052373592 0.3979995
0.030472724 -0.052355181 0.39785275
0.030824393 -0.052356489 0.39785567
0.031174958 -0.052355912 0.39784425
0.0315088 -0.052327566 0.39762181
0.031854108 -0.052318681 0.39754713
0.032199465 -0.052310064 0.39747444
0.032548774 -0.052307986 0.39745134
0.032884102 -0.052283727 0.39725962
0.03323181 -0.05227945 0.39721969
0.033567432 -0.052256446 0.39703742
0.033911757 -0.052247327 0.39696053
0.034257468 -0.05224051 0.3969011
0.034595329 -0.052221965 0.39675254
0.034944173 -0.052220222 0.39673147
0.035289872 -0.052213848 0.39667523
0.035622738 -0.052188806 0.39647701
0.035973273 -0.052189879 0.39647719
0.036316939 -0.052181065 0.39640221
0.036666546 -0.052180868 0.39639258
0.037019953 -0.052186035 0.39642364
0.037362557 -0.052176014 0.39633927
0.037714437 -0.052179012 0.39635369
0.038070507 -0.0521877 0.3964113
0.03844152 -0.052216534 0.39662182
0.0060067074 -0.052848913 0.40463725
0.0063615614 -0.052834656 0.40452626
0.0067181392 -0.052835468 0.40453061
0.0070729726 -0.052823175 0.4044345
0.0074270354 -0.052806575 0.40430537
0.0077825235 -0.052801162 0.40426177
0.0081375409 -0.052793164 0.40419838
0.0084931683 -0.052789632 0.40416899
0.0088440431 -0.052758031 0.4039247
0.0091992738 -0.052753836 0.40389022
0.0095526613 -0.052739792 0.40378016
0.0099054351 -0.052723479 0.4036527
0.01026087 -0.05272197 0.40363851
0.01061023 -0.05269039 0.40339404
0.010965174 -0.05268769 0.40337056
0.011320112 -0.05268513 0.40334806
0.011672768 -0.052672423 0.40324783
0.012022804 -0.052648999 0.40306547
0.012376407 -0.052642081 0.40300944
0.012728344 -0.052628659 0.40290347
0.013083974 -0.052630819 0.40291679
0.013437072 -0.052622955 0.40285322
0.013783828 -0.052591298 0.40260744
0.014134366 -0.052575279 0.40248138
0.014488218 -0.05257209 0.40245336
0.01483846 -0.052556247 0.40232849
0.015187462 -0.05253686 0.40217638
0.015539277 -0.052527871 0.40210375
0.01589215 -0.052522764 0.40206087
0.016242558 -0.052509919 0.40195858
0.016597087 -0.052510653 0.40196022
0.016944664 -0.052489825 0.40179673
0.01729621 -0.052481882 0.40173182
0.017643908 -0.052462831 0.40158173
0.017992727 -0.052447785 0.40146229
0.018341083 -0.052432001 0.40133703
0.018693967 -0.052429497 0.40131351
0.019043369 -0.05241752 0.40121728
0.019392332 -0.052404784 0.40111524
0.0197447 -0.052401535 0.4010857
0.020087905 -0.052374516 0.40087414
0.02043589 -0.052360676 0.40076339
0.020787118 -0.052355465 0.40071869
0.021135138 -0.052342489 0.40061441
0.021486236 -0.052337445 0.40057075
0.021831026 -0.052317429 0.40041247
0.022176946 -0.052300725 0.40027943
0.022523621 -0.052286293 0.40016374
0.022873122 -0.052278768 0.40010083
0.023216108 -0.052256793 0.39992732
0.023565222 -0.052249074 0.39986274
0.023917051 -0.052247509 0.39984524
0.024261454 -0.052229997 0.39970562
0.024613516 -0.052229237 0.39969414
0.024955476 -0.052207373 0.39952105
0.025295669 -0.052182466 0.39932466
0.025653573 -0.052194279 0.39940915
0.025994916 -0.05217253 0.39923677
0.02634039 -0.052159544 0.39913139
0.026688119 -0.052151307 0.39906222
0.027037919 -0.052147269 0.39902517
0.027376939 -0.052122816 0.39883178
0.027728692 -0.052122921 0.39882627
0.028072733 -0.052108705 0.39871109
0.028411444 -0.052085064 0.39852378
0.028761346 -0.052082274 0.39849588
0.029104838 -0.052068073 0.39838064
0.029452024 -0.052060746 0.3983179
0.029796792 -0.052049369 0.39822409
0.030144583 -0.052043468 0.39817214
0.030486951 -0.052028455 0.39805037
0.030833645 -0.052021075 0.39798698
0.031180236 -0.052013688 0.39792344
0.031522635 -0.051999554 0.39780822
0.031861302 -0.051979646 0.39764872
0.032208718 -0.051974278 0.39760044
0.032560449 -0.051975917 0.39760569
0.032893915 -0.051948678 0.39738992
0.033249374 -0.051956374 0.39744139
0.033584591 -0.051932611 0.39725208
0.033921987 -0.051912677 0.39709198
0.034269735 -0.051908825 0.39705488
0.034618586 -0.051906712 0.39703098
0.034954265 -0.05188508 0.39685774
0.035296168 -0.051873021 0.39675763
0.035643425 -0.05186899 0.39671889
0.035985406 -0.051857442 0.39662257
0.036324393 -0.051841836 0.39649513
0.036668003 -0.051833056 0.39641988
0.03701821 -0.051833693 0.39641654
0.037364945 -0.051829498 0.39637616
0.037720591 -0.051837619 0.39642996
0.038072795 -0.051840916 0.3964467
0.038416754 -0.051833011 0.39637783
0.038776185 -0.051845945 0.39646816
0.039126009 -0.051845908 0.39645928
0.039481319 -0.051853083 0.39650548
0.0049460768 -0.052589264 0.40540272
0.0053008483 -0.052564908 0.40521333
0.0056531127 -0.052520316 0.40486792
0.0060082548 -0.052506167 0.40475711
0.0063656778 -0.052512418 0.40480345
0.0067201331 -0.052494816 0.40466589
0.0070751547 -0.052483194 0.40457428
0.0074300342 -0.052471668 0.40448341
0.0077858879 -0.052467763 0.40445116
0.0081381062 -0.052440777 0.40424097
0.0084942076 -0.052440021 0.40423286
0.0088469069 -0.05241916 0.40406966
0.0092011141 -0.052408502 0.40398511
0.009555921 -0.052401926 0.40393195
0.0099090841 -0.052387133 0.4038153
0.01026256 -0.052374959 0.4037188
0.010615005 -0.052358508 0.40358928
0.010970359 -0.052357003 0.40357488
0.011323172 -0.052343853 0.40347064
0.011675538 -0.052329496 0.403357
0.012031874 -0.052333243 0.4033829
0.012380721 -0.052305151 0.40316319
0.012734395 -0.05229843 0.40310827
0.013086469 -0.052285694 0.40300679
0.013439246 -0.052276351 0.40293151
0.01379088 -0.05226317 0.40282652
0.014142249 -0.052249666 0.40271893
0.014493686 -0.05223706 0.40261823
0.014844179 -0.052221742 0.40249649
0.015192203 -0.052198656 0.40231484
0.015548743 -0.052205201 0.40236154
0.015897529 -0.052186009 0.40220976
0.016249852 -0.052179012 0.40215191
0.016598076 -0.052159417 0.40199691
0.016949365 -0.052150089 0.40192091
0.017300669 -0.052141175 0.40184805
0.01764876 -0.052123122 0.40170473
0.018001627 -0.052119616 0.40167344
0.018349431 -0.052101877 0.40153232
0.018700002 -0.0520925 0.40145564
0.019048007 -0.052076466 0.40132755
0.019395437 -0.05205946 0.40119189
0.0197514 -0.052065559 0.40123424
0.020094052 -0.052036975 0.4010092
0.020446388 -0.05203402 0.40098166
0.020790694 -0.05201108 0.40080002
0.021141045 -0.052003771 0.40073872
0.021492252 -0.051998775 0.4006952
0.021839481 -0.051984467 0.40057984
0.022190705 -0.051979974 0.40053999
0.022529835 -0.051947735 0.40028635
0.022883056 -0.051948488 0.40028679
0.023225021 -0.051924035 0.40009302
0.023572877 -0.051913291 0.4000048
0.023922369 -0.051906411 0.39994627
0.024272062 -0.051900171 0.39989251
0.024615245 -0.051880378 0.39973438
0.024964973 -0.051874746 0.39968517
0.025320645 -0.051881451 0.39973101
0.025653519 -0.051841885 0.39942032
0.026007259 -0.051845007 0.39943838
0.0263467 -0.051819909 0.39923897
0.026698131 -0.051818736 0.39922386
0.02704379 -0.051806547 0.39912376
0.027393311 -0.051801976 0.39908227
0.027735481 -0.051783789 0.39893585
0.028088119 -0.051785357 0.39894152
0.028426962 -0.051761769 0.39875332
0.028775567 -0.051756315 0.39870477
0.02911487 -0.051734455 0.3985298
0.029458029 -0.051719889 0.39841092
0.029814906 -0.051729478 0.398478
0.030154603 -0.051709369 0.39831629
0.030499088 -0.051697847 0.3982206
0.030842321 -0.05168448 0.39811072
0.031188009 -0.051675484 0.39803439
0.031532455 -0.051664662 0.39794391
0.03188264 -0.051663361 0.39792672
0.03222147 -0.051643897 0.3977696
0.032562859 -0.05162891 0.39764681
0.032903094 -0.051612426 0.39751253
0.033252858 -0.051611081 0.39749467
0.03358677 -0.051585417 0.39728948
0.033932623 -0.051578425 0.39722809
0.03428036 -0.051574428 0.39718965
0.034626435 -0.051568024 0.39713258
0.034969915 -0.051557921 0.39704695
0.035303965 -0.051534262 0.3968569
0.03564785 -0.051525272 0.39677972
0.035997294 -0.051524416 0.39676517
0.036345951 -0.05152246 0.39674202
0.036684122 -0.051505815 0.39660567
0.037034806 -0.051506888 0.39660576
0.037373379 -0.051491257 0.3964771
0.037719849 -0.05148669 0.39643362
0.038072899 -0.051491112 0.39645925
0.038421124 -0.051488984 0.39643437
0.038780201 -0.051501304 0.3965207
0.039128523 -0.051499251 0.39649624
0.03947898 -0.051500015 0.39649343
0.039830972 -0.051502738 0.39650568
0.0045919418 -0.052267719 0.40569445
0.00494469 -0.052217811 0.40530556
0.0053005274 -0.052205052 0.40520492
0.0056567262 -0.052197237 0.40514258
0.0060120015 -0.052182321 0.40502509
0.0063676997 -0.052172542 0.40494737
0.0067229429 -0.052160267 0.40485016
0.0070779626 -0.052147575 0.40474969
0.0074316962 -0.052127086 0.40458858
0.0077890097 -0.05213242 0.40462789
0.0081423782 -0.052112043 0.40446752
0.0084951995 -0.052090012 0.40429425
0.0088504078 -0.052083805 0.40424374
0.0092042182 -0.052070159 0.40413541
0.0095602516 -0.052069649 0.40412891
0.0099136829 -0.052055497 0.40401652
0.010266056 -0.052036967 0.40387002
0.010618962 -0.052022289 0.40375337
0.010973161 -0.052014682 0.40369153
0.011326872 -0.052005317 0.40361592
0.011676384 -0.051977821 0.40339959
0.012033115 -0.05198314 0.40343782
0.012386614 -0.051974591 0.40336838
0.012736322 -0.051951054 0.40318254
0.01309204 -0.051952634 0.40319154
0.013445041 -0.051943634 0.40311837
0.013794255 -0.051920839 0.40293804
0.014149005 -0.051919509 0.40292427
0.014496033 -0.051890597 0.40269634
0.014846866 -0.051876359 0.40258223
0.015196997 -0.051860388 0.40245456
0.015549501 -0.051853068 0.402394
0.01590188 -0.051845659 0.4023326
0.016253354 -0.051835675 0.40225121
0.016602393 -0.051818535 0.40211415
0.016956506 -0.051817596 0.40210286
0.017300835 -0.051787417 0.4018645
0.017653627 -0.051783271 0.40182811
0.018003069 -0.051769651 0.40171814
0.01835512 -0.051763915 0.40166926
0.0187052 -0.051752944 0.40157965
0.019050868 -0.051730402 0.40140021
0.019400846 -0.051720157 0.40131617
0.019754112 -0.051718902 0.40130174
0.020101126 -0.051701598 0.40116271
0.02045119 -0.051692605 0.40108812
0.020794263 -0.05166655 0.40088108
0.021143273 -0.051655862 0.40079319
0.021495046 -0.051652167 0.40075949
0.021845583 -0.05164567 0.40070397
0.022195114 -0.051637031 0.40063179
0.022538738 -0.051615141 0.4004567
0.022893257 -0.05161849 0.40047735
0.023234461 -0.051592171 0.40026772
0.023582276 -0.051581096 0.40017635
0.02393684 -0.051584892 0.40020025
0.024280788 -0.051566027 0.40004832
0.024624242 -0.05154667 0.39989245
0.024977822 -0.05154876 0.39990288
0.025319187 -0.051525932 0.39971998
0.025662789 -0.051508222 0.39957666
0.026016761 -0.051511507 0.39959621
0.026366221 -0.051505905 0.39954668
0.026710587 -0.051490624 0.39942205
0.027059613 -0.051484603 0.39936918
0.02740464 -0.051471233 0.39925918
0.027746079 -0.051451549 0.39910015
0.028093731 -0.051443726 0.39903307
0.028441263 -0.051435884 0.39896578
0.028796405 -0.051441818 0.39900529
0.029131528 -0.051412292 0.39876962
0.029470399 -0.051389996 0.39859
0.029817119 -0.051381756 0.39851931
0.030164512 -0.051374849 0.39845893
0.030516826 -0.051376384 0.39846393
0.030861432 -0.051365055 0.3983691
0.031210763 -0.051361758 0.39833653
0.031544622 -0.051333353 0.39810908
0.031897143 -0.051335614 0.39811942
0.032232914 -0.05131115 0.39792249
0.032577511 -0.051301122 0.39783734
0.032929104 -0.051302198 0.39783835
0.033263955 -0.051277447 0.39763892
0.033609681 -0.051269796 0.39757207
0.033987131 -0.051310204 0.39787781
0.034325812 -0.051291849 0.39772782
0.034648601 -0.051250353 0.39739835
0.035009798 -0.051265933 0.39751133
0.035326861 -0.051217224 0.39712575
0.035658617 -0.051190551 0.39691103
0.036003437 -0.051182989 0.39684433
0.036348067 -0.051175285 0.39677656
0.036699921 -0.051177811 0.39678797
0.037046816 -0.051173437 0.39674589
0.037380505 -0.051151071 0.39656416
0.037727166 -0.051146705 0.39652199
0.038073439 -0.051141899 0.3964763
0.038423926 -0.051142786 0.39647466
0.038775314 -0.051144846 0.39648208
0.039124463 -0.051143944 0.39646643
0.039477993 -0.051148731 0.39649484
0.039828952 -0.051150132 0.39649695
0.040181246 -0.051153202 0.39651194
0.004236965 -0.05194138 0.40595245
0.0045899875 -0.051888611 0.40553859
0.0049456749 -0.051871423 0.40540272
0.0053034401 -0.051876865 0.40544367
0.0056585814 -0.051857565 0.40529114
0.0060143522 -0.051845986 0.4051989
0.0063696336 -0.051831715 0.40508553
0.0067235515 -0.051808454 0.40490186
0.0070793517 -0.051801302 0.40484396
0.0074357502 -0.051798999 0.4048239
0.0077895126 -0.051779382 0.40466848
0.0081449384 -0.051772062 0.40460902
0.0084994556 -0.051759809 0.404511
0.0088532846 -0.051744513 0.40438917
0.0092068836 -0.05172912 0.40426642
0.009561114 -0.05171828 0.40417919
0.0099158874 -0.051711049 0.40412009
0.010268661 -0.051694244 0.40398616
0.010623544 -0.051688828 0.40394107
0.010973857 -0.051662251 0.40373057
0.011327631 -0.051653124 0.40365633
0.011684267 -0.051657207 0.40368527
0.012036059 -0.051640254 0.40354976
0.012388124 -0.051625416 0.40343073
0.012742188 -0.051619496 0.40338126
0.013094217 -0.051605884 0.40327162
0.01344538 -0.051589664 0.4031415
0.013800627 -0.051589537 0.40313715
0.014150265 -0.051568981 0.40297306
0.01450066 -0.051552121 0.40283772
0.014855824 -0.051552612 0.40283793
0.015206068 -0.051536404 0.40270755
0.015551531 -0.051505104 0.40245917
0.015907183 -0.051508185 0.40247944
0.016256731 -0.051491801 0.40234748
0.016610861 -0.051490311 0.40233183
0.01696194 -0.051479619 0.40224421
0.017308995 -0.051457413 0.40206653
0.017656013 -0.051435996 0.40189493
0.01800942 -0.051433653 0.40187231
0.018362656 -0.051430915 0.40184659
0.018709684 -0.051411226 0.40168834
0.019060781 -0.051403243 0.4016214
0.01940725 -0.051383298 0.40146098
0.01976102 -0.051383052 0.40145439
0.020109082 -0.051368225 0.40133378
0.020456826 -0.051353116 0.4012109
0.020810818 -0.051353939 0.40121242
0.021156304 -0.051334087 0.40105239
0.021505935 -0.051324785 0.40097466
0.021850154 -0.051303066 0.40079993
0.022202224 -0.051300183 0.40077221
0.022548977 -0.051285304 0.40065071
0.022898069 -0.051276114 0.40057361
0.023241522 -0.051254768 0.40040141
0.023597321 -0.051260885 0.4004437
0.023943387 -0.051245976 0.40032169
0.024292581 -0.051238101 0.40025461
0.024633471 -0.05121319 0.40005428
0.02497738 -0.051195171 0.39990777
0.025330327 -0.05119592 0.39990777
0.025675662 -0.051181462 0.39978898
0.026022788 -0.051170934 0.3997007
0.02637567 -0.051171836 0.39970174
0.026715308 -0.051147372 0.39950451
0.027070332 -0.051152606 0.3995392
0.027415948 -0.051140167 0.39943576
0.027753923 -0.051113959 0.39922476
0.028105499 -0.051113144 0.39921197
0.02845584 -0.051110141 0.39918202
0.028800592 -0.051097285 0.39907506
0.029147688 -0.051088843 0.39900252
0.029493224 -0.051077906 0.39891043
0.029840739 -0.051070616 0.39884672
0.030179152 -0.051048096 0.39866397
0.030522628 -0.051034551 0.39855134
0.030873889 -0.051034193 0.39854154
0.031217145 -0.051020756 0.39842954
0.031566598 -0.051017627 0.39839804
0.031911071 -0.051006619 0.39830488
0.032256614 -0.050997533 0.39822665
0.032628957 -0.051030546 0.39847714
0.032977413 -0.051025916 0.39843357
0.033330332 -0.051028207 0.39844397
0.033696614 -0.051050689 0.39861196
0.034038965 -0.051036827 0.39849612
0.034352332 -0.050980244 0.39804664
0.034685999 -0.050954621 0.39783877
0.035042796 -0.050963145 0.39789751
0.035707891 -0.050910532 0.39747095
0.03603917 -0.050883211 0.39724961
0.0363562 -0.050836492 0.39687675
0.03670828 -0.050839193 0.39688972
0.037054639 -0.050834008 0.39684096
0.037399031 -0.050826233 0.39677203
0.037747707 -0.050824378 0.3967492
0.0380872 -0.050810311 0.39663091
0.0384246 -0.050793715 0.39649293
0.038776513 -0.050796449 0.39650565
0.039126448 -0.050796553 0.39649788
0.039478499 -0.050799388 0.39651126
0.039830647 -0.050802283 0.39652511
0.040177926 -0.050798982 0.39649048
0.0038793352 -0.051585056 0.40597776
0.0042343657 -0.051552553 0.40572056
0.0045905928 -0.051538531 0.4056088
0.0049484838 -0.051543865 0.40564927
0.0053045326 -0.051530581 0.40554309
0.005660479 -0.051518038 0.40544271
0.0060170251 -0.051512115 0.40539435
0.0063722953 -0.051496539 0.40526995
0.0067274701 -0.051481884 0.40515271
0.0070826537 -0.051468764 0.40504748
0.0074371831 -0.051452376 0.40491647
0.0077930875 -0.051446564 0.4048686
0.008149148 -0.051442251 0.40483239
0.0085023893 -0.051421233 0.40466473
0.0088554127 -0.051400639 0.40450034
0.0092110634 -0.051396307 0.40446377
0.0095642917 -0.051379278 0.40432727
0.0099190045 -0.05137115 0.40426075
0.010272577 -0.051357891 0.40415373
0.010625902 -0.051344313 0.40404415
0.010980399 -0.051337104 0.40398461
0.011328425 -0.05130104 0.40369794
0.011685329 -0.051306151 0.40373516
0.0120371 -0.051289082 0.4035978
0.012391855 -0.051285349 0.40356532
0.012744159 -0.051271949 0.40345672
0.013095901 -0.051257085 0.40333647
0.0134487 -0.051247027 0.403254
0.013801011 -0.051235676 0.40316126
0.01415454 -0.051229298 0.40310758
0.014505258 -0.051213309 0.40297821
0.014858184 -0.051205695 0.40291467
0.015209764 -0.051193897 0.40281811
0.015562218 -0.051185511 0.40274835
0.015914299 -0.051176302 0.40267202
0.016265973 -0.051166221 0.40258878
0.01661302 -0.051142313 0.40239665
0.016969336 -0.051147334 0.40243208
0.017318211 -0.051130194 0.40229306
0.017668642 -0.051118236 0.40219477
0.018017631 -0.051102664 0.4020679
0.018364567 -0.051081978 0.40190077
0.018717406 -0.051078178 0.40186644
0.019063963 -0.051057689 0.40170071
0.019411646 -0.051040914 0.40156412
0.019765038 -0.05103948 0.40154815
0.020117283 -0.051035184 0.40150961
0.020464107 -0.05101753 0.40136588
0.020815477 -0.051011607 0.40131438
0.02116272 -0.050995931 0.40118614
0.021509269 -0.050979134 0.40104893
0.021856491 -0.050964445 0.40092826
0.022215353 -0.050976928 0.40102127
0.022558821 -0.050954249 0.40083763
0.022907807 -0.050944541 0.40075591
0.023261722 -0.050945926 0.40076143
0.023605905 -0.050926272 0.40060133
0.0239559 -0.050919544 0.40054286
0.024306661 -0.050914619 0.40049848
0.024647724 -0.05088982 0.40029767
0.02499241 -0.050873086 0.40016028
0.025342554 -0.05086777 0.40011263
0.025688618 -0.050854523 0.40000254
0.026038622 -0.050849333 0.39995572
0.026386816 -0.050840788 0.39988244
0.026734831 -0.050832126 0.3998082
0.027077252 -0.050813194 0.39965311
0.027424302 -0.050803322 0.39956918
0.0277697 -0.050790679 0.39946339
0.028117273 -0.050782286 0.39939094
0.028463896 -0.050772388 0.39930668
0.028802427 -0.050748497 0.39911216
0.029155025 -0.050749648 0.39911464
0.029502049 -0.050741196 0.39904141
0.029845249 -0.050726432 0.39891857
0.030201232 -0.050733496 0.39896727
0.030536028 -0.050705213 0.39873791
0.030885506 -0.050701663 0.39870307
0.031232914 -0.050694842 0.39864236
0.031594824 -0.050711453 0.39876583
0.031931516 -0.050687663 0.39857155
0.032297458 -0.050710313 0.39874244
0.032652102 -0.050714932 0.39877138
0.033027437 -0.050751232 0.3990494
0.036707263 -0.050487529 0.39689007
0.03706171 -0.050493404 0.39692801
0.037412152 -0.050493758 0.39692253
0.037754368 -0.050483115 0.3968305
0.038094152 -0.050469443 0.39671457
0.038440056 -0.050464049 0.39666367
0.038787406 -0.05046064 0.39662826
0.039125752 -0.050445676 0.39650202
0.039475892 -0.050446048 0.39649624
0.03983042 -0.050451979 0.39653409
0.04018072 -0.050452497 0.39652926
0.040531173 -0.050453182 0.39652577
0.04088426 -0.050457109 0.39654765
0.041241251 -0.050465748 0.3966065
0.0035227132 -0.051243696 0.40612167
0.0038792584 -0.051226918 0.40598738
0.0042357277 -0.051212043 0.40586817
0.0045932685 -0.051211424 0.40586185
0.0049498081 -0.051200539 0.40577403
0.0053059915 -0.051187687 0.40567052
0.0056624757 -0.051179159 0.40560129
0.006017555 -0.051159702 0.40544534
0.0063729929 -0.051145293 0.40532935
0.0067310412 -0.051152259 0.40538263
0.0070842174 -0.051123347 0.40515155
0.007438899 -0.051107559 0.40502435
0.0077966 -0.051113002 0.40506536
0.0081495419 -0.051088132 0.40486607
0.0085042333 -0.051075861 0.4047665
0.0088589322 -0.05106461 0.40467501
0.0092125796 -0.051048398 0.40454409
0.0095668808 -0.051036891 0.40445039
0.0099224085 -0.051032502 0.40441301
0.01027545 -0.051016081 0.40428025
0.010628886 -0.051002648 0.40417105
0.010984032 -0.050998025 0.40413159
0.011335956 -0.050979201 0.40397951
0.011689845 -0.050970089 0.40390435
0.012041557 -0.0509523 0.40376034
0.012396854 -0.050950266 0.40374112
0.012747891 -0.050931323 0.40358782
0.01310089 -0.050921027 0.403503
0.013455313 -0.050916675 0.40346512
0.013801315 -0.05088149 0.40318292
0.01415947 -0.05089175 0.40326071
0.014509055 -0.050871462 0.40309641
0.014863707 -0.05086948 0.40307707
0.015214325 -0.050854102 0.40295151
0.015569106 -0.050853029 0.40293917
0.015916878 -0.050829615 0.40274981
0.016268622 -0.050819624 0.40266672
0.016620312 -0.050809897 0.40258566
0.016971791 -0.050799947 0.40250272
0.01732498 -0.050795421 0.40246269
0.017676467 -0.050786182 0.40238526
0.018024653 -0.050768003 0.40223688
0.018373551 -0.050752487 0.40210959
0.018723104 -0.05073934 0.40200096
0.01907195 -0.050724793 0.40188119
0.01941821 -0.050704032 0.40171206
0.019776182 -0.050714042 0.40178671
0.020124802 -0.050700139 0.40167183
0.020474607 -0.050689649 0.40158388
0.020822385 -0.050674587 0.40145963
0.02117388 -0.050668914 0.40140972
0.021522848 -0.050657477 0.40131408
0.021873107 -0.050649408 0.40124503
0.022221662 -0.050637711 0.40114716
0.022570672 -0.050627384 0.40106013
0.022921082 -0.050620485 0.40100008
0.02326588 -0.050601576 0.4008449
0.023623329 -0.050610345 0.40090889
0.02395661 -0.050567832 0.40056655
0.024307391 -0.050562967 0.40052238
0.024659898 -0.050561767 0.40050721
0.025007028 -0.050549731 0.40040612
0.025353588 -0.050536901 0.40029863
0.025697984 -0.05052017 0.40016016
0.026040906 -0.050501022 0.40000254
0.026393769 -0.050501414 0.39999953
0.026746161 -0.0505009 0.39998934
0.027090712 -0.050485786 0.39986342
0.027434044 -0.050468821 0.39972281
0.02778179 -0.050460301 0.39964896
0.028133973 -0.050459959 0.39963982
0.028477009 -0.050443403 0.39950222
0.028814247 -0.050417125 0.39928752
0.029161897 -0.050409466 0.39922026
0.029505856 -0.05039569 0.39910448
0.029857898 -0.050395884 0.3990992
0.030208403 -0.050393511 0.39907351
0.030554404 -0.050383758 0.39898938
0.030885352 -0.050349686 0.39871258
0.031251904 -0.05037377 0.39889628
0.031598847 -0.050366063 0.39882806
0.031955574 -0.050373945 0.39888331
0.032327376 -0.050405167 0.39912325
0.03706108 -0.050142247 0.39693248
0.037410144 -0.050140765 0.39691249
0.03775752 -0.050137062 0.39687479
0.03811096 -0.050141416 0.39690083
0.038452175 -0.050129745 0.39679992
0.038790226 -0.050114203 0.39666831
0.039139502 -0.050113305 0.39665255
0.039481729 -0.050103478 0.39656603
0.039831404 -0.050103191 0.39655501
0.040178306 -0.050099459 0.39651656
0.040531233 -0.050103225 0.39653748
0.040885121 -0.050108109 0.39656714
0.041235644 -0.05010882 0.39656371
0.041585896 -0.050109196 0.39655757
0.041944712 -0.050119795 0.39663222
0.0031661035 -0.050906017 0.4062967
0.0035239137 -0.05090386 0.40627828
0.0038815984 -0.050900463 0.40624985
0.0042379992 -0.050882209 0.40610281
0.004594936 -0.050872732 0.40602571
0.0049512079 -0.05085779 0.40590492
0.0053064656 -0.050835136 0.40572253
0.0056633316 -0.050829776 0.40567806
0.0060181082 -0.050807405 0.40549776
0.006375073 -0.050804976 0.40547657
0.0067321318 -0.05080352 0.40546301
0.0070859967 -0.050779317 0.40526786
0.007441421 -0.050768062 0.40517601
0.0077983863 -0.050767876 0.40517238
0.0081529506 -0.050752755 0.40504947
0.0085060103 -0.050729919 0.40486497
0.0088608395 -0.05071906 0.40477595
0.0092160925 -0.050711356 0.40471199
0.0095720729 -0.050708093 0.40468344
0.0099254278 -0.050691646 0.4045496
0.010278214 -0.050673522 0.40440232
0.010632919 -0.050665773 0.40433773
0.010989315 -0.05066631 0.40433916
0.011340141 -0.050641943 0.40414181
0.011693473 -0.050629903 0.40404275
0.012044593 -0.050609279 0.40387514
0.012400595 -0.050609764 0.40387592
0.012753332 -0.050597254 0.40377292
0.013103292 -0.050574716 0.40358979
0.013460314 -0.050579906 0.40362784
0.013810552 -0.050559979 0.40346542
0.014164026 -0.05055261 0.4034031
0.014517205 -0.050544582 0.40333545
0.014866997 -0.050525408 0.40317884
0.015219471 -0.050516035 0.40310034
0.015567956 -0.050494153 0.40292192
0.01592279 -0.050493374 0.40291184
0.016279887 -0.050499648 0.40295798
0.016626667 -0.050474338 0.40275198
0.01697617 -0.050458174 0.40261889
0.017329741 -0.050454512 0.40258551
0.017681496 -0.050445821 0.40251192
0.018031387 -0.050432254 0.40239939
0.018381169 -0.05041891 0.40228853
0.018731335 -0.0504071 0.40218985
0.019083783 -0.050401755 0.40214267
0.019433992 -0.050390813 0.4020507
0.019780522 -0.050370876 0.40188697
0.020129474 -0.050357699 0.40177709
0.020479722 -0.050348163 0.40169621
0.020830309 -0.050339781 0.40162438
0.021177934 -0.05032463 0.40149856
0.02152977 -0.050319824 0.40145513
0.021878371 -0.050307732 0.40135351
0.02222738 -0.05029694 0.40126222
0.022575002 -0.050283398 0.40114895
0.022925466 -0.050276507 0.40108865
0.023282861 -0.050284799 0.40114933
0.023622997 -0.050256114 0.40091503
0.02397171 -0.050246261 0.40083084
0.024318682 -0.050233088 0.40072015
0.024664985 -0.05021894 0.40060157
0.025019111 -0.050220881 0.40061131
0.025364285 -0.050205056 0.4004792
0.025709702 -0.050190136 0.40035424
0.026052527 -0.05017063 0.40019265
0.02640274 -0.050165679 0.40014714
0.026754333 -0.050163444 0.40012318
0.027096067 -0.050143033 0.39995411
0.027447721 -0.05014126 0.3999337
0.027792217 -0.050126612 0.39981052
0.028145874 -0.050128654 0.39982039
0.028487079 -0.050108746 0.3996551
0.028825989 -0.050085325 0.39946172
0.029179683 -0.050087858 0.39947528
0.029521698 -0.050070517 0.39933026
0.029864969 -0.05005569 0.39920521
0.030215828 -0.050053768 0.39918303
0.030559247 -0.050039716 0.39906406
0.030910458 -0.050038598 0.39904812
0.031270873 -0.050052233 0.39914981
0.031623065 -0.050052546 0.39914519
0.031966247 -0.050038751 0.39902794
0.03235003 -0.050088115 0.3994143
0.037068576 -0.049802016 0.39702395
0.037419885 -0.049803436 0.39702693
0.037764274 -0.04979571 0.39695698
0.038123108 -0.049806986 0.39703846
0.038458813 -0.049788121 0.39687952
0.038807556 -0.049786322 0.39685661
0.039156724 -0.0497851 0.39683816
0.039487127 -0.049760241 0.39663133
0.03983574 -0.049758576 0.39660922
0.040191267 -0.04976549 0.3966555
0.040530808 -0.049752664 0.39654434
0.040883977 -0.049756646 0.39656708
0.041239474 -0.049763367 0.39661157
0.041603681 -0.049780395 0.39673817
0.04194741 -0.04977284 0.39666873
0.042301133 -0.049777169 0.39669397
0.0028093224 -0.050570112 0.40648812
0.0031670246 -0.050563492 0.40643379
0.0035244853 -0.050554749 0.40636227
0.0038821322 -0.05055004 0.40632316
0.00423965 -0.050544579 0.40627787
0.0045963265 -0.050530713 0.40616497
0.0049525406 -0.050514128 0.40603015
0.0053080693 -0.050493259 0.40586078
0.005665699 -0.050493743 0.40586302
0.0060188705 -0.050456788 0.40556422
0.0063763009 -0.050457675 0.40556952
0.0067329207 -0.050452393 0.40552515
0.0070873112 -0.050431773 0.40535745
0.0074429926 -0.050421879 0.40527585
0.0077994317 -0.050417785 0.4052408
0.0081552025 -0.050409909 0.4051753
0.0085096462 -0.050394841 0.40505189
0.0088659879 -0.050391763 0.40502477
0.0092186211 -0.050368667 0.40483671
0.0095739085 -0.050361242 0.40477452
0.0099283308 -0.050349966 0.40468127
0.010282319 -0.050337341 0.40457717
0.010637329 -0.050330397 0.4045186
0.010989762 -0.050312106 0.40436879
0.011343949 -0.050302733 0.40429056
0.011697364 -0.050290614 0.40419018
0.012049505 -0.050273892 0.40405273
0.012403914 -0.05026732 0.4039968
0.012756412 -0.050253589 0.40388325
0.013111819 -0.050251745 0.40386513
0.013463541 -0.050236251 0.40373728
0.013817814 -0.05023082 0.40369022
0.014166424 -0.050205592 0.40348399
0.01451717 -0.050188992 0.40334699
0.014869789 -0.050179496 0.40326703
0.015220799 -0.050165139 0.40314791
0.015576775 -0.050167426 0.40316254
0.015926417 -0.050149664 0.40301594
0.016280798 -0.050147284 0.40299284
0.016633231 -0.050139125 0.40292329
0.016979726 -0.050113786 0.4027155
0.017334362 -0.050113011 0.40270513
0.017681329 -0.050090536 0.4025203
0.018039007 -0.050098699 0.40258157
0.018390628 -0.050090037 0.4025076
0.018740375 -0.050076716 0.40239605
0.019084394 -0.050048854 0.40216762
0.019442447 -0.050058138 0.40223762
0.019793911 -0.05005043 0.40217099
0.020136641 -0.050021295 0.40193212
0.020485811 -0.050008889 0.4018276
0.020840921 -0.050011158 0.40184096
0.02118613 -0.049989987 0.40166584
0.021534337 -0.049976464 0.40155211
0.021887243 -0.049974114 0.40152812
0.022231387 -0.049952142 0.40134639
0.02258651 -0.049955145 0.40136522
0.022932978 -0.049939204 0.40123183
0.023280991 -0.049927067 0.40112886
0.023632558 -0.049922794 0.40108904
0.023981377 -0.049912922 0.4010042
0.024328798 -0.04990048 0.40089855
0.024668919 -0.049873628 0.40067708
0.025023188 -0.049875733 0.40068823
0.025373092 -0.049869202 0.40062991
0.025721617 -0.049860168 0.40055141
0.026062777 -0.049837299 0.40036169
0.026414463 -0.0498349 0.40033635
0.02675841 -0.049818162 0.40019575
0.02710337 -0.049803708 0.40007344
0.02745132 -0.049795054 0.39999762
0.027801663 -0.049790908 0.39995795
0.028157668 -0.049796876 0.39999944
0.028503032 -0.049784102 0.39989036
0.028840207 -0.049757514 0.39967021
0.029190557 -0.049754027 0.39963555
0.029534159 -0.049739257 0.3995102
0.029877344 -0.049724139 0.399382
0.030222319 -0.049712319 0.39928019
0.030575747 -0.049714517 0.39929089
0.030933432 -0.049723499 0.39935604
0.031273484 -0.049704265 0.39919448
0.031648669 -0.049740665 0.39947969
0.037425902 -0.049461011 0.39710191
0.037780859 -0.049467094 0.39714235
0.03813694 -0.049474526 0.39719358
0.038481072 -0.049466461 0.3971203
0.038827367 -0.049461294 0.39707023
0.039159674 -0.049438566 0.39687908
0.039504323 -0.049431682 0.39681509
0.039839055 -0.049412604 0.39665321
0.040185045 -0.049407717 0.3966051
0.040541254 -0.049415365 0.3966575
0.040887091 -0.049410351 0.39660826
0.041242428 -0.049416799 0.39665094
0.041594017 -0.049418677 0.39665693
0.041952141 -0.049428239 0.3967244
0.042300075 -0.049425729 0.39669499
0.042654507 -0.049430788 0.39672622
0.0020965112 -0.050295271 0.40717736
0.0024521702 -0.050232742 0.40667012
0.0028110431 -0.050243583 0.40675688
0.0031687401 -0.050233334 0.40667272
0.0035264576 -0.050225448 0.40660766
0.0038824873 -0.050197188 0.40637761
0.0042402907 -0.050194692 0.40635601
0.0045969733 -0.050180346 0.40623844
0.0049536214 -0.050167721 0.40613467
0.0053109443 -0.050163154 0.40609613
0.0056661055 -0.050140049 0.40590739
0.006024674 -0.050148029 0.40597025
0.0063807722 -0.050135709 0.40586868
0.0067350161 -0.050110903 0.40566593
0.0070894598 -0.050089993 0.40549469
0.0074461312 -0.050086077 0.40546092
0.0078039807 -0.050090078 0.40549117
0.0081575289 -0.05006732 0.40530476
0.0085141864 -0.050064757 0.40528172
0.0088676 -0.050044093 0.40511206
0.0092216711 -0.050028592 0.40498412
0.0095755849 -0.050013423 0.40485883
0.0099324081 -0.050013989 0.40486079
0.010284957 -0.049993739 0.4046942
0.01063983 -0.049985755 0.40462688
0.01099558 -0.04998228 0.40459588
0.011349356 -0.049970321 0.40449622
0.011700903 -0.049949586 0.40432537
0.012057213 -0.049949799 0.40432405
0.012411745 -0.049942844 0.40426466
0.012766734 -0.049938064 0.40422276
0.013113648 -0.049902812 0.40393412
0.013466978 -0.049893197 0.40385294
0.013819385 -0.049880739 0.40374869
0.014174956 -0.049880043 0.40373954
0.014530092 -0.049877875 0.40371844
0.014877832 -0.049851038 0.40349755
0.015226457 -0.049828347 0.40331018
0.015582812 -0.049831405 0.4033311
0.01593126 -0.049809601 0.40315077
0.016287189 -0.049811631 0.40316325
0.016637398 -0.049796451 0.40303639
0.016989533 -0.049787547 0.40296024
0.017343735 -0.049784947 0.402935
0.017691253 -0.049763646 0.40275833
0.018042829 -0.04975437 0.40267897
0.018395107 -0.049747344 0.40261769
0.018746424 -0.049738042 0.40253794
0.019096768 -0.049726542 0.40244034
0.019443888 -0.049707226 0.40227935
0.019799622 -0.049710222 0.40229893
0.020149417 -0.049698468 0.40219903
0.020497624 -0.049683265 0.40207118
0.020853072 -0.049685836 0.40208706
0.021189904 -0.049644697 0.40174916
0.021538001 -0.049630873 0.40163222
0.021891287 -0.04962926 0.40161404
0.02224098 -0.049619682 0.40153131
0.022589281 -0.049607344 0.4014262
0.022945749 -0.049613044 0.40146697
0.02328885 -0.049590107 0.40127593
0.023640824 -0.049586467 0.401241
0.023988409 -0.049573865 0.40113342
0.024338385 -0.049566489 0.40106815
0.024685603 -0.049553789 0.40095967
0.025038736 -0.049553163 0.40094879
0.02538125 -0.049531821 0.40077028
0.025728073 -0.049519368 0.40066355
0.026081741 -0.049520236 0.40066457
0.026419476 -0.049491238 0.40042385
