# .PCD v0.7 - Point Cloud Data file format
VERSION 0.7
FIELDS x y z
SIZE 4 4 4
TYPE F F F
COUNT 1 1 1
WIDTH 1380
HEIGHT 1
VIEWPOINT 0 0 0 1 0 0 0
POINTS 1380
DATA ascii
0.15503803 -0.081147499 0.46327236
0.1554687 -0.081156358 0.46330076
0.15582849 -0.081128255 0.46311817
0.15621443 -0.081113882 0.46301398
0.15664442 -0.081122391 0.46304038
0.1569685 -0.08107616 0.46275431
0.15734255 -0.081055902 0.46261656
0.15775125 -0.081053562 0.46258113
0.15812688 -0.081034288 0.46244895
0.15849385 -0.081010677 0.4622921
0.15893842 -0.081026748 0.46236175
0.15927505 -0.080987871 0.46211773
0.15971634 -0.081002258 0.46217775
0.16007484 -0.080974691 0.4619984
0.16046105 -0.080961265 0.46189973
0.16093501 -0.080992043 0.46205324
0.16121648 -0.080926046 0.46165469
0.16159035 -0.080906644 0.46152201
0.16201974 -0.080915093 0.46154815
0.16240843 -0.080903195 0.46145833
0.16275957 -0.080872722 0.46126246
0.16311748 -0.080845743 0.4610866
0.16356516 -0.080863282 0.46116465
0.16397683 -0.080862977 0.46114096
0.16430338 -0.080820799 0.46087852
0.16469753 -0.080812 0.4608064
0.16513173 -0.080822863 0.46084639
0.16542329 -0.080764018 0.46048898
0.16582845 -0.080760784 0.46044871
0.16620873 -0.080745481 0.46033961
0.16665323 -0.080761388 0.46040842
0.16696617 -0.080713615 0.46011427
0.16740103 -0.080724858 0.46015656
0.1677492 -0.080694333 0.45996082
0.16817459 -0.080701053 0.45997727
0.16861907 -0.080716841 0.46004558
0.16906543 -0.080733471 0.46011856
0.17572054 -0.080576248 0.45885685
0.17587656 -0.080459677 0.45817173
0.17608604 -0.080368049 0.45762873
0.17645527 -0.080349579 0.45750239
0.17690191 -0.080366351 0.45757672
0.17728403 -0.080353819 0.45748422
0.17766961 -0.080342911 0.45740104
0.1780035 -0.080308713 0.4571853
0.17839539 -0.080300786 0.45711917
0.17876334 -0.080282167 0.45699212
0.17916246 -0.080277562 0.45694503
0.17950742 -0.080248788 0.45676032
0.17995122 -0.080264226 0.45682731
0.1803616 -0.080264725 0.45680925
0.18076152 -0.080260567 0.45676479
0.18112318 -0.08023949 0.45662403
0.18157867 -0.080259971 0.45671982
0.13803668 -0.081442736 0.46833143
0.13837445 -0.081395939 0.46804038
0.13871905 -0.081353433 0.46777397
0.13915788 -0.081366271 0.46782583
0.13950548 -0.081325859 0.46757147
0.13992107 -0.081325188 0.4675456
0.14029399 -0.081299819 0.46737772
0.1406818 -0.081283189 0.46726006
0.14111584 -0.081293292 0.46729606
0.14143106 -0.081235066 0.46693936
0.14184487 -0.081233665 0.46690923
0.14227277 -0.081240319 0.46692538
0.14267842 -0.081234261 0.46686843
0.14304814 -0.081207834 0.46669447
0.14349028 -0.081222557 0.46675697
0.14384191 -0.081186108 0.46652538
0.14422452 -0.08116731 0.46639523
0.1446418 -0.081168085 0.46637747
0.14499716 -0.081134185 0.46616057
0.1453881 -0.081120327 0.46605882
0.14579831 -0.081117287 0.46601915
0.14614271 -0.081077754 0.46576983
0.14655603 -0.08107657 0.46574092
0.14698227 -0.081082515 0.46575281
0.14732629 -0.081043206 0.46550483
0.14776403 -0.081055515 0.46555331
0.14813812 -0.081032954 0.46540153
0.14855568 -0.081034213 0.46538654
0.14887083 -0.08097975 0.46505156
0.14929146 -0.080982827 0.465047
0.14971885 -0.08098954 0.46506336
0.15009657 -0.080969416 0.46492556
0.15047181 -0.08094807 0.46478072
0.15089971 -0.080955088 0.46479884
0.15125291 -0.080922119 0.4645873
0.15167749 -0.080927402 0.46459538
0.15200669 -0.080881879 0.4643119
0.15239832 -0.080869764 0.46422011
0.15285294 -0.08089105 0.46432003
0.15313643 -0.080821902 0.46390083
0.15360054 -0.08084818 0.46402952
0.15389302 -0.080784231 0.46364027
0.15440667 -0.080836408 0.46391752
0.15470749 -0.080777183 0.4635554
0.15508063 -0.080755942 0.46341127
0.15547991 -0.080748372 0.46334568
0.15588176 -0.080742195 0.46328801
0.15620442 -0.08069513 0.46299577
0.15663005 -0.080701366 0.46300933
0.1570776 -0.080718823 0.46308735
0.1573842 -0.080663964 0.46275043
0.15782522 -0.080678105 0.46280935
0.15824331 -0.080680482 0.4628008
0.15852851 -0.080615245 0.46240449
0.15899023 -0.080639906 0.46252376
0.15933327 -0.080604374 0.46229789
0.15970805 -0.08058507 0.462165
0.1601208 -0.080584958 0.46214223
0.16051477 -0.080575414 0.46206543
0.16095777 -0.080590479 0.46212968
0.16128421 -0.080547251 0.4618597
0.16161886 -0.080508336 0.46161449
0.16205207 -0.080518581 0.46165118
0.16237442 -0.08047384 0.46137261
0.16279885 -0.080479793 0.46138471
0.16326368 -0.080505617 0.46151075
0.16355377 -0.080445379 0.4611434
0.16399506 -0.080459617 0.46120304
0.16437083 -0.080441721 0.46107849
0.16473065 -0.080416128 0.46090984
0.16513397 -0.080411851 0.46086335
0.16549721 -0.080388121 0.4607054
0.16589907 -0.080383219 0.46065542
0.16629481 -0.080375396 0.46058869
0.16671652 -0.080380112 0.46059385
0.16703989 -0.080337517 0.46032789
0.16742289 -0.080323756 0.46022716
0.16781156 -0.080312751 0.46014234
0.16823432 -0.080318078 0.46015102
0.16868421 -0.080336317 0.46023375
0.16913913 -0.080356836 0.4603295
0.17568421 -0.080148838 0.4587718
0.17590663 -0.08006312 0.45825979
0.17607908 -0.079955101 0.45762029
0.17657028 -0.079991981 0.45781016
0.17697902 -0.07999143 0.45778579
0.17729497 -0.079949036 0.45752203
0.17778738 -0.079986237 0.45771375
0.17808774 -0.079937041 0.45741114
0.17850965 -0.079942517 0.45742145
0.17885332 -0.079913013 0.45723155
0.17921874 -0.079893343 0.45709795
0.17962597 -0.079892345 0.45707133
0.1799501 -0.079854473 0.45683378
0.18037184 -0.079859994 0.45684445
0.180778 -0.079858609 0.45681566
0.18116504 -0.079848811 0.45673877
0.18160538 -0.07986249 0.4567962
0.18202719 -0.079867966 0.45680678
0.13775563 -0.08110559 0.46883011
0.1380036 -0.081005946 0.46823213
0.1383667 -0.080974266 0.468027
0.13882117 -0.080996096 0.46813115
0.13919468 -0.080970705 0.46796241
0.13957429 -0.080948994 0.46781492
0.13994087 -0.080919884 0.4676246
0.14035988 -0.080921166 0.46760997
0.14075765 -0.080910228 0.46752468
0.14110313 -0.080869392 0.46726665
0.14152493 -0.080872409 0.467262
0.14193591 -0.080869243 0.46722156
0.14233764 -0.080860831 0.46715087
0.14269538 -0.080827564 0.46693656
0.14312986 -0.080837816 0.4669736
0.14349733 -0.080810286 0.4667924
0.14389983 -0.080802575 0.46672574
0.14424987 -0.080765545 0.46648967
0.14469677 -0.080782801 0.46656713
0.14503717 -0.08074066 0.46630156
0.14542858 -0.080727093 0.46620104
0.14582786 -0.080717944 0.46612597
0.14621514 -0.080702223 0.46601301
0.14664742 -0.08071138 0.46604365
0.14700472 -0.080679305 0.46583626
0.14733867 -0.080634654 0.46555614
0.14783499 -0.08067885 0.46578908
0.1481403 -0.080618836 0.46542042
0.14854413 -0.080612652 0.46536246
0.14897433 -0.080620773 0.46538705
0.14933573 -0.080591694 0.46519694
0.14972843 -0.080579646 0.46510518
0.15015948 -0.080588229 0.46513242
0.15052909 -0.080563881 0.46496966
0.15089025 -0.080535166 0.46478164
0.1513112 -0.080538429 0.46477821
0.1516597 -0.08050321 0.4645527
0.15208207 -0.080507301 0.46455404
0.152472 -0.080494225 0.46445635
0.15286365 -0.080482133 0.46436432
0.15320592 -0.080444187 0.46412307
0.15358582 -0.080426142 0.46399671
0.15399694 -0.080424502 0.46396503
0.15444502 -0.080442116 0.46404436
0.15479249 -0.080407366 0.46382165
0.15521966 -0.080414109 0.46383831
0.15554065 -0.080365933 0.46353823
0.15595672 -0.080367029 0.46352226
0.15631416 -0.080337971 0.46333244
0.15674254 -0.080345444 0.46335331
0.15707628 -0.080304489 0.46309489
0.15745114 -0.080284707 0.46295857
0.15788697 -0.080296025 0.4630017
0.15824828 -0.080269508 0.46282661
0.15865093 -0.080264054 0.46277288
0.15905 -0.08025679 0.46270883
0.15940168 -0.080225728 0.46250761
0.1597628 -0.080199562 0.46233457
0.16018988 -0.080206558 0.46235275
0.16054384 -0.080177002 0.46216023
0.16097596 -0.080186523 0.46219298
0.16134016 -0.080162264 0.46203101
0.1616931 -0.080132529 0.46183753
0.16208303 -0.080121227 0.4617503
0.16249783 -0.08012227 0.46173421
0.16291675 -0.080125317 0.46172971
0.1632456 -0.080084167 0.46147051
0.16363569 -0.080073185 0.46138519
0.16406541 -0.080081604 0.46141165
0.16449314 -0.080089025 0.46143237
0.16479614 -0.080035821 0.46110383
0.16521028 -0.080036722 0.46108705
0.16560596 -0.080028698 0.4610188
0.16594456 -0.079993196 0.46079236
0.1663335 -0.07998208 0.46070638
0.16675696 -0.079987578 0.46071613
0.16714491 -0.079976052 0.46062782
0.16752015 -0.079958521 0.46050501
0.16792756 -0.07995639 0.46047086
0.16824365 -0.079910889 0.46018699
0.16866778 -0.079916812 0.46019927
0.16910398 -0.079928398 0.46024418
0.16962492 -0.079979897 0.4605189
0.17563199 -0.07971438 0.45864511
0.17590608 -0.079652548 0.45826805
0.17621191 -0.079605334 0.45797512
0.17658338 -0.079587929 0.45785373
0.17699194 -0.079587288 0.45782879
0.1773998 -0.079586327 0.45780206
0.17778958 -0.079577275 0.45772886
0.17809172 -0.079529136 0.45743081
0.17851903 -0.079537004 0.45745489
0.17895044 -0.07954663 0.45748922
0.17924832 -0.079497002 0.45718277
0.17964728 -0.079492323 0.45713484
0.18009232 -0.079508014 0.45720407
0.1804532 -0.079486549 0.45705974
0.18077485 -0.079447955 0.45681688
0.18119588 -0.079453111 0.4568257
0.18159686 -0.079449452 0.45678386
0.18202874 -0.079459317 0.4568198
0.18246864 -0.079472631 0.45687556
0.13736054 -0.08070112 0.4689424
0.13769625 -0.080653027 0.46864095
0.13801631 -0.080596089 0.46828815
0.13842213 -0.080589436 0.46822745
0.13884918 -0.080595136 0.46823853
0.13919874 -0.080555953 0.46798882
0.13959372 -0.080543213 0.46789277
0.1399776 -0.080524169 0.46776003
0.14040458 -0.080529958 0.46777159
0.14079581 -0.080515265 0.46766412
0.14117362 -0.080493011 0.46751273
0.14154243 -0.080465771 0.46733239
0.14198489 -0.080480427 0.4673954
0.14230882 -0.080428019 0.46706885
0.14275253 -0.080443412 0.46713609
0.14311388 -0.080412433 0.466934
0.14353135 -0.080413081 0.46691555
0.14391774 -0.080396354 0.46679631
0.14432873 -0.080393434 0.46675712
0.14470834 -0.080373093 0.46661678
0.14511348 -0.080367021 0.46655929
0.14546768 -0.080332831 0.46633863
0.1459035 -0.080343813 0.46638009
0.14627536 -0.080319583 0.46621722
0.14662616 -0.08028397 0.46598825
0.14703865 -0.080282234 0.46595591
0.1474687 -0.080290079 0.46597919
0.14783813 -0.080264956 0.4658111
0.14824219 -0.08025872 0.46575266
0.1486145 -0.080235399 0.46559498
0.14901482 -0.080227263 0.46552551
0.14938192 -0.080201358 0.46535289
0.14977343 -0.080188654 0.4652569
0.15016422 -0.080175623 0.46515903
0.15056899 -0.080170125 0.46510482
0.15094708 -0.080150485 0.46496856
0.15133236 -0.080134764 0.46485507
0.15171748 -0.080119036 0.46474153
0.15218824 -0.080148496 0.46489012
0.15249395 -0.080091111 0.46453497
0.15287285 -0.080072373 0.46440396
0.15330669 -0.080082431 0.46444005
0.15368529 -0.080063656 0.46430886
0.15409146 -0.080059327 0.46426141
0.15445352 -0.08003214 0.4640815
0.15481341 -0.080003984 0.46389595
0.15526159 -0.080021486 0.46397513
0.15561229 -0.079988785 0.46376324
0.15597196 -0.079960845 0.46357897
0.15637407 -0.079954766 0.46352148
0.15676937 -0.079945236 0.46344396
0.15717383 -0.079940431 0.46339384
0.15756111 -0.079926923 0.46329328
0.15791757 -0.079897903 0.46310279
0.15830851 -0.079886414 0.46301398
0.15873712 -0.079893962 0.46303549
0.15905271 -0.079844728 0.46272793
0.15949832 -0.079860859 0.46279916
0.15981123 -0.079810612 0.46248582
0.16025403 -0.079825334 0.46254894
0.1606767 -0.079829983 0.46255371
0.16099547 -0.079783127 0.46226001
0.16137756 -0.079767801 0.46214905
0.16178094 -0.079763055 0.4620994
0.1621328 -0.079732977 0.46190304
0.16252381 -0.07972227 0.46181887
0.16297527 -0.079741202 0.4619064
0.1633313 -0.079713456 0.46172357
0.16369884 -0.079691455 0.46157405
0.16411838 -0.0796948 0.4615714
0.16443953 -0.079650491 0.46129265
0.16492715 -0.079686821 0.46148103
0.16524529 -0.079641297 0.46119538
0.16565143 -0.079638302 0.46115601
0.1660185 -0.079616576 0.46100825
0.16642003 -0.079611458 0.4609566
0.16678782 -0.079590246 0.46081185
0.16716211 -0.079572253 0.4606857
0.16755995 -0.079565518 0.46062481
0.16790244 -0.079532601 0.46041232
0.16833809 -0.079543859 0.46045566
0.16870843 -0.079524294 0.46032047
0.16918656 -0.079555497 0.46047926
0.16957706 -0.079545438 0.46039921
0.17004648 -0.079572357 0.4605332
0.17391148 -0.079455741 0.45964149
0.17430176 -0.0794461 0.45956415
0.17545928 -0.079411417 0.45929903
0.17563893 -0.079306871 0.45867294
0.17600948 -0.079288803 0.45854706
0.17635038 -0.079257496 0.45834464
0.17664732 -0.079206608 0.45802912
0.17710355 -0.079227224 0.45812702
0.17744733 -0.079197563 0.45793423
0.17786711 -0.079201885 0.45793796
0.17816649 -0.079152681 0.45763233
0.17864421 -0.079182744 0.45778504
0.17899612 -0.079157054 0.45761532
0.17933387 -0.079125218 0.45741025
0.17976196 -0.079133309 0.45743594
0.1800798 -0.079092927 0.45718154
0.18049611 -0.079095885 0.45717764
0.18083346 -0.07906431 0.45697421
0.18125461 -0.079069421 0.45698285
0.18166545 -0.079070032 0.45696551
0.18206525 -0.079065844 0.45692044
0.18247074 -0.079064131 0.45688981
0.18291211 -0.079077952 0.45694888
0.13702561 -0.080331832 0.46926108
0.13733606 -0.080268942 0.46887168
0.13767624 -0.080223761 0.46858576
0.13810243 -0.08022882 0.46859324
0.138476 -0.080203354 0.46842241
0.13885425 -0.080180749 0.46826836
0.13926694 -0.080178119 0.4682309
0.13963304 -0.080148749 0.46803731
0.14003325 -0.080139086 0.46795875
0.14047822 -0.080155015 0.46802962
0.14083314 -0.080119617 0.46780083
0.14124767 -0.080118231 0.46777061
0.14161181 -0.080088362 0.46757403
0.14198501 -0.08006379 0.46740836
0.14238806 -0.080056116 0.46734139
0.14278372 -0.080044374 0.46725062
0.1431639 -0.080024034 0.46710968
0.1435651 -0.080015525 0.46703786
0.14396544 -0.08000657 0.46696335
0.14437912 -0.080005087 0.46693245
0.14474227 -0.07997568 0.46673855
0.14519195 -0.079994127 0.46682391
0.14556547 -0.079970606 0.46666437
0.14593852 -0.079946972 0.46650422
0.14634465 -0.079941534 0.46645021
0.14671437 -0.079916313 0.46628073
0.14708902 -0.079893894 0.46612766
0.14750846 -0.079895869 0.46611688
0.14788327 -0.079873726 0.46596539
0.14829227 -0.079870127 0.46592206
0.14865974 -0.079844229 0.4657487
0.14899184 -0.079799548 0.46546569
0.14945161 -0.079823293 0.46558195
0.14982468 -0.079800725 0.46542796
0.1502682 -0.079815716 0.46549305
0.15061346 -0.079778574 0.46525407
0.15101376 -0.079770699 0.46518582
0.15136385 -0.079736412 0.46496353
0.15174031 -0.079716168 0.46482319
0.15214925 -0.079713061 0.46478269
0.1525314 -0.079695977 0.46466076
0.15290217 -0.079673044 0.46450472
0.15333299 -0.079681441 0.46453133
0.15370299 -0.079658262 0.46437395
0.15408605 -0.079641983 0.46425667
0.15447752 -0.079630114 0.46416512
0.15486717 -0.079617366 0.46406853
0.15527268 -0.079612814 0.46401969
0.1557125 -0.079625845 0.4640733
0.15604372 -0.079583414 0.46380371
0.15644416 -0.079576425 0.46374062
0.15681502 -0.079554453 0.46359029
0.15724583 -0.079562932 0.46361744
0.1575768 -0.079520978 0.46335068
0.15798722 -0.079519249 0.46331829
0.15838397 -0.079510652 0.4632459
0.15877178 -0.079497635 0.46314779
0.1592039 -0.0795068 0.46317893
0.15952803 -0.079462133 0.46289647
0.1599111 -0.079446979 0.46278596
0.16029374 -0.079431683 0.46267465
0.16070855 -0.079432368 0.46265641
0.16112775 -0.079435229 0.46265078
0.16145353 -0.07939212 0.46237758
0.16189094 -0.079403989 0.46242449
0.16216207 -0.079334453 0.4619973
0.16258319 -0.079338454 0.46199846
0.16301103 -0.079345711 0.46201855
0.16338265 -0.079325624 0.46187949
0.16382618 -0.07934048 0.46194384
0.16420236 -0.079322711 0.46181828
0.16453689 -0.079284973 0.46157649
0.16493325 -0.079277128 0.46150872
0.16533412 -0.07927151 0.46145391
0.16574068 -0.079268605 0.46141502
0.16605476 -0.079221621 0.46111944
0.16646649 -0.079221345 0.46109578
0.16681184 -0.079189539 0.46088871
0.16719289 -0.079174802 0.46078095
0.16757464 -0.079160467 0.4606756
0.16795537 -0.079145722 0.46056783
0.16836765 -0.079145886 0.46054691
0.168806 -0.079158254 0.46059695
0.16921729 -0.079157919 0.46057311
0.16965793 -0.079171278 0.46062896
0.17004015 -0.07915739 0.46052629
0.17051032 -0.079184398 0.46066156
0.17355011 -0.079067118 0.45980555
0.17391443 -0.079045653 0.4596591
0.1743259 -0.079045668 0.45963761
0.17476875 -0.079059884 0.45969871
0.17512938 -0.079036914 0.45954359
0.17548604 -0.079012275 0.45937884
0.17567562 -0.07891269 0.45877838
0.17601068 -0.078878775 0.45855981
0.17644773 -0.078890614 0.45860723
0.17673673 -0.078836359 0.45827049
0.17705986 -0.078797542 0.45802349
0.17747554 -0.078799993 0.45801651
0.17786971 -0.078792907 0.45795408
0.17830265 -0.078802988 0.45799142
0.17867514 -0.078786381 0.45787364
0.17904456 -0.078768477 0.4577485
0.17941362 -0.078750513 0.45762295
0.17983371 -0.078754969 0.45762777
0.18011835 -0.078700215 0.45728859
0.18053602 -0.078703709 0.45728791
0.18089038 -0.078679658 0.45712715
0.1812966 -0.078678213 0.45709783
0.18168327 -0.078668319 0.45701942
0.18207221 -0.07865943 0.45694694
0.18248342 -0.078660205 0.45693055
0.18290049 -0.078663483 0.45692879
0.18335849 -0.0786843 0.45702901
0.13664943 -0.079938218 0.4694398
0.13702194 -0.07991159 0.46926144
0.13734758 -0.079857856 0.46892387
0.13773429 -0.079839855 0.4687961
0.13816249 -0.07984595 0.46880981
0.13855772 -0.079833001 0.46871167
0.13894439 -0.079815194 0.46858504
0.1393328 -0.079798505 0.46846497
0.13965589 -0.07974463 0.46812654
0.14012279 -0.079772942 0.46827057
0.14048631 -0.079742409 0.46806923
0.1408515 -0.079712994 0.46787435
0.14131275 -0.079737939 0.46799859
0.14169747 -0.079719715 0.46786937
0.14206584 -0.079692401 0.46768689
0.14247848 -0.079690024 0.46765068
0.14285389 -0.079666875 0.46749261
0.14320254 -0.079628997 0.46724814
0.14363874 -0.079639882 0.46728975
0.14401995 -0.079620294 0.46715254
0.1444055 -0.07960321 0.46703002
0.14482692 -0.079605952 0.46702379
0.14521958 -0.079592906 0.46692497
0.14559129 -0.07956849 0.46675947
0.14595096 -0.079537645 0.46655619
0.14641201 -0.079562068 0.46667716
0.14680034 -0.079546943 0.46656612
0.14714798 -0.079509929 0.46632662
0.14749962 -0.079475269 0.46610105
0.147926 -0.079480961 0.46611211
0.14833185 -0.079475626 0.46605843
0.14870037 -0.079450369 0.46588802
0.14915082 -0.079468906 0.4659743
0.1495201 -0.079444215 0.4658072
0.1499282 -0.079440229 0.46576145
0.15021591 -0.079372652 0.46534291
0.1506342 -0.079374254 0.46532989
0.15101427 -0.079355761 0.46519911
0.15146117 -0.079372391 0.46527427
0.15185592 -0.079361677 0.4651891
0.15228242 -0.079367571 0.46520123
0.15259717 -0.079315357 0.46487278
0.15293539 -0.079275563 0.46461722
0.1533691 -0.079285368 0.46465233
0.15375882 -0.079272449 0.46455422
0.15414463 -0.079257578 0.4644447
0.15453453 -0.079244874 0.46434793
0.154921 -0.079230495 0.46424127
0.15525968 -0.079191819 0.46399233
0.15569565 -0.079202831 0.46403453
0.15608534 -0.079190306 0.46393877
0.15651475 -0.079197951 0.46396121
0.15689093 -0.079178698 0.46382606
0.15728579 -0.079168938 0.46374655
0.15764304 -0.079140335 0.46355671
0.15805732 -0.079140447 0.46353504
0.15843435 -0.079121955 0.46340442
0.15883479 -0.079115227 0.4633427
0.15924424 -0.079112999 0.46330738
0.15960445 -0.079086401 0.46312928
0.15993027 -0.079042941 0.46285245
0.16030639 -0.079024486 0.46272218
0.16070457 -0.079016976 0.46265593
0.16114794 -0.079031661 0.46271968
0.16156417 -0.079033017 0.46270534
0.16193914 -0.079014219 0.46257305
0.16232958 -0.079003043 0.4624854
0.16270284 -0.078983583 0.4623493
0.16303104 -0.078942403 0.46208602
0.16345596 -0.07894814 0.46209747
0.16382293 -0.078925952 0.46194541
0.16416483 -0.078891799 0.46172339
0.16462952 -0.078916691 0.46184692
0.164951 -0.078872986 0.46156904
0.16540112 -0.078890853 0.46165144
0.16578957 -0.078879297 0.46156171
0.16610402 -0.078832656 0.46126679
0.16646665 -0.078809075 0.46110672
0.16691585 -0.07882648 0.4611865
0.16727711 -0.078802377 0.46102348
0.1676984 -0.078806594 0.46102616
0.16805963 -0.078782648 0.4608641
0.16839559 -0.078747004 0.46063361
0.16879484 -0.078741044 0.4605768
0.16918133 -0.078729175 0.46048549
0.16964501 -0.078753196 0.4606041
0.17007113 -0.078759715 0.46062031
0.17050424 -0.078769423 0.46065524
0.17094001 -0.078780338 0.46069717
0.17142235 -0.078812577 0.46086386
0.17296273 -0.078762904 0.46048626
0.17334971 -0.07875149 0.46039781
0.17361981 -0.078687154 0.46000004
0.17401555 -0.078679942 0.4599362
0.17439875 -0.078667082 0.4598394
0.17475858 -0.078643799 0.45968166
0.1750949 -0.078610055 0.45946285
0.17545247 -0.078585975 0.45930064
0.17567408 -0.078501277 0.45878404
0.17604795 -0.078484826 0.4586665
0.17643084 -0.078472473 0.45857286
0.17683998 -0.078471825 0.45854774
0.17724498 -0.078469358 0.45851189
0.17761664 -0.078452162 0.45839012
0.1780159 -0.078447215 0.45833987
0.1783582 -0.078417234 0.4581435
0.17875263 -0.078410275 0.45808157
0.17914255 -0.078401372 0.45800832
0.17947359 -0.078366801 0.45778519
0.1798868 -0.07836818 0.45777214
0.18016876 -0.078312501 0.45742577
0.18055895 -0.078304 0.45735514
0.18102665 -0.078329086 0.45748064
0.18137382 -0.078302041 0.45730165
0.18174255 -0.078284368 0.45717755
0.18210164 -0.078262664 0.45702985
0.1825072 -0.078260966 0.45699909
0.1829392 -0.078270592 0.4570345
0.18332472 -0.078260332 0.45695373
0.13666321 -0.079527996 0.46950006
0.13696599 -0.079461023 0.46908262
0.13743038 -0.079487935 0.46921939
0.13778517 -0.079451479 0.4689821
0.138191 -0.07944458 0.46891928
0.13857482 -0.079425119 0.46878225
0.13899119 -0.079424351 0.46875563
0.1394034 -0.079421237 0.46871501
0.13977794 -0.07939674 0.46854827
0.14010537 -0.079345696 0.46822494
0.1405399 -0.079355448 0.46826029
0.14095068 -0.079351768 0.46821633
0.14136824 -0.079351909 0.4681949
0.14171927 -0.079314813 0.46795383
0.14211312 -0.079301819 0.46785495
0.14249018 -0.079279579 0.46770146
0.14293024 -0.079292409 0.46775487
0.14332063 -0.079277702 0.46764585
0.14368571 -0.079249106 0.46745485
0.14407322 -0.079233006 0.46733758
0.14446186 -0.079217628 0.46722457
0.14488408 -0.079220705 0.46722037
0.14526565 -0.079201601 0.46708536
0.14565401 -0.079186268 0.46697265
0.14604008 -0.07916981 0.4668532
0.14640507 -0.079142034 0.46666712
0.1467995 -0.079130292 0.4665755
0.14715646 -0.079098478 0.46636558
0.14761275 -0.079120085 0.46647057
0.1479781 -0.079092957 0.46628827
0.1483549 -0.079072081 0.46614286
0.14874174 -0.079056658 0.46602952
0.1492295 -0.07909482 0.46623206
0.14952509 -0.079031192 0.46583462
0.14994897 -0.079035543 0.46583787
0.15031709 -0.079010561 0.46566817
0.15070085 -0.078993887 0.46554759
0.15108241 -0.078976192 0.46542081
0.15145931 -0.078956142 0.46528023
0.15188761 -0.078962922 0.46529785
0.15230151 -0.078962207 0.46527117
0.15268826 -0.078947462 0.46516189
0.15301147 -0.078900017 0.46485999
0.15342537 -0.07889948 0.46483439
0.15382177 -0.078889959 0.46475589
0.15417594 -0.078858897 0.46455047
0.15459935 -0.078863323 0.46455416
0.15499024 -0.078851171 0.46446019
0.15533365 -0.078815013 0.46422479
0.1557505 -0.07881619 0.46420935
0.15613163 -0.078799322 0.46408764
0.15654857 -0.078800589 0.46407273
0.15694085 -0.078789465 0.46398485
0.15735209 -0.078787901 0.46395326
0.15772875 -0.078769058 0.46381992
0.15807891 -0.078737125 0.46360952
0.15847419 -0.078727782 0.46353215
0.15884601 -0.078706846 0.46338657
0.15927991 -0.078716703 0.46342224
0.1597148 -0.078726999 0.46346051
0.16007791 -0.078701958 0.46329075
0.16038619 -0.078650139 0.46296343
0.1607904 -0.078645527 0.46291399
0.16117041 -0.078629129 0.46279517
0.16154097 -0.078608207 0.46264976
0.16196768 -0.078614645 0.46266538
0.16233981 -0.078594632 0.46252534
0.16274355 -0.078589991 0.46247578
0.16309354 -0.078559473 0.46227393
0.16349107 -0.078551948 0.46220747
0.16389006 -0.078545161 0.46214533
0.16429487 -0.078541197 0.46209982
0.1646353 -0.078506537 0.46187374
0.16504592 -0.078505456 0.46184516
0.16540796 -0.078481324 0.46168107
0.16582461 -0.078483157 0.46166968
0.16620158 -0.078466251 0.46154818
0.16655605 -0.078438811 0.46136472
0.16694489 -0.07842768 0.46127713
0.16739637 -0.078445949 0.46136248
0.16770305 -0.078396432 0.46104929
0.16807014 -0.078375332 0.4609032
0.16841353 -0.078343317 0.46069291
0.16884743 -0.07835345 0.46073049
0.16925941 -0.07835339 0.46070823
0.16968305 -0.078358717 0.46071759
0.17010017 -0.078361005 0.4607091
0.17048085 -0.078346543 0.46060216
0.17092343 -0.07836052 0.46066248
0.17136036 -0.078371853 0.46070722
0.17180051 -0.078384608 0.4607603
0.17218831 -0.078373469 0.460673
0.17256452 -0.0783571 0.46055502
0.17293052 -0.078336209 0.46041048
0.17326854 -0.078302763 0.46019211
0.17355643 -0.078246869 0.45984191
0.17395966 -0.078243122 0.45979819
0.17431882 -0.078219622 0.45963842
0.17467119 -0.07819318 0.45946148
0.17508256 -0.078193232 0.45944011
0.17543374 -0.07816644 0.45926121
0.17581342 -0.078152455 0.4591575
0.17611951 -0.078105904 0.45886245
0.17650175 -0.078093268 0.45876676
0.17691059 -0.078092411 0.45874032
0.17723991 -0.078056552 0.45850825
0.17761512 -0.078041017 0.45839563
0.17804843 -0.078051008 0.45843297
0.17842267 -0.078035131 0.45831844
0.17878409 -0.07801374 0.45817152
0.17910945 -0.077976748 0.45793298
0.17955039 -0.077990122 0.45799032
0.17988946 -0.077959277 0.45778802
0.18021409 -0.077922337 0.45755002
0.18071955 -0.077963576 0.45777106
0.18105939 -0.077933341 0.45757246
0.18142107 -0.077912614 0.45742974
0.18184252 -0.077917606 0.45743805
0.18225616 -0.077919222 0.45742661
0.18257415 -0.077880032 0.45717567
0.18293528 -0.077859387 0.45703357
0.18337166 -0.077870779 0.45707962
0.18380679 -0.077881604 0.45712233
0.13628162 -0.079131007 0.46966127
0.1366204 -0.079084948 0.46936584
0.13705321 -0.079093426 0.46939412
0.13743711 -0.07907372 0.46925506
0.13788338 -0.079089925 0.46932906
0.13824444 -0.079057291 0.46911326
0.13861707 -0.079031453 0.46893784
0.13899669 -0.079009742 0.46878684
0.13943996 -0.079024233 0.46885061
0.139824 -0.079005174 0.46871531
0.14022844 -0.078997701 0.46864879
0.14061221 -0.078978688 0.46851376
0.14096412 -0.078941949 0.46827352
0.14136691 -0.078933805 0.46820301
0.14173892 -0.078908585 0.46803117
0.14213869 -0.078898929 0.46795157
0.14257579 -0.078909986 0.46799487
0.14295408 -0.078888535 0.46784532
0.14338422 -0.078895718 0.46786565
0.14375184 -0.078868575 0.4676823
0.144107 -0.078834757 0.46745944
0.14446987 -0.07880535 0.46726272
0.14487889 -0.078801207 0.46721584
0.14526124 -0.078782625 0.46708328
0.14566463 -0.078775525 0.46701887
0.14610939 -0.078790776 0.46708691
0.14646779 -0.078759506 0.46687913
0.14689939 -0.078767665 0.46690506
0.14728725 -0.078752384 0.46679205
0.14763013 -0.078713194 0.46653742
0.14800075 -0.078688987 0.46637157
0.14843868 -0.078700617 0.466418
0.14877442 -0.078658119 0.46614376
0.14920725 -0.078667074 0.46617436
0.14956993 -0.07863909 0.46598613
0.15002078 -0.078657486 0.46607274
0.15035634 -0.078615502 0.46580148
0.15079857 -0.078629367 0.4658612
0.15113224 -0.078586712 0.46558607
0.15155046 -0.078588121 0.46557197
0.15196143 -0.078585789 0.46553561
0.15230215 -0.078547217 0.46528473
0.15271135 -0.078544088 0.46524382
0.15308835 -0.078524463 0.46510509
0.15350789 -0.078526706 0.46509588
0.15386839 -0.078498811 0.46490824
0.15423746 -0.078475423 0.46474731
0.1546282 -0.078463167 0.46465227
0.1550108 -0.078446843 0.46453321
0.15545048 -0.078459427 0.4645853
0.15578893 -0.078420982 0.4643352
0.15620618 -0.078422301 0.4643206
0.15656123 -0.078392461 0.46412152
0.15697649 -0.078392871 0.46410146
0.15735807 -0.078376472 0.46398202
0.1577469 -0.078363784 0.46388453
0.15817922 -0.078372695 0.4639149
0.15854511 -0.078348741 0.46375063
0.15890618 -0.078322522 0.46357313
0.15933545 -0.07832998 0.46359488
0.15969406 -0.078302756 0.46341136
0.16008489 -0.078291409 0.46332186
0.16041659 -0.078251295 0.46306214
0.16082782 -0.078250073 0.4630326
0.1612207 -0.07823997 0.46295041
0.16161115 -0.078228727 0.4628616
0.16199371 -0.078213722 0.46275052
0.16241026 -0.078215174 0.46273682
0.16279075 -0.07819929 0.46262059
0.1631624 -0.078179263 0.4624798
0.16351171 -0.078148641 0.46227646
0.16391331 -0.078143112 0.4622215
0.1643478 -0.078153253 0.4622592
0.16472988 -0.078138471 0.46214962
0.16501085 -0.078075945 0.4617576
0.16542526 -0.078076698 0.46173987
0.16589011 -0.078101188 0.46186253
0.16627197 -0.078086585 0.46175405
0.1665936 -0.078043848 0.46147916
0.16699965 -0.078040764 0.46143878
0.16738325 -0.078027226 0.4613367
0.16779886 -0.078028642 0.46132296
0.16821046 -0.078028187 0.46129826
0.16851141 -0.07797654 0.46097082
0.16887529 -0.077954195 0.46081671
0.1693445 -0.077980444 0.46094993
0.16967164 -0.077941321 0.46069673
0.1701051 -0.077951103 0.46073255
0.17054157 -0.077962212 0.46077624
0.17094669 -0.077958971 0.46073517
0.17135862 -0.077958837 0.46071252
0.17169595 -0.077924863 0.46048984
0.17212683 -0.077933401 0.46051842
0.17247768 -0.077905737 0.46033317
0.17283911 -0.077882983 0.46017689
0.17326079 -0.077887423 0.46018133
0.17354052 -0.077828176 0.45980954
0.17396618 -0.077834494 0.45982519
0.17429823 -0.077799015 0.45959386
0.17470181 -0.077795543 0.45955169
0.17507675 -0.07777936 0.45943448
0.17547116 -0.077771895 0.45936877
0.17584692 -0.077756204 0.45925453
0.17618728 -0.077724971 0.45904851
0.17659053 -0.077721573 0.45900697
0.17689183 -0.077673413 0.45870107
0.17731611 -0.077679366 0.45871478
0.17771751 -0.077675283 0.45866922
0.17804053 -0.077637039 0.45842201
0.17845032 -0.077636719 0.45839876
0.17887026 -0.077640794 0.45840156
0.17912084 -0.077571526 0.4579713
0.17956731 -0.077587202 0.45804262
0.17996243 -0.077580683 0.4579829
0.18034525 -0.077568889 0.45789212
0.18072544 -0.077556014 0.45779502
0.18110308 -0.077542126 0.45769194
0.18147174 -0.077524453 0.45756653
0.18190633 -0.077534966 0.45760754
0.18226552 -0.077513359 0.457459
0.1825951 -0.077479295 0.45723704
0.18301226 -0.077482454 0.45723477
0.18341158 -0.077478059 0.45718798
0.1838349 -0.077483803 0.45720103
0.18427227 -0.077495426 0.45724881
0.13601588 -0.078801006 0.47022364
0.13628832 -0.078716472 0.46969712
0.13671166 -0.078719333 0.46969208
0.13708234 -0.078691952 0.46950662
0.13746227 -0.078670047 0.46935377
0.13785779 -0.07865715 0.46925467
0.1382606 -0.078648493 0.46918082
0.13865592 -0.078635611 0.46908185
0.13906495 -0.078630581 0.46902966
0.1394482 -0.078611046 0.46889088
0.13988043 -0.078619152 0.46891701
0.14026363 -0.078599736 0.46877894
0.14064044 -0.078576863 0.46862027
0.14104077 -0.078567229 0.46854052
0.14138575 -0.078526907 0.46827781
0.14177996 -0.078514092 0.46817908
0.14223751 -0.078536324 0.46828932
0.14259386 -0.0785027 0.46806651
0.14302023 -0.078507729 0.46807408
0.14338472 -0.078478828 0.46787947
0.14377265 -0.078462906 0.4677622
0.14417636 -0.078455664 0.46769664
0.14456378 -0.078439616 0.46757862
0.14493454 -0.078414656 0.46740741
0.14532115 -0.078398384 0.46728805
0.14575043 -0.078405157 0.46730599
0.14613804 -0.078389548 0.46719056
0.14650241 -0.078361586 0.4670015
0.14693645 -0.078370951 0.46703485
0.14732033 -0.078353576 0.46690887
0.14768855 -0.078327999 0.46673405
0.14809357 -0.078322023 0.46667597
0.14853124 -0.078333303 0.46672076
0.14891824 -0.078317866 0.46660626
0.14926811 -0.078283049 0.46637639
0.14965394 -0.078267224 0.46625966
0.1500638 -0.078264028 0.46621811
0.15042238 -0.078234166 0.46601775
0.15083112 -0.078230493 0.46597341
0.1512132 -0.078213051 0.46584705
0.15157537 -0.078185439 0.46566013
0.15198825 -0.078184053 0.46562937
0.15236232 -0.078162774 0.46548015
0.15275906 -0.078153208 0.4654007
0.15319815 -0.078165293 0.46545017
0.15352064 -0.078117982 0.46514601
0.15396452 -0.078132533 0.46521014
0.15429491 -0.07808955 0.46493179
0.15471441 -0.0780918 0.46492264
0.15509182 -0.078072846 0.46478736
0.15553418 -0.078086592 0.4648467
0.15588006 -0.078051962 0.46461812
0.15628751 -0.078048259 0.46457359
0.15668249 -0.078038365 0.46449226
0.15703416 -0.078007013 0.46428317
0.15740739 -0.077986501 0.46413863
0.15783249 -0.077991724 0.46414727
0.1581842 -0.077960759 0.46394059
0.15860182 -0.077962339 0.46392757
0.15895002 -0.077929877 0.46371201
0.15936926 -0.077932343 0.46370426
0.15971284 -0.077897884 0.46347675
0.16014656 -0.077907458 0.46351132
0.16045357 -0.077855475 0.46317974
0.16083401 -0.077839322 0.46306127
0.16123813 -0.077834681 0.46301129
0.16163215 -0.077825204 0.46293253
0.16201787 -0.07781177 0.46283031
0.16242024 -0.077806391 0.46277601
0.16279687 -0.077788733 0.46264866
0.16320245 -0.07778497 0.46260399
0.16359852 -0.0777767 0.46253252
0.16402119 -0.077781096 0.46253633
0.16435866 -0.077745162 0.46230039
0.16470523 -0.077713691 0.46209103
0.16514571 -0.077726588 0.46214545
0.16555139 -0.077723086 0.46210238
0.16593547 -0.077709466 0.46199927
0.16632243 -0.07769727 0.46190456
0.16668212 -0.077672437 0.46173474
0.1670956 -0.077672713 0.46171424
0.16744354 -0.077642612 0.46151316
0.16783674 -0.07763359 0.4614374
0.16826625 -0.07764136 0.46146145
0.16859475 -0.077602588 0.461209
0.16899288 -0.077595986 0.4611477
0.16943055 -0.077607535 0.46119431
0.16972011 -0.077551343 0.46083838
0.17015812 -0.077563092 0.46088618
0.17055364 -0.077555463 0.46081889
0.17095388 -0.077550024 0.46076459
0.17136651 -0.07755021 0.46074373
0.17173657 -0.077531159 0.46060866
0.17207637 -0.0774986 0.46039331
0.17239596 -0.077457085 0.46012488
0.17279887 -0.077453129 0.46007958
0.17320417 -0.077450261 0.46004072
0.17359799 -0.077442288 0.45997158
0.17393702 -0.077409968 0.45975783
0.17433825 -0.077405408 0.45970905
0.17474838 -0.077404812 0.45968384
0.17514621 -0.077398792 0.45962638
0.17545494 -0.077353515 0.45933586
0.17584758 -0.077345349 0.4592658
0.17626807 -0.077349447 0.45926854
0.17659609 -0.077313043 0.45903087
0.1769793 -0.077300921 0.45893738
0.1773624 -0.077288799 0.45884389
0.17772499 -0.077267811 0.45869786
0.1781486 -0.077273384 0.45870954
0.17850547 -0.077250063 0.45854968
0.17894626 -0.07726308 0.45860559
0.17929089 -0.077234618 0.4584153
0.17962117 -0.077200107 0.45818922
0.1800873 -0.077224009 0.45830983
0.18040001 -0.077182166 0.4580403
0.18081604 -0.07718461 0.45803359
0.18117924 -0.077164553 0.45789343
0.18159018 -0.077164859 0.45787415
0.18194582 -0.077141725 0.45771581
0.18229797 -0.077117227 0.45754939
0.1826828 -0.077106617 0.45746547
0.18301709 -0.077074781 0.45725566
0.18346174 -0.077089451 0.45732182
0.18388592 -0.077095471 0.4573366
0.18427096 -0.0770851 0.45725426
0.18472125 -0.077102013 0.45733377
0.13562047 -0.078395657 0.47033963
0.13603595 -0.078393705 0.4703058
0.13636102 -0.078339815 0.46996039
0.13673262 -0.078312904 0.46977684
0.13709277 -0.078279629 0.46955505
0.13755374 -0.078303941 0.4696787
0.13792695 -0.078278303 0.46950275
0.13833407 -0.078271985 0.46944267
0.13871512 -0.078251019 0.46929467
0.13909583 -0.078229986 0.46914634
0.1395141 -0.078230135 0.46912494
0.13990448 -0.078214698 0.46901011
0.14027244 -0.078186855 0.46882087
0.14068513 -0.078184023 0.46878159
0.1410813 -0.078172058 0.46868756
0.14146842 -0.078155175 0.468564
0.1418547 -0.078137919 0.46843821
0.14225787 -0.078130037 0.46836862
0.14259088 -0.078083791 0.46806902
0.143015 -0.078087553 0.46806923
0.1434094 -0.078075118 0.46797228
0.14383873 -0.07808172 0.46798944
0.14427306 -0.078090966 0.4680225
0.1445756 -0.078029051 0.46762899
0.14500855 -0.078037672 0.46765822
0.1453537 -0.077999122 0.46740478
0.14576653 -0.077996999 0.46736965
0.14616333 -0.077986352 0.4672834
0.14660685 -0.078000613 0.46734634
0.14698532 -0.077980287 0.46720213
0.14738975 -0.077973805 0.46714085
0.14775051 -0.077944331 0.46694174
0.14812472 -0.077922083 0.46678597
0.14853545 -0.077919118 0.46674573
0.1489578 -0.077922262 0.46674207
0.1492994 -0.077883251 0.46648589
0.14969151 -0.077870734 0.46638843
0.15007721 -0.077854969 0.46627152
0.15047716 -0.077846654 0.46619922
0.15086187 -0.077830531 0.46608013
0.15131262 -0.077848464 0.46616501
0.15162021 -0.077792838 0.4658094
0.15203848 -0.077794164 0.46579486
0.15240474 -0.077768937 0.46562126
0.15281318 -0.077765323 0.4655771
0.15319027 -0.077745795 0.46543771
0.15356329 -0.07772433 0.46528664
0.15397386 -0.077721924 0.46524975
0.15435861 -0.077706546 0.46513516
0.15474176 -0.07769043 0.46501625
0.15511967 -0.077671789 0.46488214
0.15553658 -0.077672705 0.46486515
0.15591258 -0.077653266 0.46472627
0.15627851 -0.077628903 0.46455801
0.15674752 -0.077655755 0.46469617
0.15706444 -0.077607304 0.46438378
0.15747915 -0.077607319 0.46436134
0.15781698 -0.077569522 0.4641127
0.15821803 -0.077562928 0.4640508
0.15859637 -0.077545255 0.46392262
0.15900011 -0.077540077 0.46386918
0.15943792 -0.077551484 0.46391502
0.15980808 -0.077530004 0.4637641
0.16015215 -0.077496022 0.46353835
0.16057818 -0.077501766 0.4635503
0.16095163 -0.077482171 0.46341071
0.16128489 -0.077443391 0.46315634
0.16169654 -0.077442341 0.46312764
0.16210617 -0.077440329 0.46309325
0.1625189 -0.077439815 0.4630678
0.16283506 -0.077393398 0.46276787
0.16326967 -0.077403359 0.46280512
0.16368029 -0.077401929 0.46277425
0.1640294 -0.077371508 0.46257001
0.16446584 -0.077382326 0.46261239
0.16477185 -0.077331856 0.46228841
0.16518201 -0.07733041 0.4622575
0.1655854 -0.077325806 0.4622077
0.16593553 -0.077296421 0.46200982
0.16629942 -0.07727357 0.461851
0.16675986 -0.077295579 0.46196035
0.16718297 -0.077300236 0.46196595
0.16750373 -0.077257648 0.46168926
0.1679002 -0.077250108 0.46162206
0.16827865 -0.077234328 0.46150568
0.1687012 -0.07723882 0.46151039
0.16906609 -0.077216953 0.46135759
0.16947633 -0.077215858 0.46132901
0.16983566 -0.077191629 0.46116218
0.17013802 -0.077141672 0.46084175
0.17055427 -0.07714349 0.46083057
0.17094867 -0.077135429 0.46076044
0.17137715 -0.077142753 0.4607822
0.1716821 -0.077094577 0.46047246
0.172185 -0.077135302 0.46069378
0.17249185 -0.077088207 0.46039063
0.17289481 -0.077084184 0.46034476
0.17324716 -0.077057675 0.46016464
0.17357391 -0.077019945 0.45991749
0.17403556 -0.077042095 0.46002799
0.17437142 -0.07700859 0.45980614
0.17478412 -0.077009097 0.45978746
0.17520823 -0.07701461 0.45979863
0.17552568 -0.076973334 0.45953059
0.17591363 -0.076963097 0.45944777
0.17630155 -0.076952904 0.45936531
0.17664123 -0.076921724 0.45915759
0.17704615 -0.076919042 0.45912006
0.1773798 -0.076885492 0.45889825
0.17781018 -0.076893911 0.45892704
0.17818134 -0.076876745 0.45880312
0.1786231 -0.076890051 0.45886108
0.17899156 -0.076871827 0.45873094
0.17932208 -0.076837413 0.4585042
0.17971022 -0.076827794 0.45842549
0.18006556 -0.076804221 0.45826355
0.180517 -0.07682167 0.45834637
0.18089439 -0.076807588 0.45824111
0.1812268 -0.076774515 0.45802262
0.18160498 -0.076760933 0.45792046
0.18203296 -0.076768413 0.45794398
0.18234809 -0.076728374 0.45768404
0.1827572 -0.076727971 0.45766065
0.18310991 -0.076703951 0.45749637
0.18350628 -0.076698281 0.45744163
0.18389024 -0.076687463 0.45735615
0.18432632 -0.076698378 0.45740035
0.18473117 -0.076696277 0.457367
0.18519245 -0.076717556 0.45747307
0.13539633 -0.078089036 0.47105199
0.13562046 -0.077976719 0.47035235
0.13601632 -0.077963538 0.47025073
0.13642639 -0.077958532 0.47019839
0.13680185 -0.077933855 0.47002739
0.137174 -0.077907443 0.46984589
0.13759258 -0.07790748 0.46982396
0.13790357 -0.07784678 0.46943566
0.13836013 -0.077868372 0.46954367
0.13877295 -0.077865303 0.4695029
0.13918424 -0.077861391 0.469457
0.13952266 -0.077816866 0.46916625
0.13994198 -0.077817574 0.46914825
0.14032352 -0.077797346 0.46900401
0.14074686 -0.077800341 0.46899968
0.14109029 -0.077759273 0.46872979
0.14150988 -0.077760294 0.46871358
0.1418898 -0.077739589 0.46856645
0.14231402 -0.077743188 0.46856573
0.14271449 -0.077733845 0.46848702
0.14306852 -0.077699333 0.46825662
0.14347288 -0.077692263 0.46819159
0.14385614 -0.077673845 0.4680582
0.14427744 -0.077676021 0.46804884
0.14467426 -0.077665038 0.46796024
0.14507672 -0.077657133 0.46789014
0.14549404 -0.077657208 0.46786812
0.14574398 -0.077568196 0.46730942
0.14625569 -0.077618614 0.46759063
0.14664488 -0.077603914 0.46747959
0.14696428 -0.07755246 0.46714714
0.14737029 -0.07754688 0.46709102
0.14781581 -0.077562064 0.46715999
0.14819455 -0.077542216 0.46701789
0.14860144 -0.077537149 0.4669649
0.14900178 -0.077528723 0.46689159
0.1493683 -0.077502795 0.46671292
0.14976372 -0.077491954 0.46662509
0.15004961 -0.077424668 0.4661974
0.15051928 -0.077452317 0.46634135
0.15094754 -0.077458568 0.4663564
0.15126939 -0.077410318 0.46604338
0.15169996 -0.077417821 0.46606603
0.15207237 -0.077395685 0.46591023
0.15252295 -0.077413335 0.46599394
0.15283647 -0.077361524 0.4656595
0.15324259 -0.077356733 0.46560809
0.1536056 -0.077330261 0.46542621
0.15402526 -0.077332385 0.4654164
0.15439212 -0.077308044 0.46524742
0.15480396 -0.077306315 0.46521446
0.15516818 -0.077280864 0.46503875
0.1555602 -0.07726936 0.46494702
0.15597464 -0.077269025 0.46492246
0.15635853 -0.077253588 0.46480703
0.15678324 -0.077258356 0.46481317
0.15711638 -0.077218093 0.46454844
0.15751563 -0.077210449 0.46447995
0.15784186 -0.077167146 0.46419692
0.1582607 -0.077169225 0.46418691
0.15865749 -0.077160582 0.46411243
0.15903871 -0.077144414 0.46399274
0.15946656 -0.077150896 0.46400923
0.15980352 -0.077113487 0.46376175
0.16017269 -0.077091768 0.46360868
0.16061345 -0.077104531 0.46366292
0.16097653 -0.077080034 0.46349323
0.16138275 -0.077076271 0.46344811
0.16181764 -0.077086173 0.46348524
0.16212259 -0.077034287 0.46315086
0.1625143 -0.077023782 0.4630653
0.16290593 -0.077013299 0.46297988
0.16331063 -0.077009022 0.46293184
0.16369858 -0.076996893 0.46283653
0.16406457 -0.076974526 0.46267974
0.16445579 -0.076964065 0.46259451
0.16487969 -0.076968938 0.46260148
0.16523713 -0.076942809 0.46242213
0.16567965 -0.076956347 0.46248117
0.16602227 -0.076923534 0.46226168
0.16638622 -0.076900728 0.46210238
0.16674928 -0.076877631 0.46194136
0.16715777 -0.076875545 0.46190658
0.16752122 -0.076852791 0.46174771
0.16790797 -0.076840818 0.46165359
0.16832171 -0.076841243 0.46163392
0.16871658 -0.076833054 0.4615626
0.16909648 -0.076818109 0.46145067
0.16946387 -0.07679756 0.46130514
0.16989826 -0.076807395 0.46134213
0.17022832 -0.076770149 0.46109632
0.17058414 -0.076744668 0.46092123
0.1710337 -0.076761365 0.46099952
0.1714325 -0.076755278 0.46094093
0.17179987 -0.076735169 0.46079817
0.17217293 -0.07671769 0.46067128
0.17261805 -0.07673233 0.4607372
0.17292957 -0.076687649 0.46044704
0.17329004 -0.076664843 0.4602882
0.17367116 -0.07665126 0.46018481
0.1740354 -0.076630302 0.46003717
0.17441389 -0.076615706 0.45992774
0.17485741 -0.076629661 0.45998979
0.1752017 -0.076600187 0.45979109
0.17564651 -0.076614693 0.45985642
0.1759958 -0.07658755 0.45967185
0.1763766 -0.076574229 0.45957023
0.17678897 -0.076574638 0.45955107
0.17712669 -0.076542787 0.45933828
0.17754605 -0.076546274 0.45933765
0.17783643 -0.076494269 0.45900404
0.17822336 -0.076483943 0.45892057
0.17868114 -0.076504 0.45901945
0.17905544 -0.076488286 0.45890382
0.17937702 -0.076450184 0.45865381
0.17979535 -0.07645341 0.45865172
0.18018261 -0.076443426 0.45857054
0.18042861 -0.076373704 0.45813096
0.18089922 -0.07639914 0.45826232
0.18126312 -0.076379515 0.45812339
0.1816265 -0.076359741 0.45798361
0.18207467 -0.076375641 0.45805776
0.18239546 -0.07633815 0.45781183
0.18277071 -0.076323569 0.45770332
0.18322377 -0.076341465 0.45778963
0.18351869 -0.07629355 0.45748129
0.183982 -0.076315679 0.45759305
0.18435308 -0.076299563 0.45747545
0.18476354 -0.076299757 0.45745578
0.18518306 -0.076303698 0.45745853
0.13497818 -0.077670269 0.47109157
0.13534629 -0.077640794 0.47089073
0.13572566 -0.077617951 0.47072998
0.13606134 -0.077570319 0.47041902
0.13644068 -0.077547804 0.47026026
0.13682091 -0.077525944 0.47010547
0.13726526 -0.07754042 0.47017106
0.13759401 -0.077489719 0.46984136
0.13804017 -0.077505238 0.46991324
0.1383705 -0.077455819 0.46959138
0.1388036 -0.077464074 0.46961907
0.13916001 -0.077429578 0.46938774
0.13958506 -0.0774334 0.46938851
0.13995142 -0.077404708 0.4691923
0.14038795 -0.077414893 0.46923169
0.1407686 -0.077394292 0.46908447
0.14113016 -0.077363357 0.46887457
0.14156121 -0.077370569 0.46889591
0.14191207 -0.077334061 0.46865222
0.14232175 -0.077329703 0.46860346
0.14271797 -0.077318095 0.46851066
0.14311795 -0.07730858 0.46843055
0.14352064 -0.077300571 0.46835962
0.14393905 -0.077301055 0.46834007
0.14431548 -0.077279054 0.46818432
0.1447299 -0.077277467 0.46815223
0.14509661 -0.077250503 0.46796635
0.14554138 -0.077265106 0.46803233
0.14592087 -0.077245079 0.46788847
0.14626509 -0.077206559 0.46763265
0.14667197 -0.077201225 0.46757782
0.14704286 -0.07717704 0.46740881
0.14745346 -0.077173777 0.46736649
0.14785448 -0.077165522 0.46729395
0.1481902 -0.077123329 0.46701592
0.14857858 -0.077108711 0.46690488
0.14901277 -0.077117875 0.46693778
0.14938401 -0.077094488 0.46677363
0.14978713 -0.077087656 0.46670967
0.15015076 -0.077060603 0.46652329
0.15059811 -0.077076524 0.46659714
0.15098432 -0.077061161 0.46648154
0.15131216 -0.077016175 0.46618664
0.15176666 -0.077035725 0.4662824
0.15212621 -0.0770071 0.46608657
0.15248111 -0.076976292 0.46587753
0.1529341 -0.076995023 0.46596828
0.15336105 -0.077000596 0.46597943
0.15370271 -0.076963417 0.46573183
0.15410665 -0.076957531 0.46567366
0.15443332 -0.076913208 0.46538284
0.15486586 -0.076921701 0.46541169
0.15522172 -0.076892175 0.46521038
0.15560712 -0.076877393 0.46509841
0.15599406 -0.076863438 0.46499148
0.15639643 -0.076857157 0.46493083
0.15680593 -0.076854393 0.46489158
0.1571098 -0.076800011 0.46454006
0.15752149 -0.076798469 0.46450821
0.15794523 -0.07680282 0.46451196
0.15827946 -0.076763719 0.46425295
0.15870155 -0.076767325 0.46425226
0.15909113 -0.076755226 0.46415657
0.15944758 -0.076727249 0.46396485
0.15982407 -0.076709025 0.46383214
0.1602781 -0.076728031 0.46392456
0.16066903 -0.076716803 0.46383417
0.16103539 -0.07669393 0.46367341
0.16142052 -0.076680094 0.46356726
0.16172995 -0.076630451 0.46324468
0.16211726 -0.076617874 0.46314627
0.16245933 -0.076584041 0.46291929
0.16294755 -0.076619089 0.46310875
0.16326003 -0.076571539 0.46279892
0.16370116 -0.076584414 0.46285433
0.1641089 -0.076581642 0.46281523
0.16452481 -0.076582685 0.46279913
0.16492032 -0.076574259 0.46272582
0.16530973 -0.076563045 0.46263573
0.165722 -0.076562442 0.46260974
0.16607885 -0.076536298 0.46242949
0.16644925 -0.076516517 0.46228769
0.16680396 -0.07648965 0.46210304
0.16725138 -0.076505318 0.46217546
0.1675785 -0.076466016 0.46191579
0.16802411 -0.076480836 0.46198305
0.16840985 -0.076468401 0.46188575
0.16877373 -0.076446131 0.46172899
0.16915826 -0.076433286 0.4616293
0.16948256 -0.076393366 0.461366
0.16987887 -0.076386012 0.46129948
0.17029139 -0.076385967 0.46127713
0.17068222 -0.076376215 0.46119615
0.17108403 -0.076371416 0.46114507
0.17150339 -0.076374449 0.46114135
0.17181592 -0.076330014 0.46085104
0.17229131 -0.076357953 0.46099773
0.17263731 -0.076328576 0.46079841
0.17297341 -0.076294959 0.46057349
0.17340334 -0.076302789 0.46059886
0.1737182 -0.076260068 0.4603191
0.17406592 -0.076231942 0.46012741
0.17449018 -0.076237381 0.46013847
0.17481528 -0.076199569 0.45988846
0.17527895 -0.076222211 0.46000329
0.17567076 -0.076213568 0.45992938
0.17608462 -0.076214507 0.45991331
0.17641106 -0.076177679 0.45966941
0.17682754 -0.076179817 0.45966059
0.17716447 -0.076147757 0.45944557
0.1775856 -0.076151952 0.45944926
0.17789038 -0.076106362 0.45915258
0.17833725 -0.076121621 0.45922309
0.17871366 -0.076106794 0.4591122
0.17900696 -0.076056734 0.45878869
0.17940997 -0.076053403 0.45874718
0.17979363 -0.0760419 0.45865643
0.18023436 -0.076054543 0.45871127
0.18065242 -0.076057576 0.45870829
0.18097334 -0.076019794 0.45845908
0.18128887 -0.075979918 0.45819733
0.18174703 -0.075999878 0.45829648
0.18212897 -0.075987935 0.45820326
0.18250126 -0.075972028 0.45808619
0.18285578 -0.07594882 0.45792514
0.18325818 -0.075945549 0.45788434
0.1835638 -0.075902283 0.45760241
0.18400827 -0.075916484 0.45766708
0.1844089 -0.07591258 0.45762259
0.1847754 -0.075894669 0.45749372
0.18518084 -0.075892814 0.45746163
0.18560977 -0.075900562 0.45748749
0.13497393 -0.077248275 0.47108942
0.13575308 -0.077214278 0.47083774
0.13610335 -0.077175133 0.47057688
0.13647594 -0.077148855 0.4703944
0.13685419 -0.077125929 0.4702324
0.13726488 -0.077121362 0.4701823
0.13764977 -0.077102378 0.47004434
0.13813494 -0.077139504 0.47024834
0.13845928 -0.077086858 0.46990511
0.13883503 -0.077063069 0.4697378
0.14038338 -0.076994225 0.46922871
0.14117326 -0.076968953 0.46902999
0.14157638 -0.076960891 0.46895844
0.14200598 -0.076967217 0.46897456
0.14240605 -0.076957554 0.46889317
0.14280795 -0.076948918 0.46881819
0.14318502 -0.076926999 0.46866214
0.14359914 -0.076925069 0.46862787
