# .PCD v0.7 - Point Cloud Data file format
VERSION 0.7
FIELDS x y z
SIZE 4 4 4
TYPE F F F
COUNT 1 1 1
WIDTH 1374
HEIGHT 1
VIEWPOINT 0 0 0 1 0 0 0
POINTS 1374
DATA ascii
-0.1152745 0.076852061 0.4112179
-0.11490922 0.076852351 0.41123706
-0.11443443 0.076779142 0.41086295
-0.11401629 0.076743625 0.4106904
-0.1135596 0.07668183 0.41037726
-0.11309143 0.076611862 0.41002026
-0.11267298 0.076575235 0.40984169
-0.11228961 0.076562293 0.40978986
-0.11182215 0.076491743 0.40942961
-0.11145299 0.076488197 0.40942797
-0.11104593 0.076458536 0.4092865
-0.11070111 0.076471664 0.40937409
-0.11020378 0.076379187 0.40889627
-0.10981033 0.076358333 0.40880185
-0.10935466 0.076293923 0.40847418
-0.10899192 0.076294146 0.40849257
-0.1086233 0.076290235 0.40848875
-0.10819462 0.076243982 0.40825814
-0.10782455 0.076238841 0.40824768
-0.10741617 0.076206498 0.40809152
-0.10703393 0.07619255 0.40803382
-0.10664346 0.076172628 0.40794408
-0.10621942 0.076128505 0.40772471
-0.10585337 0.076125786 0.40772706
-0.10544828 0.076094881 0.40757838
-0.10503168 0.076055422 0.40738386
-0.10462719 0.07602448 0.40723494
-0.10422948 0.075998291 0.40711135
-0.10387366 0.076002553 0.40715095
-0.10353324 0.076018155 0.40725121
-0.10318688 0.076029494 0.40732861
-0.10286855 0.076061644 0.40751749
-0.095477015 0.075369947 0.40410265
-0.09511219 0.075365074 0.40409237
-0.09476538 0.075374499 0.40415868
-0.094357349 0.075335108 0.40396324
-0.094071344 0.07539323 0.40429059
-0.093702771 0.075385354 0.40426409
-0.14422026 0.079053678 0.4196856
-0.14384517 0.079053275 0.41970208
-0.14343819 0.07903529 0.41962525
-0.14305449 0.079030067 0.41961619
-0.14264517 0.079010643 0.41953167
-0.14211494 0.078923956 0.41909003
-0.14168063 0.078890227 0.41892958
-0.14123568 0.078850381 0.41873658
-0.14087383 0.078856833 0.41878948
-0.14043178 0.078818314 0.41860351
-0.13998824 0.078778759 0.41841206
-0.13969238 0.078822322 0.41866198
-0.13923131 0.078772634 0.41841671
-0.1386705 0.078666106 0.41786945
-0.13827166 0.07865113 0.41780847
-0.13787779 0.078638911 0.41776216
-0.13744913 0.078606732 0.41760978
-0.13707455 0.078605384 0.4176212
-0.13666092 0.078581586 0.41751331
-0.13619897 0.07852979 0.41725665
-0.13579459 0.078511007 0.41717538
-0.13532709 0.078455508 0.416899
-0.13494864 0.078451477 0.4168961
-0.13450898 0.078411765 0.41670358
-0.13414618 0.078416742 0.41674849
-0.13368583 0.078364559 0.41648969
-0.13327886 0.078343481 0.41639611
-0.13287129 0.078321919 0.41630003
-0.13240831 0.078267492 0.41602919
-0.13201904 0.078256443 0.41598886
-0.13160381 0.078229904 0.4158662
-0.13120212 0.078211293 0.4157857
-0.13082607 0.078207918 0.41578609
-0.13036789 0.078155264 0.4155246
-0.13001032 0.078162804 0.41558304
-0.12957938 0.078126155 0.41540653
-0.12907512 0.078044951 0.41499314
-0.12871249 0.078049175 0.41503394
-0.12829551 0.078020379 0.41489908
-0.12785703 0.077978283 0.41469353
-0.12743197 0.077944174 0.4145304
-0.12704247 0.07793168 0.41448218
-0.12658457 0.077877022 0.41420972
-0.12612262 0.077819541 0.41392222
-0.12575318 0.077818967 0.41393739
-0.12537633 0.077813804 0.41392806
-0.12498765 0.07780125 0.41387945
-0.1246092 0.077794999 0.41386434
-0.12424284 0.077796295 0.41388941
-0.12385673 0.077785186 0.4138484
-0.12347189 0.077774808 0.4138113
-0.12308244 0.077761464 0.41375837
-0.12268026 0.077739969 0.41366205
-0.12230363 0.077734582 0.41365147
-0.12189247 0.077707157 0.4135235
-0.12150001 0.077691503 0.41345829
-0.12110273 0.07767269 0.41337612
-0.12071458 0.077659629 0.41332459
-0.12033499 0.077652007 0.41330197
-0.11989377 0.077604458 0.41306677
-0.11949586 0.077584721 0.41297966
-0.1190858 0.077556945 0.41284969
-0.11865292 0.077514112 0.41263953
-0.11824337 0.077486292 0.4125092
-0.11782123 0.077450022 0.41233394
-0.11742941 0.077433519 0.41226384
-0.11695021 0.077359103 0.41188538
-0.11654924 0.077336147 0.41178089
-0.11611824 0.077293061 0.41156909
-0.11567346 0.077240482 0.4113068
-0.11528986 0.077228561 0.41126093
-0.11481827 0.077157438 0.41089979
-0.11438826 0.077113882 0.41068536
-0.11397444 0.07708101 0.4105278
-0.11354045 0.077034242 0.4102962
-0.11310966 0.076989345 0.41007453
-0.11273051 0.076979414 0.4100391
-0.11232723 0.076952897 0.40991521
-0.11184847 0.076874338 0.4095141
-0.1114828 0.076873228 0.40952554
-0.11105894 0.076831862 0.40932244
-0.11069704 0.076833233 0.40934706
-0.11030514 0.07681372 0.40926033
-0.10991058 0.076792233 0.40916306
-0.10944459 0.076720521 0.4087981
-0.1090607 0.076706067 0.40873829
-0.10868002 0.076693788 0.40868995
-0.10828044 0.076668061 0.40856987
-0.10787589 0.076638609 0.40843001
-0.10748968 0.076622032 0.40835869
-0.10709151 0.076596811 0.40824121
-0.10663044 0.076526262 0.40788215
-0.10628483 0.076538369 0.40796363
-0.10591015 0.076529562 0.40793356
-0.10545614 0.076463178 0.40759656
-0.10503121 0.076417491 0.40736979
-0.10465428 0.076406546 0.40732819
-0.10426553 0.076386847 0.40723997
-0.10389142 0.076377772 0.40720826
-0.10354784 0.076391175 0.40729639
-0.10322223 0.07641796 0.40745583
-0.1028536 0.076412983 0.40744594
-0.10255712 0.076461755 0.40772256
-0.096881725 0.075986907 0.40541789
-0.096429281 0.075914048 0.40504509
-0.096044086 0.075893782 0.40495291
-0.095543437 0.075781792 0.4043712
-0.095165677 0.075766802 0.40430707
-0.094813325 0.075771987 0.40435055
-0.094396576 0.07572557 0.4041186
-0.094085857 0.075764172 0.4043403
-0.14419995 0.0794174 0.41961628
-0.14382756 0.079418443 0.41964042
-0.14345726 0.079420663 0.41967076
-0.14310919 0.079435229 0.41976634
-0.14262174 0.079372302 0.41945243
-0.1421766 0.079332657 0.41926152
-0.14183454 0.079350464 0.41937426
-0.14140068 0.079316869 0.41921532
-0.14094628 0.079271562 0.41899449
-0.14054349 0.079255097 0.41892603
-0.14010021 0.079215661 0.41873619
-0.13969781 0.07919918 0.41866767
-0.13930413 0.079187602 0.418625
-0.13876875 0.07909517 0.41815493
-0.13842322 0.079110734 0.41825581
-0.1379374 0.079046004 0.41793212
-0.1375806 0.079055056 0.41799855
-0.13712853 0.079009265 0.41777498
-0.13667309 0.07896129 0.41753981
-0.13627252 0.078944825 0.41747129
-0.13585679 0.07891947 0.41735572
-0.13541873 0.078880958 0.41717055
-0.13498122 0.078842558 0.41698599
-0.13463448 0.078857124 0.41708151
-0.13413087 0.078779623 0.41669005
-0.13378438 0.078794241 0.41678587
-0.1333897 0.07878048 0.41673151
-0.13297793 0.078756526 0.41662326
-0.13247615 0.078678966 0.41623139
-0.13207656 0.078661837 0.41615918
-0.13162215 0.078611866 0.41591319
-0.13125715 0.078615166 0.41594908
-0.13084905 0.078592606 0.41584811
-0.13044752 0.078573875 0.41576737
-0.13008155 0.078576505 0.41579962
-0.12959601 0.078506738 0.41544876
-0.12919506 0.078487955 0.41536769
-0.12873366 0.078432217 0.41509104
-0.12831904 0.078404762 0.41496402
-0.12788308 0.078364059 0.41476685
-0.1275117 0.078362808 0.41477847
-0.12709497 0.078333609 0.41464218
-0.12671147 0.07832478 0.41461366
-0.12630136 0.078299411 0.41449755
-0.12579472 0.078213863 0.41406286
-0.12540588 0.078201272 0.41401437
-0.12496632 0.078156874 0.4137975
-0.12456864 0.0781385 0.41371831
-0.12420605 0.078142099 0.41375548
-0.12381244 0.07812614 0.41368902
-0.12343775 0.07812205 0.41368544
-0.12303451 0.078099817 0.41358578
-0.12265339 0.078091539 0.41355997
-0.12226953 0.078081459 0.41352463
-0.12188135 0.078068554 0.41347429
-0.12147457 0.078043625 0.41336021
-0.12107221 0.078021385 0.4132604
-0.1206709 0.077999696 0.41316345
-0.12027449 0.07798104 0.41308254
-0.11987964 0.077963293 0.41300642
-0.1194502 0.077922881 0.41281021
-0.11905947 0.07790754 0.41274676
-0.11861409 0.077856235 0.41249278
-0.11820761 0.077830225 0.41237277
-0.11779984 0.077803202 0.41224736
-0.11738271 0.077769801 0.41208813
-0.11695558 0.07772956 0.41189262
-0.11653005 0.077690117 0.41170126
-0.11608738 0.077638984 0.41144794
-0.11570546 0.077628262 0.41140878
-0.11526363 0.077577166 0.41115552
-0.11481258 0.077519521 0.41086757
-0.11444687 0.077519305 0.41088396
-0.1139366 0.077420861 0.41037965
-0.11356784 0.077418253 0.41038331
-0.11314864 0.077381127 0.4102039
-0.11275729 0.077362873 0.41012457
-0.11238249 0.077355891 0.41010496
-0.1119484 0.077307925 0.40986797
-0.11152123 0.077264436 0.40965477
-0.11108981 0.077217706 0.40942428
-0.110736 0.077224799 0.40947911
-0.11036196 0.07721778 0.40945914
-0.1099627 0.077193007 0.409345
-0.10956516 0.077169299 0.4092364
-0.10912151 0.077112831 0.40895408
-0.10874125 0.077100933 0.4089081
-0.10831886 0.077058986 0.4087027
-0.10793022 0.077040866 0.40862361
-0.10752359 0.077009715 0.4084754
-0.10712008 0.076980598 0.40833792
-0.1067147 0.076949954 0.40819228
-0.10633405 0.076936975 0.40814036
-0.10599969 0.076957516 0.40826625
-0.10469284 0.076797187 0.40746596
-0.10430085 0.076775126 0.40736559
-0.10393573 0.076772735 0.40736964
-0.10356489 0.076766104 0.40735111
-0.10322319 0.076781102 0.40744734
-0.10287295 0.076789826 0.40751019
-0.10251585 0.076793477 0.40754613
-0.10225642 0.076870583 0.40797186
-0.096934147 0.076388605 0.40562466
-0.096466243 0.076303318 0.40518779
-0.096099958 0.076298088 0.40517589
-0.094819486 0.076136313 0.40436423
-0.094490916 0.076160759 0.40450978
-0.094196357 0.07621292 0.40480256
-0.0939219 0.076281793 0.40518406
-0.14353104 0.079836555 0.41987622
-0.14313307 0.079823487 0.41982606
-0.14268857 0.079784304 0.41963857
-0.14232381 0.079789616 0.41968516
-0.14187953 0.079750292 0.41949686
-0.1414018 0.079691879 0.4192082
-0.14098564 0.079667956 0.41910091
-0.14055508 0.079635747 0.41895011
-0.14016934 0.07962884 0.41893229
-0.13977657 0.079617873 0.41889319
-0.13932586 0.079573765 0.41867968
-0.13890721 0.079547785 0.41856152
-0.13850366 0.079530343 0.41848829
-0.13807099 0.079496019 0.4183262
-0.13768072 0.079485998 0.41829205
-0.13714351 0.079390861 0.4178099
-0.13673098 0.079367585 0.41770592
-0.13632634 0.079348765 0.41762537
-0.13594887 0.079345696 0.41762775
-0.13549565 0.079298303 0.41739672
-0.13510336 0.079286374 0.41735247
-0.13465066 0.079238862 0.41712078
-0.1342238 0.079206303 0.4169679
-0.13381715 0.079185538 0.41687703
-0.13347186 0.079201087 0.41697729
-0.13303982 0.079165071 0.41680613
-0.13262607 0.079139784 0.41669139
-0.13209365 0.079043351 0.41620207
-0.13169803 0.079028443 0.41614196
-0.13126363 0.078990132 0.41595855
-0.13089038 0.078988507 0.41596839
-0.13047431 0.078960963 0.41584164
-0.1301235 0.078972846 0.41592258
-0.12966423 0.078918807 0.4156563
-0.12925346 0.078894064 0.41554427
-0.12881559 0.078852579 0.41534406
-0.12841775 0.07883542 0.41527194
-0.12795803 0.078780092 0.41499871
-0.12759279 0.07878276 0.41503105
-0.12716709 0.078748018 0.41486621
-0.12677346 0.078732997 0.41480526
-0.12635465 0.078702174 0.41466111
-0.12593932 0.07867337 0.41452751
-0.12553576 0.078651749 0.41443172
-0.12501681 0.078557521 0.4139533
-0.12466912 0.078570649 0.41404063
-0.12425283 0.078540497 0.41389984
-0.12383839 0.078511342 0.41376424
-0.12338375 0.078456461 0.41349304
-0.12304471 0.078474969 0.41360861
-0.12262568 0.078442425 0.41345507
-0.12221437 0.078414619 0.41332653
-0.12181304 0.078393087 0.41323099
-0.12141755 0.07837519 0.4131546
-0.12102668 0.078360178 0.41309339
-0.12065358 0.078356616 0.41309252
-0.12023406 0.078322783 0.41293207
-0.11984696 0.078309938 0.41288221
-0.11945081 0.078291073 0.41280061
-0.11900371 0.078238614 0.41254178
-0.11858153 0.078202255 0.41236782
-0.11817781 0.078177884 0.41225711
-0.1177306 0.078124501 0.41199332
-0.1173315 0.078102812 0.41189665
-0.11693553 0.078083068 0.41181022
-0.11650122 0.078037523 0.41158766
-0.11610689 0.078018554 0.41150522
-0.11570194 0.077992313 0.4113844
-0.11525108 0.077934854 0.4110989
-0.11489396 0.077940628 0.41114691
-0.11446023 0.077894293 0.41092002
-0.11406017 0.077870667 0.41081282
-0.11360674 0.077810317 0.41051191
-0.11322205 0.077796824 0.41045812
-0.11280141 0.077758446 0.41027305
-0.11241769 0.077745371 0.4102214
-0.11206222 0.0777518 0.41027272
-0.11163002 0.077704862 0.41004232
-0.11122686 0.077677906 0.40991732
-0.11080807 0.077639818 0.40973359
-0.11043212 0.077631593 0.4097074
-0.1100131 0.077592924 0.40952054
-0.10959951 0.077557854 0.40935257
-0.1091442 0.077492937 0.40902701
-0.10878191 0.077493846 0.40904889
-0.10841352 0.077490397 0.40904775
-0.10804833 0.077489212 0.40905857
-0.10759857 0.077427171 0.40874803
-0.10718428 0.077390321 0.40857044
-0.10674412 0.077334478 0.40829253
-0.10634797 0.077310257 0.40818152
-0.10601567 0.077332444 0.40831551
-0.10563646 0.077320434 0.40826896
-0.10522034 0.077281244 0.40807876
-0.10471974 0.077179521 0.40755838
-0.10434128 0.077167422 0.40751117
-0.10396989 0.077160478 0.40749121
-0.10357126 0.077133209 0.4073638
-0.10322095 0.077141866 0.40742612
-0.10286752 0.077148229 0.40747631
-0.10252625 0.077163801 0.4075751
-0.10218201 0.077177234 0.40766254
-0.10186302 0.077209905 0.40785164
-0.096926853 0.076743409 0.4055815
-0.096498698 0.076689295 0.40531144
-0.096114196 0.076669604 0.40522328
-0.095690325 0.076618232 0.40496761
-0.095356137 0.076638557 0.40509087
-0.094881818 0.076545991 0.40461737
-0.094558544 0.076575033 0.40478662
-0.094224714 0.076595724 0.4049117
-0.093962207 0.076674767 0.40534517
-0.14315322 0.080209747 0.41987467
-0.14278409 0.080212779 0.41990906
-0.14239365 0.080203794 0.41988066
-0.14199381 0.080189474 0.41982421
-0.14157197 0.080162615 0.41970217
-0.14112572 0.080121748 0.41950682
-0.14069672 0.080090486 0.41936165
-0.14024782 0.080047712 0.41915625
-0.1398658 0.080042966 0.41914997
-0.13942869 0.080006599 0.41897807
-0.13896233 0.079953201 0.41871694
-0.13856947 0.079941928 0.41867644
-0.13808952 0.079880193 0.41837165
-0.1377469 0.079897799 0.41848236
-0.13302594 0.079528689 0.41675168
-0.13160408 0.079343088 0.4158341
-0.13129009 0.079377219 0.41603136
-0.13090369 0.07936766 0.41599956
-0.13052347 0.079361804 0.41598722
-0.13012578 0.079345256 0.4159188
-0.12973213 0.079331093 0.41586283
-0.12934181 0.079318881 0.41581711
-0.12896724 0.079316288 0.41582182
-0.12854165 0.079282209 0.41566139
-0.12802054 0.079188861 0.41519019
-0.12762912 0.079175405 0.41513792
-0.12713262 0.079096518 0.41474247
-0.12679003 0.079113208 0.41484812
-0.12641993 0.079112768 0.414864
-0.1260113 0.079088144 0.41475299
-0.12561187 0.079069167 0.41467163
-0.12513076 0.078998506 0.41431916
-0.12475304 0.078992903 0.41430789
-0.12430929 0.078945339 0.41407645
-0.12394749 0.078949682 0.41411731
-0.12351047 0.078906 0.41390622
-0.12308632 0.078870304 0.41373697
-0.12268384 0.07884831 0.41363961
-0.12228807 0.078830518 0.41356423
-0.12184128 0.07877963 0.41331521
-0.1214073 0.078736737 0.41310811
-0.12099995 0.078710914 0.41299051
-0.12061092 0.078696892 0.41293481
-0.12023983 0.078694522 0.4129402
-0.11981992 0.078660086 0.41277733
-0.11939787 0.07862404 0.412606
-0.11897168 0.078585014 0.41241902
-0.11859711 0.07857997 0.41241029
-0.11816489 0.07853657 0.41220021
-0.11777218 0.07851924 0.41212699
-0.11741233 0.078523785 0.41216856
-0.11696387 0.078468904 0.41189814
-0.11651053 0.078410409 0.4116087
-0.11612044 0.078394242 0.4115414
-0.11574642 0.07838884 0.41153064
-0.11532782 0.078353129 0.41136074
-0.11491519 0.078321256 0.41121092
-0.11452517 0.078304648 0.41114122
-0.11411586 0.078274705 0.41100144
-0.11369132 0.078234076 0.41080558
-0.11328351 0.078204744 0.41066894
-0.11286103 0.078165054 0.41047791
-0.11245095 0.078133732 0.41033077
-0.1120703 0.078122713 0.41029021
-0.11167045 0.0780982 0.41017878
-0.11128018 0.078080244 0.41010174
-0.1108829 0.078057244 0.40999818
-0.11042168 0.077988923 0.40965649
-0.11006211 0.077992193 0.40969086
-0.10964321 0.077953301 0.40950367
-0.10927484 0.077950187 0.40950441
-0.10880053 0.077871233 0.4091067
-0.10844672 0.077878281 0.40916076
-0.10805713 0.077859603 0.40907964
-0.10768492 0.077853367 0.40906382
-0.10723158 0.077788226 0.40873849
-0.10681922 0.077752478 0.40856758
-0.10641816 0.077724732 0.40843862
-0.10606008 0.077728301 0.40847424
-0.10564814 0.077692285 0.40830177
-0.10526331 0.077676028 0.40823308
-0.10480263 0.077603489 0.40786862
-0.10442492 0.077592112 0.40782547
-0.10403641 0.077572584 0.40773949
-0.10361262 0.077526532 0.40751407
-0.10324834 0.077524833 0.40752172
-0.10287663 0.077517547 0.40749994
-0.10252232 0.077523343 0.40754697
-0.10215932 0.077522598 0.40755954
-0.10181403 0.077535331 0.40764293
-0.10148791 0.077562824 0.40780386
-0.10121707 0.077632882 0.4081887
-0.09690994 0.077090509 0.40549809
-0.09653341 0.077077299 0.40544456
-0.096174814 0.077078387 0.40546614
-0.095760837 0.077034913 0.40525329
-0.095384188 0.077021271 0.40519729
-0.094944537 0.076956451 0.40487206
-0.094604701 0.076972343 0.40497139
-0.094283067 0.077003233 0.40514964
-0.14317442 0.080596745 0.41992649
-0.14282018 0.080608197 0.42000473
-0.14242557 0.080596887 0.41996428
-0.14206813 0.080606595 0.42003345
-0.141598 0.08055225 0.41976884
-0.14117076 0.080522083 0.41963014
-0.14076303 0.080502905 0.41954875
-0.14039837 0.080508322 0.41959551
-0.13987955 0.080425151 0.41918054
-0.13948296 0.080411978 0.41913044
-0.13906981 0.080389187 0.41903013
-0.13863333 0.080352731 0.41885862
-0.13822149 0.080330402 0.41876072
-0.13779949 0.08030203 0.41863135
-0.13127755 0.079740763 0.41598046
-0.13099578 0.079794861 0.41628104
-0.13056818 0.079760194 0.41611847
-0.13013156 0.079719812 0.41592607
-0.12976429 0.079721786 0.41595465
-0.12937956 0.079713032 0.4159272
-0.12901452 0.079716384 0.41596299
-0.12855671 0.079662278 0.41569889
-0.12817791 0.079656944 0.41568929
-0.12769811 0.079588637 0.415351
-0.12728341 0.07956063 0.41522303
-0.12689173 0.079546891 0.41516954
-0.12646127 0.079508685 0.41498825
-0.12604336 0.079478174 0.41484711
-0.1256385 0.079455726 0.4147481
-0.1252639 0.079452343 0.41474855
-0.12482816 0.079410061 0.41454589
-0.12441508 0.079381987 0.41441736
-0.12401202 0.079360142 0.41432139
-0.12357733 0.079317868 0.41411868
-0.12320855 0.079317778 0.41413623
-0.12271251 0.079235509 0.41372466
-0.12236682 0.079250127 0.41381893
-0.12191842 0.079198122 0.41356531
-0.12152706 0.079182953 0.41350397
-0.12107204 0.07912609 0.41322491
-0.12068649 0.079114422 0.41318184
-0.12029347 0.079097763 0.4131127
-0.11987168 0.079062052 0.41294396
-0.11945524 0.079029635 0.41279244
-0.11904546 0.079001449 0.41266298
-0.11860222 0.078950822 0.41241628
-0.11823957 0.078953676 0.41244891
-0.11783301 0.078927144 0.41232803
-0.11742955 0.078902543 0.41221714
-0.11703545 0.078884088 0.41213837
-0.11661568 0.078848153 0.41196826
-0.11616126 0.078788497 0.41167417
-0.11580309 0.078793958 0.41172025
-0.11537811 0.078753844 0.41152817
-0.11500494 0.078748956 0.41152015
-0.11464255 0.078751437 0.41155061
-0.11414831 0.078663081 0.41110629
-0.11374093 0.078634195 0.41097277
-0.11336576 0.078627475 0.41095504
-0.11293624 0.078582883 0.41073936
-0.11255315 0.078570433 0.41069159
-0.11213119 0.078530669 0.41050106
-0.11169659 0.078481756 0.41026267
-0.11132216 0.078474946 0.41024432
-0.11092351 0.078450963 0.41013613
-0.11052154 0.078424469 0.41001481
-0.11015488 0.078422941 0.41002399
-0.10967653 0.078341611 0.40961587
-0.10936037 0.078375995 0.40981272
-0.10882729 0.078254618 0.40919513
-0.10850796 0.078286633 0.40937957
-0.10808655 0.078244977 0.40917873
-0.10770701 0.078233458 0.40913543
-0.10730454 0.078205138 0.40900427
-0.10685639 0.078143232 0.4086974
-0.10649705 0.07814607 0.40872908
-0.10610311 0.07812345 0.40862757
-0.10572609 0.078113176 0.40859064
-0.10533998 0.078096099 0.40851808
-0.10491663 0.078051187 0.40829983
-0.1044883 0.078002244 0.40806052
-0.10407141 0.077961549 0.40786427
-0.10371754 0.077967934 0.40791428
-0.10329281 0.077920906 0.4076848
-0.10287575 0.077879369 0.40748399
-0.10251366 0.077879287 0.40750006
-0.1021566 0.077883042 0.40753615
-0.10180755 0.077892937 0.40760443
-0.10144939 0.077895924 0.40763646
-0.10112897 0.077928029 0.40782082
-0.10079624 0.077950813 0.40795642
-0.10048733 0.077992268 0.40818971
-0.098378837 0.077758379 0.40704647
-0.097977914 0.07772705 0.40689856
-0.097412735 0.077564694 0.40606466
-0.096933603 0.077469908 0.40558437
-0.096592233 0.077484936 0.4056789
-0.096193634 0.077453971 0.40553272
-0.095810063 0.077434942 0.40544888
-0.095395505 0.077390626 0.40523264
-0.095049113 0.077401474 0.40530521
-0.094670005 0.077385671 0.40523815
-0.094337866 0.077408291 0.40537229
-0.14280969 0.080977425 0.41996345
-0.14244473 0.080982886 0.4200103
-0.14206278 0.080978706 0.42000711
-0.14166112 0.080963217 0.41994533
-0.14125334 0.080944158 0.41986498
-0.14086623 0.080936879 0.41984573
-0.14037281 0.080868311 0.41950855
-0.13995142 0.080840968 0.41938522
-0.13958184 0.080843516 0.41941693
-0.13906854 0.080762587 0.41901556
-0.13872495 0.080780059 0.41912472
-0.13832664 0.080765672 0.41906855
-0.13785884 0.080710523 0.41880089
-0.13746506 0.080698535 0.41875711
-0.12978132 0.080103345 0.41599804
-0.12942277 0.080110781 0.41605487
-0.12904751 0.080107883 0.41605803
-0.12865354 0.080093309 0.41600057
-0.12825516 0.080075912 0.41592842
-0.12784143 0.0800488 0.41580582
-0.12731586 0.079951294 0.41531748
-0.12692216 0.079936281 0.41525763
-0.12656261 0.079942748 0.41530937
-0.12621078 0.07995414 0.41538668
-0.12571038 0.079871207 0.41497391
-0.12526096 0.079820275 0.41472736
-0.12485144 0.079794534 0.41461167
-0.12449478 0.079802528 0.41467127
-0.12400407 0.079724394 0.41428328
-0.12364954 0.079733588 0.41434905
-0.12326389 0.079722732 0.4143106
-0.12279779 0.079659626 0.41400054
-0.12236374 0.079616971 0.41379687
-0.12195144 0.079588279 0.41366562
-0.12152741 0.079551719 0.41349345
-0.12113029 0.079532601 0.41341197
-0.12075102 0.079525135 0.41339102
-0.12035231 0.079504773 0.41330302
-0.11989178 0.079443336 0.41300142
-0.11952813 0.079445906 0.41303256
-0.11914868 0.079437956 0.41300899
-0.11870881 0.079389557 0.41277507
-0.11834023 0.079388678 0.41278821
-0.11787906 0.079325482 0.41247728
-0.11745583 0.079287514 0.41229749
-0.11708016 0.079281501 0.41228387
-0.1167129 0.079281174 0.41229975
-0.11625881 0.079221673 0.4120079
-0.11583177 0.079180293 0.41181022
-0.11546448 0.079179615 0.41182423
-0.11504821 0.07914523 0.41166294
-0.11463277 0.079111218 0.41150349
-0.11419345 0.07906045 0.41125682
-0.11380734 0.079046316 0.41120067
-0.11340401 0.07902009 0.41108164
-0.11300323 0.078995474 0.41097096
-0.11263917 0.078996457 0.41099337
-0.11222018 0.07895878 0.41081464
-0.11182591 0.07893832 0.41072547
-0.11136424 0.078869998 0.41038719
-0.110942 0.078829236 0.41019231
-0.11059492 0.078841791 0.4102748
-0.11021923 0.07883396 0.41025123
-0.10981351 0.078804545 0.41011521
-0.10936218 0.078742072 0.40980718
-0.10895953 0.078714371 0.40968001
-0.10854957 0.078681171 0.40952423
-0.10816514 0.078666329 0.40946397
-0.10773189 0.078615747 0.40921763
-0.10740092 0.078639708 0.40935931
-0.1069262 0.078558236 0.40895206
-0.1065442 0.078544557 0.40889767
-0.10614556 0.078518473 0.40877867
-0.10574463 0.078490511 0.40864986
-0.10535545 0.078471094 0.40856555
-0.1049455 0.078436032 0.40839973
-0.10453945 0.078403667 0.40824783
-0.10413249 0.078370385 0.40809116
-0.10376462 0.078366376 0.40808693
-0.10331689 0.078301825 0.4077673
-0.10299607 0.078333348 0.40794796
-0.1025156 0.078243248 0.4074952
-0.10214619 0.078237556 0.40748203
-0.10179764 0.078247875 0.40755215
-0.10143226 0.078245282 0.40755504
-0.10108698 0.078258224 0.40763882
-0.10071187 0.078248084 0.40760234
-0.10033834 0.078239113 0.40757188
-0.099958673 0.078225262 0.407516
-0.09960217 0.078229524 0.40755436
-0.099156268 0.078163326 0.40722564
-0.098732352 0.078114048 0.40698504
-0.098344617 0.078093134 0.40689215
-0.097952865 0.07806886 0.40678176
-0.097358786 0.077882566 0.40582702
-0.096989773 0.077875592 0.40580663
-0.096625969 0.077872768 0.40580776
-0.09623941 0.077851512 0.4057129
-0.09584789 0.077826075 0.40559617
-0.095482074 0.077821389 0.40558749
-0.095109329 0.077811003 0.40554914
-0.094759539 0.077819392 0.40560853
-0.094396539 0.077816956 0.40561149
-0.14247501 0.081375338 0.42008898
-0.14211389 0.081383109 0.42014763
-0.14173999 0.081383578 0.42016852
-0.141314 0.081354067 0.42003465
-0.14090955 0.081336826 0.41996413
-0.14047536 0.081302278 0.41980428
-0.14011271 0.08130908 0.41985789
-0.13958447 0.081219561 0.41941407
-0.13925061 0.081242941 0.41955334
-0.13872494 0.081154272 0.4191139
-0.13838132 0.081171893 0.41922334
-0.137941 0.081132755 0.41903967
-0.13751927 0.081104346 0.41891137
-0.13712618 0.08109273 0.41886982
-0.1366922 0.081056811 0.41870269
-0.13632636 0.081061177 0.41874373
-0.13592134 0.081042252 0.41866437
-0.13567296 0.081116855 0.41906822
-0.13533325 0.081137106 0.4191913
-0.12908544 0.080502629 0.41616893
-0.12870699 0.080497779 0.41616204
-0.12830299 0.08047688 0.41607216
-0.12785497 0.080428153 0.41583842
-0.12743866 0.080399163 0.41570666
-0.1270269 0.08037287 0.41558886
-0.12660325 0.08033888 0.41543123
-0.12615961 0.080291979 0.41520679
-0.12576213 0.080274254 0.41513321
-0.12530909 0.080220863 0.41487515
-0.12493896 0.080220401 0.41489074
-0.12457287 0.080222525 0.41491979
-0.12413129 0.080175914 0.41469669
-0.12372684 0.080153055 0.41459647
-0.12329406 0.080111675 0.41440037
-0.12285332 0.080064848 0.41417611
-0.12250356 0.080077223 0.41425803
-0.12206754 0.080033109 0.41404772
-0.12164866 0.079999998 0.4138943
-0.12124293 0.079975367 0.41378474
-0.12085392 0.079961643 0.41373155
-0.12034164 0.079866022 0.41325462
-0.11992691 0.079834759 0.41311061
-0.11963759 0.079887055 0.41339898
-0.11918222 0.079828441 0.41311342
-0.11875642 0.07978934 0.41292873
-0.11838962 0.079789758 0.41294858
-0.11792971 0.079727218 0.4126426
-0.11755314 0.079720818 0.4126271
-0.11712799 0.079681337 0.41244036
-0.11674588 0.079670966 0.4124043
-0.11631598 0.079627819 0.41219851
-0.11592891 0.079613812 0.41214356
-0.11551797 0.07958328 0.41200295
-0.11506689 0.079524815 0.41171774
-0.11467512 0.079507083 0.41164342
-0.11429522 0.079497509 0.41161123
-0.11388623 0.079467565 0.4114736
-0.11343805 0.079409987 0.41119283
-0.11305939 0.079400882 0.41116303
-0.11265012 0.079370134 0.41102108
-0.11225269 0.079347573 0.41092154
-0.11184939 0.079320684 0.41079953
-0.11143804 0.079287894 0.41064692
-0.11106537 0.079282507 0.41063622
-0.11062566 0.079229072 0.41037661
-0.11027359 0.079238251 0.41044128
-0.10984153 0.07918983 0.41020754
-0.1094172 0.079146676 0.41000107
-0.10907172 0.079160452 0.41008946
-0.10859543 0.079079077 0.4096849
-0.10824636 0.079090111 0.40975901
-0.10783757 0.079057425 0.40960664
-0.10739307 0.07899826 0.40931696
-0.10701222 0.078985661 0.40926859
-0.10659122 0.07894326 0.40906566
-0.10620817 0.078928761 0.40900731
-0.10579132 0.078888953 0.4088178
-0.10542224 0.078884631 0.40881211
-0.10502471 0.078858897 0.40869546
-0.10459594 0.078809455 0.40845591
-0.10419319 0.078779355 0.40831649
-0.10376871 0.078732558 0.40809047
-0.1034319 0.07875216 0.40820864
-0.10304779 0.078735776 0.40814027
-0.10263787 0.078699484 0.40796861
-0.10214126 0.078596227 0.40744978
-0.10176208 0.078582928 0.40739715
-0.10141598 0.078595169 0.40747699
-0.10105246 0.078593925 0.40748692
-0.10071579 0.078613661 0.4076055
-0.10033117 0.078595966 0.40753004
-0.099910758 0.078550003 0.40730792
-0.099534228 0.078538328 0.40726358
-0.099136777 0.078510009 0.40713283
-0.098731078 0.078474924 0.40696701
-0.098320208 0.078435451 0.40677837
-0.097941071 0.078421101 0.40671998
-0.097442418 0.078310601 0.4061628
-0.097047046 0.07828258 0.40603343
-0.096678093 0.07827574 0.40601385
-0.096314497 0.078273214 0.40601656
-0.095894679 0.078224801 0.40578124
-0.095514268 0.078208283 0.40571135
-0.095109574 0.0781717 0.40553725
-0.094814613 0.078225367 0.40583137
-0.14213258 0.081769131 0.42019224
-0.14173284 0.081754737 0.42013672
-0.14135443 0.081752583 0.42014414
-0.14097761 0.081751339 0.42015624
-0.14058796 0.081742644 0.42013001
-0.14011814 0.081687175 0.41986334
-0.13967326 0.081645973 0.41967005
-0.13926291 0.081624791 0.41957963
-0.13888611 0.081623204 0.41958994
-0.13837202 0.081540719 0.41918436
-0.1379566 0.08151608 0.41907614
-0.13755034 0.081496753 0.41899511
-0.13711008 0.081457093 0.41880965
-0.1367912 0.081489548 0.41899493
-0.13641535 0.08148814 0.41900611
-0.13604032 0.081487224 0.41901982
-0.1357028 0.081508823 0.41914931
-0.13539964 0.081551246 0.41938588
-0.12873928 0.080889277 0.41625506
-0.12832007 0.080858745 0.41611612
-0.12788683 0.08081916 0.41593057
-0.12748562 0.080799662 0.41584831
-0.12710139 0.080790833 0.41582105
-0.12662484 0.080723114 0.41549054
-0.12627017 0.080732927 0.41555914
-0.12585492 0.080703937 0.41542795
-0.12535895 0.080622859 0.41502866
-0.12500776 0.080634698 0.41510764
-0.12460995 0.080616437 0.41503164
-0.1241846 0.080580205 0.41486311
-0.12375715 0.080542393 0.41468641
-0.12335126 0.080518425 0.41458091
-0.12296533 0.080507383 0.41454199
-0.12252561 0.080460966 0.41432086
-0.12219978 0.080489263 0.4144845
-0.12170569 0.080406576 0.41407654
-0.12129461 0.080378406 0.41394925
-0.12093952 0.080387264 0.41401276
-0.1204897 0.080333032 0.41375118
-0.12002711 0.080269918 0.41344392
-0.11963974 0.080256872 0.41339448
-0.11924645 0.080239765 0.41332409
-0.11878996 0.080179915 0.41303346
-0.11842655 0.080182694 0.41306543
-0.11798228 0.080130577 0.41281462
-0.11762957 0.080140509 0.4128834
-0.11718542 0.080088019 0.41263056
-0.1167817 0.080062918 0.4125188
-0.11635023 0.08001858 0.41230786
-0.11599696 0.080027901 0.41237342
-0.11557556 0.079990134 0.41219631
-0.11515626 0.079953581 0.41202539
-0.11470509 0.079894602 0.4117389
-0.11430812 0.079873115 0.41164553
-0.1139548 0.079882078 0.41170916
-0.11352741 0.079839028 0.4115046
-0.11311236 0.079804398 0.41134343
-0.11269399 0.079767197 0.41116893
-0.11232309 0.079763465 0.411167
-0.11190028 0.079722717 0.41097414
-0.11147773 0.079681896 0.41078091
-0.11112244 0.079689041 0.41083494
-0.11072999 0.079669498 0.41075131
-0.11029539 0.079619393 0.41051009
-0.10987975 0.079582684 0.41033795
-0.10953271 0.079595596 0.41042155
-0.10908224 0.079533182 0.4101167
-0.10864716 0.079481594 0.40986767
-0.10829493 0.079490475 0.40993047
-0.10793335 0.079492532 0.40995798
-0.10744642 0.079401985 0.40950787
-0.10706094 0.079386033 0.40944245
-0.10667105 0.079366691 0.40935951
-0.10626332 0.079333916 0.40920722
-0.10585687 0.079301849 0.4090586
-0.10547321 0.079286717 0.40899724
-0.10507773 0.079262547 0.40888926
-0.10462838 0.079197451 0.40857005
-0.10423629 0.079175375 0.40847278
-0.10382956 0.079141989 0.40831712
-0.1034641 0.079139963 0.40832311
-0.1031396 0.07916934 0.40849125
-0.10267851 0.079093702 0.40811744
-0.10221528 0.079015903 0.4077324
-0.10181925 0.078989662 0.40761334
-0.10144397 0.078979395 0.40757671
-0.10107532 0.07897424 0.40756643
-0.10066321 0.078934968 0.40738001
-0.10029409 0.078929231 0.40736663
-0.09988486 0.078891777 0.40718955
-0.09953399 0.078900322 0.40724981
-0.099128164 0.078865215 0.40708467
-0.09873078 0.078836575 0.40695298
-0.098366313 0.078834116 0.40695629
-0.097956888 0.07879547 0.40677282
-0.097547717 0.078756742 0.40658882
-0.097087868 0.078676671 0.40619138
-0.096753113 0.078697748 0.40631604
-0.096363723 0.078674369 0.4062112
-0.095937036 0.078620248 0.40594757
-0.095650077 0.078680672 0.40627533
-0.14166656 0.082091592 0.41992956
-0.1413774 0.082141191 0.42020175
-0.14101033 0.082145654 0.42024305
-0.14062814 0.082141332 0.42023939
-0.14023905 0.082132928 0.42021483
-0.13976973 0.082077384 0.41994908
-0.13934314 0.082046695 0.4198105
-0.13892475 0.082020685 0.41969579
-0.13852228 0.082003959 0.41962865
-0.13815841 0.082010046 0.41967824
-0.13757427 0.081885055 0.41905704
-0.13716657 0.081864722 0.41897133
-0.13680825 0.081873789 0.41903612
-0.13643612 0.081874646 0.41905892
-0.13608231 0.081886522 0.41913807
-0.13574056 0.081905738 0.41925484
-0.13549389 0.081982605 0.41966668
-0.1284204 0.081293404 0.41643
-0.12797426 0.081245646 0.41620344
-0.1275904 0.081237249 0.41617858
-0.12712659 0.081177779 0.41589198
-0.12673831 0.081166312 0.41585132
-0.12635145 0.081155688 0.41581494
-0.12595867 0.081141204 0.41575876
-0.12551293 0.081092417 0.41552681
-0.12509418 0.081060812 0.41538289
-0.12466107 0.081019707 0.41519022
-0.12424164 0.080987267 0.41504192
-0.12386988 0.080985807 0.41505244
-0.12339601 0.080917373 0.41471961
-0.12300937 0.080905899 0.41467872
-0.1226154 0.080889516 0.41461268
-0.12221403 0.080868155 0.41452104
-0.12178656 0.080829337 0.4143399
-0.12133478 0.080774091 0.41407448
-0.12095831 0.080768816 0.41406521
-0.12053433 0.080731675 0.41389257
-0.12010683 0.080691941 0.41370663
-0.11969966 0.080665648 0.41358957
-0.1192848 0.08063402 0.41344506
-0.11893992 0.080649637 0.41354284
-0.11849077 0.080594428 0.41327745
-0.11804752 0.080542907 0.41303086
-0.1176808 0.080543444 0.41305119
-0.11723734 0.080491297 0.41280133
-0.11688281 0.080500059 0.41286385
-0.11643862 0.080446951 0.41260901
-0.11602857 0.080417164 0.41247371
-0.11566768 0.080421358 0.41251269
-0.11520775 0.080356508 0.41219747
-0.11489594 0.080394879 0.41241178
-0.11439898 0.080303527 0.41196054
-0.11394306 0.080240488 0.4116545
-0.11357158 0.080236718 0.41165251
-0.11317126 0.080212466 0.41154537
-0.11278286 0.080196545 0.41148096
-0.1123919 0.080178685 0.41140658
-0.11199696 0.080157861 0.41131693
-0.11156806 0.080112524 0.41110146
-0.11119033 0.08010374 0.41107354
-0.11074061 0.080042869 0.41077831
-0.11031325 0.079997823 0.41056421
-0.10995036 0.079999372 0.41058925
-0.10950184 0.079938427 0.41029343
-0.10914634 0.079945199 0.41034523
-0.10873577 0.079911552 0.41018948
-0.10837302 0.079912938 0.41021356
-0.10794612 0.079866879 0.40999401
-0.10748504 0.079795137 0.40964255
-0.10713196 0.079803348 0.40970153
-0.10677133 0.07980597 0.40973181
-0.10634151 0.079756729 0.4094958
-0.10593364 0.079723656 0.40934271
-0.10556116 0.079717077 0.40932566
-0.10514427 0.079676822 0.40913558
-0.10468475 0.079603851 0.40877753
-0.1042843 0.079575457 0.40864828
-0.10388714 0.079549387 0.40853095
-0.1035362 0.079558648 0.40859503
-0.10316122 0.079549424 0.40856418
-0.102736 0.079501271 0.4083333
-0.10235979 0.07949084 0.40829611
-0.10189989 0.079415105 0.40792349
-0.101496 0.079382636 0.40777305
-0.1011254 0.079376057 0.40775555
-0.10074784 0.079363964 0.40770969
-0.10034544 0.079332143 0.40756243
-0.099942483 0.079299644 0.40741166
-0.099533066 0.079261772 0.40723321
-0.099140026 0.079236709 0.40712056
-0.098759457 0.079221472 0.40705833
-0.098374292 0.079202414 0.40697643
-0.097995415 0.079188302 0.4069199
-0.097578593 0.079143308 0.40670466
-0.097181715 0.079114228 0.40657109
-0.096765518 0.079069138 0.4063552
-0.096373804 0.079043776 0.40624073
-0.095995992 0.079029694 0.40618411
-0.095747821 0.079122625 0.40667748
-0.095449589 0.079174735 0.40696108
-0.1414026 0.082531199 0.42026588
-0.14106503 0.082553007 0.42039531
-0.14061253 0.082507484 0.42018196
-0.14024343 0.082510784 0.42021716
-0.1398263 0.082485773 0.4201082
-0.13940623 0.082458891 0.41998971
-0.13894282 0.082406156 0.41973951
-0.13855401 0.082397498 0.4197138
-0.13812974 0.082367659 0.41958019
-0.13772328 0.082348302 0.41949996
-0.13725498 0.082291774 0.41923034
-0.13684765 0.082271568 0.41914582
-0.13645989 0.082263067 0.41912085
-0.13611498 0.082280435 0.41922769
-0.13577013 0.082297899 0.41933501
-0.13552114 0.082373746 0.41973993
-0.12848836 0.081708059 0.41663882
-0.12804323 0.081660859 0.41641623
-0.12766643 0.081657074 0.41641504
-0.1272864 0.081651203 0.41640317
-0.1268445 0.081605494 0.41618812
-0.12641889 0.081570029 0.41602531
-0.12600568 0.08154238 0.41590232
-0.12555282 0.081488833 0.41564718
-0.12518209 0.081488431 0.41566315
-0.12473317 0.081436977 0.41541865
-0.12436928 0.081440888 0.41545656
-0.12389464 0.081372097 0.41512358
-0.12348709 0.081347093 0.41501388
-0.12302646 0.081286862 0.41472453
-0.12268481 0.081305131 0.41483557
-0.12228871 0.081287302 0.41476244
-0.12189608 0.081271686 0.4147006
-0.12148969 0.081246763 0.41459125
-0.12100243 0.081167452 0.41420433
-0.12061581 0.081155367 0.4141604
-0.12018899 0.08111608 0.41397762
-0.11981687 0.081113577 0.4139826
-0.1193847 0.081070289 0.41377935
-0.11898468 0.081048638 0.41368648
-0.11851114 0.080976605 0.41333646
-0.11809684 0.080944732 0.41319138
-0.11773482 0.080948606 0.41322872
-0.11734077 0.080930412 0.41315341
-0.1169226 0.080895424 0.41299233
-0.11654889 0.080891058 0.41298759
-0.11612704 0.080853172 0.41281161
-0.11569836 0.080810249 0.41260993
-0.11527475 0.080770619 0.41242501
-0.11491016 0.080772214 0.41245055
-0.114457 0.08071138 0.4121573
-0.11404072 0.080676228 0.41199511
-0.11361558 0.080634572 0.4117997
-0.11323494 0.08062432 0.41176465
-0.11284208 0.080605283 0.41168469
-0.11247121 0.080601878 0.41168451
-0.11203066 0.080548361 0.41142836
-0.11159218 0.080495968 0.41117793
-0.11122503 0.080494873 0.4111895
-0.11082812 0.080472156 0.41109052
-0.1104078 0.080432236 0.41090369
-0.110011 0.080409229 0.4108032
-0.10959624 0.080372922 0.41063473
-0.10921381 0.080360137 0.41058639
-0.10879679 0.080321752 0.41040722
-0.10839127 0.080291629 0.41027018
-0.10799847 0.08027073 0.4101803
-0.1075795 0.080230191 0.40999001
-0.10717209 0.08019802 0.40984243
-0.10676512 0.08016596 0.40969542
-0.10636968 0.080142386 0.40959165
-0.10597483 0.080119081 0.40948924
-0.10562008 0.08012604 0.40954152
-0.10518397 0.080071107 0.40927738
-0.10485409 0.080096953 0.40942615
-0.10435619 0.079994179 0.40891737
-0.10394418 0.079956748 0.40874255
-0.1035476 0.079930969 0.40862727
-0.10316875 0.07991875 0.40858123
-0.10276098 0.079883955 0.40841979
-0.10239194 0.079879135 0.40841153
-0.10196818 0.079831444 0.40818408
-0.10154159 0.079781182 0.4079434
-0.10120367 0.079800494 0.40805838
-0.10081141 0.079776913 0.4079541
-0.10042263 0.079755954 0.40786311
-0.10000262 0.07970994 0.40764394
-0.099553533 0.079640329 0.40730408
-0.099194981 0.079642899 0.40733334
-0.098808564 0.079623036 0.40724781
-0.098422825 0.079603583 0.40716431
-0.09804929 0.079593889 0.40713072
-0.097632699 0.079549044 0.40691721
-0.097249672 0.079531305 0.40684238
-0.096843109 0.079494126 0.40666804
-0.096408561 0.079433613 0.40637428
-0.096128538 0.079500437 0.4067319
-0.095741808 0.079479173 0.40663889
-0.1402754 0.082904965 0.42030209
-0.13986228 0.082882278 0.42020544
-0.13950154 0.082890578 0.42026594
-0.13908221 0.082864024 0.42014965
-0.13868898 0.082852915 0.42011172
-0.13822769 0.082800969 0.41986674
-0.13781697 0.082779139 0.41977435
-0.13736209 0.082730569 0.41954643
-0.13699149 0.082732633 0.41957527
-0.1365272 0.082677983 0.41931647
-0.13613673 0.082667857 0.41928342
-0.1358072 0.082694791 0.41943839
-0.13555373 0.082768314 0.41982961
-0.13523525 0.08280243 0.42002106
-0.12857051 0.082132198 0.41689372
-0.12816563 0.08211071 0.41680273
-0.12775052 0.08208251 0.41667771
-0.12724955 0.081998855 0.41627106
-0.12685929 0.081986234 0.41622505
-0.12649202 0.081988446 0.41625431
-0.12602577 0.081926331 0.41595691
-0.12559804 0.081888951 0.41578516
-0.12525524 0.081906915 0.4158943
-0.12481275 0.081859581 0.41567194
-0.12441681 0.081842609 0.41560364
-0.12393616 0.081769615 0.41525093
-0.12350269 0.081727423 0.41505453
-0.12315378 0.081741102 0.41514188
-0.1227394 0.081711277 0.41500828
-0.12232406 0.081680641 0.41487044
-0.12194145 0.08167173 0.41484302
-0.12150939 0.081629552 0.41464657
-0.12112655 0.081620276 0.41461724
-0.12065218 0.081549086 0.41427332
-0.12024644 0.081523985 0.4141635
-0.11983427 0.081494361 0.41403073
-0.11946005 0.081490442 0.41402847
-0.119082 0.081483871 0.41401276
-0.11858458 0.081395335 0.41358051
-0.1181927 0.081378914 0.41351467
-0.11781756 0.081373952 0.41350701
-0.11740983 0.081346378 0.41338447
-0.11696918 0.081295744 0.41314468
-0.11654542 0.081256583 0.41296312
-0.11614276 0.081231922 0.41285527
-0.11574549 0.081210881 0.4127658
-0.11533529 0.081180617 0.41262937
-0.114958 0.08117339 0.41261002
-0.1145534 0.081146777 0.4124921
-0.11415712 0.081125908 0.41240335
-0.11374705 0.08109507 0.41226393
-0.11329573 0.081034526 0.41197336
-0.11286809 0.080990583 0.41176724
-0.11249425 0.080985092 0.41175655
-0.11205652 0.080933422 0.41151097
-0.11169131 0.080933951 0.41153085
-0.11125083 0.08087977 0.41127244
-0.11088265 0.080877967 0.41128039
-0.11045364 0.080831617 0.41106176
-0.11003063 0.080789395 0.41086406
-0.10968385 0.080803037 0.41095045
-0.10922775 0.080735967 0.41062632
-0.1088715 0.080742508 0.41067648
-0.108459 0.08070723 0.41051394
-0.10806954 0.080688909 0.41043767
-0.10766124 0.080656357 0.4102889
-0.1072799 0.080643848 0.41024211
-0.10690636 0.080637157 0.4102248
-0.10641921 0.080544405 0.40976968
-0.10604655 0.080537982 0.40975371
-0.10562143 0.080491528 0.40953407
-0.10522094 0.080463603 0.40940857
-0.10486452 0.080469295 0.40945414
-0.10444878 0.08042933 0.4092674
-0.10399435 0.080359198 0.40892705
-0.10366976 0.080389284 0.40909663
-0.10318701 0.080296487 0.4086408
-0.10284843 0.080315612 0.40875459
-0.10246601 0.08030054 0.40869421
-0.10203773 0.080249257 0.40844962
-0.10164935 0.080229126 0.40836346
-0.10123575 0.080188878 0.40817487
-0.1008337 0.080157526 0.40803146
-0.1004805 0.080164909 0.40808526
-0.10003699 0.08010003 0.40777114
-0.099625818 0.080060668 0.40758687
-0.09924157 0.080042742 0.40751168
-0.098884925 0.080047026 0.40754956
-0.09848386 0.080015257 0.4074038
-0.098090187 0.079989284 0.40728751
-0.097696841 0.079963379 0.40717152
-0.097304724 0.0799383 0.4070597
-0.09690778 0.079909042 0.40692654
-0.096492648 0.079864524 0.40671563
-0.096182361 0.079906769 0.40694657
-0.0958542 0.079934433 0.40710318
-0.13991454 0.08328864 0.42035148
-0.13958471 0.083315514 0.42050546
-0.13910893 0.083255194 0.42021939
-0.13870469 0.083237469 0.42014828
-0.13830602 0.083223008 0.4200936
-0.13792764 0.083220713 0.42010033
-0.13739042 0.083122298 0.41962191
-0.13698339 0.083102331 0.41953942
-0.13654582 0.08306367 0.41936255
-0.13617016 0.083062559 0.41937527
-0.13592196 0.083139412 0.41978163
-0.13558982 0.083165213 0.41993025
-0.1352493 0.083185986 0.42005345
-0.1349522 0.083233684 0.42031258
-0.1285848 0.082513243 0.41692844
-0.12819932 0.082504168 0.41690063
-0.12775521 0.0824572 0.41668138
-0.12731828 0.082414612 0.41648418
-0.12696926 0.08242885 0.41657412
-0.12652388 0.082380429 0.41634747
-0.12613416 0.082368061 0.41630295
-0.12568852 0.082318999 0.41607296
-0.12522075 0.08225511 0.41576797
-0.12485324 0.082256906 0.41579494
-0.12447058 0.082248703 0.41577139
-0.12407073 0.082229041 0.41568995
-0.12361337 0.082171053 0.41541463
-0.12320749 0.082147025 0.41531107
-0.12277802 0.082107089 0.41512695
-0.12237532 0.082084864 0.41503239
-0.12195835 0.082052894 0.41488856
-0.12158372 0.082049318 0.4148882
-0.12114821 0.082004517 0.41467941
-0.12074503 0.081981361 0.41458008
-0.12030911 0.081935801 0.41436735
-0.11991683 0.081919752 0.4143039
-0.1195169 0.081898384 0.41421345
-0.11907549 0.081848361 0.41397807
-0.11865491 0.081812389 0.41381368
-0.11824566 0.08178401 0.41368777
-0.11788131 0.08178664 0.41371861
-0.11745536 0.081746392 0.41353256
-0.1170117 0.081693538 0.41328269
-0.11663159 0.08168485 0.41325623
-0.11623015 0.081661142 0.41315368
-0.11580477 0.081620388 0.41296494
-0.11537289 0.081574775 0.41275156
-0.11498738 0.081561789 0.41270322
-0.11463121 0.081569575 0.41275996
-0.11420339 0.081526265 0.41255814
-0.11379404 0.081495926 0.41242188
-0.11338919 0.081468597 0.41230085
-0.11297674 0.081435621 0.41215122
-0.1125934 0.081423484 0.41210696
-0.11215679 0.081372626 0.41186675
-0.11172578 0.081325509 0.41164538
-0.11133426 0.081306905 0.41156837
-0.11090143 0.081257932 0.41133752
-0.11055012 0.081268556 0.41140833
-0.11009604 0.081203453 0.41109577
-0.10965656 0.081148721 0.41083565
-0.10928167 0.081141569 0.41081643
-0.10890765 0.081135035 0.41080022
-0.10846972 0.081080683 0.41054192
-0.10811488 0.081088282 0.41059726
-0.10768342 0.081038259 0.41036081
-0.10730055 0.081024602 0.41030845
-0.10688027 0.080982506 0.41011199
-0.10644984 0.080932394 0.40987495
-0.10605787 0.080911286 0.40978473
-0.10568163 0.080902085 0.40975475
-0.10528196 0.080874808 0.40963325
-0.10491422 0.080871955 0.40963537
-0.10451435 0.080844238 0.40951154
-0.10410447 0.080808565 0.40934733
-0.10371937 0.080791913 0.40927953
-0.10327252 0.080726914 0.40896663
-0.10286287 0.080690622 0.40879917
-0.10251604 0.080703512 0.40888089
-0.10205303 0.080624722 0.40849802
-0.10169531 0.080628842 0.40853518
-0.10131068 0.080611594 0.40846401
-0.10094676 0.080610767 0.40847602
-0.10056772 0.080597803 0.40842652
-0.10008405 0.08050058 0.40795001
-0.099720962 0.080499999 0.40796316
-0.099292554 0.080446489 0.40770808
-0.098890886 0.08041434 0.40756112
-0.098524839 0.080411024 0.40756032
-0.098130547 0.080384538 0.40744203
-0.097734623 0.080356523 0.40731591
-0.097357295 0.080343649 0.40726653
-0.096964493 0.080317862 0.40715164
-0.096578792 0.080297776 0.4070656
-0.096284136 0.080353521 0.40736401
-0.095951155 0.080377601 0.40750179
-0.13952644 0.083656125 0.42031899
-0.13910483 0.083627984 0.42019597
-0.13881007 0.083676189 0.42045644
-0.13837638 0.083640665 0.42029628
-0.13790148 0.083579965 0.42000958
-0.1375486 0.083593093 0.42009386
-0.13709487 0.083544828 0.41986966
-0.13668798 0.083524935 0.41978797
-0.13622893 0.083472967 0.41954511
-0.13594253 0.083526805 0.41983396
-0.13559304 0.083542056 0.41992894
-0.13526472 0.08357048 0.42009008
-0.13492562 0.083592363 0.42021841
-0.13458148 0.083611257 0.42033169
-0.13419546 0.083604164 0.42031434
-0.12868603 0.082950406 0.41724497
-0.12827176 0.082922883 0.41712457
-0.12781379 0.082866855 0.41686076
-0.1274038 0.082841702 0.41675225
-0.12699519 0.082817309 0.41664752
-0.12657784 0.082787044 0.41651323
-0.12618008 0.082769446 0.41644269
-0.12576054 0.082737431 0.41629958
-0.12530866 0.082683891 0.41604811
-0.12495294 0.082693659 0.41611513
-0.1245196 0.082651965 0.41592324
-0.12410611 0.082623251 0.41579664
-0.12373856 0.082625031 0.41582346
-0.12280928 0.082498185 0.41522071
-0.12242266 0.082486756 0.41518098
-0.12202357 0.082466826 0.41509846
-0.12164964 0.082463846 0.41510117
-0.12122794 0.082428351 0.41494024
-0.12077017 0.082368046 0.41465437
-0.12035313 0.082335234 0.41450685
-0.11992268 0.082293019 0.41431198
-0.11955789 0.082295746 0.41434336
-0.11918356 0.082291901 0.41434163
-0.11872111 0.082226999 0.4140324
-0.11825728 0.082160734 0.41371629
-0.11791925 0.082181729 0.41383958
-0.11750976 0.082152896 0.41371185
-0.11705999 0.082095638 0.41344097
-0.11669859 0.08210019 0.41348135
-0.11626136 0.08205124 0.41325229
-0.1158812 0.082042404 0.4132252
-0.11543255 0.081984863 0.41295272
-0.11501507 0.08194916 0.41279024
-0.11464795 0.081949219 0.41280788
-0.11423549 0.081916764 0.4126617
-0.11382334 0.081884347 0.41251561
-0.11344165 0.081873685 0.41247919
-0.11304609 0.081852928 0.41239181
-0.11261978 0.08180967 0.41219106
-0.11222184 0.081786826 0.41209313
-0.1117657 0.081721276 0.41177997
-0.11136562 0.081696413 0.41167176
-0.11096212 0.081668884 0.41155007
-0.11061091 0.081679769 0.41162202
-0.11021131 0.081654891 0.41151363
-0.10892436 0.081513278 0.41085067
-0.10855784 0.081512339 0.41086283
-0.1081306 0.081465647 0.41064432
-0.10780142 0.081492752 0.4107978
-0.10734554 0.081423961 0.41046777
-0.1069628 0.081410356 0.41041595
-0.10655817 0.081379935 0.4102793
-0.10615355 0.081349328 0.41014168
-0.10567188 0.081259258 0.40970415
-0.10538075 0.081315599 0.41000485
-0.10492632 0.081245862 0.40966979
-0.10456933 0.081251383 0.40971413
-0.10414428 0.081203856 0.409491
-0.10375351 0.081182815 0.40940136
-0.1032975 0.08111041 0.40905267
-0.10294816 0.081121542 0.40912521
-0.1025662 0.081106961 0.40906802
-0.10215748 0.081071034 0.40890318
-0.10174312 0.081030384 0.40871435
-0.10137322 0.081024952 0.40870321
-0.10097203 0.080994383 0.40856525
-0.10060383 0.080990165 0.40856016
-0.099725612 0.080866635 0.40796918
-0.099323407 0.08083424 0.40782174
-0.098939396 0.080816448 0.40774801
-0.098553076 0.080796644 0.40766406
-0.098177679 0.080785677 0.40762466
-0.097784884 0.080760263 0.40751234
-0.097395837 0.080737762 0.40741464
-0.09699066 0.080701694 0.40724841
-0.096650042 0.08071924 0.40735278
-0.096365847 0.080784246 0.40769657
-0.13876973 0.084027231 0.42032319
-0.13848287 0.084080614 0.42060858
-0.13795042 0.083984792 0.42014751
-0.13759974 0.083999395 0.42023888
-0.13713028 0.083941393 0.41996694
-0.13670617 0.083910897 0.41983265
-0.13630979 0.083897293 0.41978288
-0.13593169 0.083894901 0.41978917
-0.13562809 0.083938606 0.42002612
-0.13525461 0.083939187 0.42004731
