# .PCD v0.7 - Point Cloud Data file format
VERSION 0.7
FIELDS x y z
SIZE 4 4 4
TYPE F F F
COUNT 1 1 1
WIDTH 1359
HEIGHT 1
VIEWPOINT 0 0 0 1 0 0 0
POINTS 1359
DATA ascii
-0.086482689 0.041797668 0.40030214
-0.086110212 0.041788768 0.40023297
-0.085739344 0.04178058 0.40017053
-0.085377492 0.041776732 0.40014964
-0.084978014 0.041754369 0.39995134
-0.084570423 0.041727815 0.3997128
-0.084208883 0.041723859 0.39969069
-0.083812296 0.041702423 0.39950109
-0.083446547 0.041696224 0.39945737
-0.083075307 0.041687213 0.39938664
-0.08270482 0.041678499 0.39931875
-0.082296409 0.041650526 0.39906624
-0.081943028 0.041650284 0.39907938
-0.081554048 0.041631859 0.39891824
-0.081209213 0.041635908 0.39897242
-0.080826998 0.041620754 0.39884245
-0.080473557 0.041620348 0.39885378
-0.080121204 0.041620489 0.39887038
-0.079768032 0.041620221 0.3988829
-0.13809825 0.044046 0.41580641
-0.13773495 0.044048131 0.41584706
-0.13733605 0.044038855 0.41578007
-0.13696277 0.044037767 0.41579038
-0.13657846 0.04403311 0.41576698
-0.13613161 0.044008225 0.41555253
-0.13568993 0.043984868 0.41535252
-0.1352908 0.043975219 0.41528189
-0.1348552 0.043953627 0.41509849
-0.13441586 0.043930706 0.41490248
-0.13402578 0.043923795 0.41485766
-0.13361764 0.043910909 0.41475639
-0.13323133 0.043905143 0.41472238
-0.13276292 0.043872222 0.41443178
-0.13232337 0.043848678 0.41422978
-0.13198446 0.043858439 0.41434237
-0.13152948 0.043829594 0.41409019
-0.1311325 0.043819953 0.41401947
-0.1307168 0.043803994 0.41388896
-0.13031282 0.043791883 0.41379479
-0.12990347 0.043777891 0.41368288
-0.1293955 0.043730486 0.41325518
-0.12904063 0.043734711 0.4133153
-0.12863025 0.043720089 0.41319734
-0.12822266 0.043706328 0.41308746
-0.12781221 0.043691512 0.41296762
-0.12743197 0.043686982 0.41294488
-0.12699811 0.043663979 0.41274759
-0.12658536 0.043648116 0.41261777
-0.12618962 0.043638051 0.41254264
-0.12576187 0.04361682 0.41236204
-0.12534629 0.043599706 0.41222021
-0.12503105 0.043617498 0.41240844
-0.12466667 0.043618195 0.41243502
-0.12430008 0.04361812 0.41245431
-0.12399408 0.043639373 0.41267523
-0.093441598 0.042417575 0.40251568
-0.093067043 0.042409282 0.40245396
-0.092696786 0.042402893 0.40241021
-0.092305437 0.042386774 0.40227407
-0.091965221 0.04239409 0.40236035
-0.091531202 0.042358063 0.40203521
-0.091108598 0.042327054 0.4017576
-0.090765402 0.042332835 0.40182915
-0.090383716 0.042320639 0.40173003
-0.090004608 0.042309567 0.40164149
-0.089584224 0.042278919 0.40136707
-0.089221448 0.042275332 0.40134948
-0.088864513 0.04227449 0.40135789
-0.088464685 0.042253159 0.40117171
-0.088077091 0.042237516 0.40103954
-0.08769498 0.042224389 0.40093115
-0.087329179 0.042219047 0.40089664
-0.086933486 0.042199146 0.40072381
-0.086494341 0.042157903 0.40034828
-0.086176515 0.042175699 0.40053329
-0.085784569 0.042157214 0.40037379
-0.085412405 0.042148344 0.40030548
-0.085007451 0.04212315 0.40008205
-0.084625855 0.042109367 0.39996698
-0.084259413 0.042103034 0.39992264
-0.083871245 0.042085756 0.39977422
-0.083486877 0.042070244 0.39964256
-0.083136484 0.04207179 0.39967287
-0.082702048 0.042030644 0.39929751
-0.082340464 0.042026322 0.39927197
-0.08195471 0.042009577 0.39912835
-0.081594087 0.042005625 0.3991062
-0.081225537 0.041997544 0.39904478
-0.080859214 0.041990548 0.39899355
-0.080492146 0.041983098 0.39893803
-0.080156863 0.041992232 0.39904001
-0.079804681 0.04199256 0.39905825
-0.07945735 0.041995458 0.39910087
-0.079115167 0.04200111 0.39916965
-0.078816734 0.042030144 0.39946055
-0.13818805 0.044445354 0.41607019
-0.13778733 0.044435509 0.41599861
-0.13746172 0.044449903 0.41615394
-0.13698451 0.044415213 0.41584975
-0.13655573 0.044396084 0.41569117
-0.13619865 0.044400226 0.41575047
-0.13580343 0.044391926 0.41569325
-0.13532361 0.044355851 0.41537592
-0.13494076 0.044351444 0.41535518
-0.13449512 0.044326324 0.41514039
-0.13410626 0.044319827 0.41510001
-0.13369937 0.044307329 0.41500333
-0.13316856 0.044253569 0.41452023
-0.13288942 0.044283383 0.4148199
-0.13239171 0.044240326 0.41443691
-0.13198988 0.044229154 0.41435263
-0.1316057 0.044223856 0.41432333
-0.13120037 0.044211399 0.41422695
-0.13071238 0.044170927 0.4138681
-0.13036622 0.044178315 0.41395754
-0.12996921 0.04416845 0.41388538
-0.12950216 0.044134662 0.41358903
-0.12910651 0.044125076 0.41351941
-0.12871553 0.044117041 0.41346434
-0.12826563 0.044088714 0.41321903
-0.12789017 0.044085883 0.41321263
-0.12745678 0.044063002 0.41301832
-0.12706819 0.044055529 0.4129684
-0.12665686 0.044040106 0.41284388
-0.1262192 0.044015404 0.41263238
-0.12586546 0.044019915 0.41269472
-0.12545267 0.04400374 0.41256309
-0.12504506 0.04398929 0.4124476
-0.12468468 0.043991424 0.41248757
-0.12438879 0.044016387 0.41274163
-0.12408032 0.04403704 0.41295522
-0.09310808 0.042784858 0.40262365
-0.092725083 0.042772613 0.40252531
-0.092339128 0.042758901 0.40241316
-0.091985814 0.042760257 0.40244272
-0.091579884 0.042737063 0.40224123
-0.091183476 0.042718157 0.40208
-0.090796582 0.042703576 0.40195942
-0.090451203 0.042708486 0.40202221
-0.090041205 0.0426828 0.401797
-0.089645609 0.04266376 0.40163428
-0.089271016 0.042654611 0.4015646
-0.088881917 0.042638429 0.40142867
-0.088490427 0.042620961 0.40128061
-0.088092849 0.042600412 0.40110344
-0.087733872 0.042598438 0.40110111
-0.087348804 0.042583734 0.40097886
-0.086959206 0.042566687 0.4008345
-0.086600527 0.042564701 0.40083188
-0.086209059 0.042546518 0.4006767
-0.085803762 0.042521328 0.40045547
-0.085433088 0.042513162 0.4003945
-0.085047297 0.042497367 0.40026167
-0.08466056 0.042480972 0.40012309
-0.084298156 0.042476699 0.40009859
-0.083917961 0.042463392 0.39998895
-0.083543204 0.042452738 0.39990422
-0.083160631 0.042437993 0.39978102
-0.082773924 0.042421013 0.3996366
-0.082394361 0.042407565 0.39952543
-0.082002081 0.042387426 0.39935109
-0.081637383 0.042381428 0.39931002
-0.081260227 0.042368885 0.39920717
-0.080888249 0.042358946 0.39912885
-0.080534652 0.042358592 0.39914072
-0.080193885 0.042365007 0.39921635
-0.079853132 0.042371489 0.39929256
-0.079490848 0.042366549 0.39926112
-0.079181977 0.042390168 0.3994987
-0.078842916 0.04239776 0.39958525
-0.13823982 0.044832855 0.41621944
-0.13784117 0.044823643 0.41615447
-0.13750973 0.044836305 0.41629261
-0.13706133 0.044810783 0.41607621
-0.13667543 0.044805627 0.41604882
-0.1362119 0.044774916 0.41578421
-0.13587722 0.044786517 0.41591245
-0.13545001 0.044767585 0.41575715
-0.13494639 0.044723243 0.41536579
-0.13452713 0.04470668 0.41523242
-0.13415729 0.044706497 0.41525117
-0.13373148 0.044687614 0.41509619
-0.13332321 0.044674505 0.41499481
-0.13293494 0.044668037 0.41495514
-0.13248691 0.044641402 0.41472808
-0.13203493 0.044613279 0.41448718
-0.13167912 0.044617597 0.41454756
-0.13126248 0.044601258 0.41441613
-0.13086884 0.044592671 0.41435662
-0.13039236 0.044555727 0.41403365
-0.12999909 0.044547085 0.41397357
-0.12958527 0.044531342 0.41384748
-0.12922214 0.044532966 0.41388282
-0.12882185 0.044521771 0.41379896
-0.12833534 0.044480614 0.41343662
-0.12788516 0.044451855 0.41318941
-0.12750295 0.044446625 0.41316095
-0.12709764 0.044433288 0.41305706
-0.12668702 0.044418015 0.41293517
-0.12632559 0.044419944 0.4129732
-0.12589158 0.0443963 0.41277337
-0.12548077 0.04438071 0.41264844
-0.12512991 0.044386301 0.41272044
-0.12473343 0.044375695 0.41264176
-0.12441221 0.044391882 0.41281223
-0.12412462 0.044420198 0.41309553
-0.093162999 0.043167185 0.40285334
-0.092777245 0.043153647 0.40274391
-0.092420653 0.043153625 0.4027606
-0.092010781 0.043128632 0.40254411
-0.0916458 0.04312456 0.40252289
-0.091273904 0.043117195 0.40247086
-0.090832427 0.043076776 0.40211019
-0.090467505 0.043072484 0.40208679
-0.090116829 0.043074969 0.40212655
-0.08966241 0.043027688 0.40170166
-0.089299254 0.043024007 0.40168375
-0.088927634 0.043016192 0.40162724
-0.088523097 0.042992335 0.40142083
-0.088125423 0.042971633 0.40124384
-0.087776922 0.042974841 0.40129003
-0.087367281 0.042948019 0.40105572
-0.087002836 0.042943288 0.40102771
-0.086651877 0.042945195 0.40106165
-0.086266704 0.042930093 0.40093663
-0.085852288 0.042900257 0.40067402
-0.085497312 0.042899996 0.40068752
-0.085108154 0.042882513 0.40054014
-0.084710419 0.042860545 0.40035075
-0.084356055 0.042860437 0.40036547
-0.083955027 0.042836502 0.40015766
-0.083560266 0.042815585 0.39997789
-0.083185107 0.042804576 0.39989069
-0.082804143 0.042790476 0.39977449
-0.082435817 0.042782813 0.3997184
-0.082058281 0.042770281 0.39961678
-0.081666745 0.042750318 0.39944565
-0.081288531 0.042737175 0.39933819
-0.080929153 0.042733874 0.39932263
-0.080575183 0.042733412 0.39933354
-0.08022058 0.042732608 0.3993412
-0.079858236 0.042727653 0.39931002
-0.079526596 0.042739157 0.3994326
-0.079186328 0.042746104 0.39951256
-0.13831992 0.045229901 0.41645396
-0.13795604 0.045232084 0.41649461
-0.13756959 0.045226857 0.41646704
-0.13713032 0.045204196 0.41627893
-0.13677374 0.045208745 0.41634133
-0.13629451 0.045172669 0.4160296
-0.13585505 0.045149613 0.41583773
-0.13550968 0.045157783 0.41593349
-0.1350961 0.045143209 0.41581973
-0.13464975 0.045117576 0.41560408
-0.13428183 0.045118153 0.41562983
-0.13382246 0.045087911 0.41537169
-0.13339034 0.045066722 0.4151969
-0.13296029 0.045046117 0.41502741
-0.13257109 0.045039274 0.4149847
-0.13214804 0.045020852 0.41483536
-0.1317081 0.044996563 0.4146319
-0.13129897 0.044982698 0.41452441
-0.13093889 0.044985604 0.41457146
-0.13046953 0.044950869 0.41427165
-0.13011694 0.044956297 0.41434193
-0.12961742 0.044910837 0.41394314
-0.12926246 0.044915352 0.41400501
-0.12883872 0.044895925 0.41384611
-0.1284204 0.044878278 0.41370362
-0.12801512 0.044865105 0.41360232
-0.12755509 0.044832602 0.41332281
-0.12712878 0.044811815 0.41315123
-0.12672764 0.044799797 0.41306052
-0.12637024 0.04480321 0.41311204
-0.12594751 0.044783425 0.41294962
-0.12556113 0.044776481 0.41290563
-0.12517497 0.044769578 0.41286194
-0.12483726 0.044780008 0.41297811
-0.12449448 0.044788685 0.41307807
-0.12419283 0.044812251 0.41331536
-0.093212381 0.04354734 0.40305895
-0.092804424 0.043523367 0.402854
-0.092445098 0.043522112 0.40285921
-0.092051074 0.043504439 0.40271243
-0.091698043 0.043506082 0.40274441
-0.091301396 0.043486964 0.40258417
-0.090931706 0.04348059 0.40254182
-0.09052939 0.043458495 0.40235388
-0.090143137 0.043443974 0.40223598
-0.089758962 0.043430343 0.40212631
-0.08936017 0.0434095 0.40194979
-0.08897312 0.043394219 0.40182471
-0.088576995 0.043374378 0.40165731
-0.088186935 0.043357354 0.40151596
-0.08783488 0.043358948 0.40154698
-0.087424524 0.043331664 0.4013105
-0.087031923 0.043312997 0.40115374
-0.086688034 0.043318518 0.40122098
-0.086303428 0.04330365 0.40109932
-0.085925013 0.043291777 0.40100536
-0.085508361 0.04326047 0.4007313
-0.085117631 0.043242067 0.40057668
-0.084745772 0.043233134 0.4005098
-0.08435256 0.043213196 0.40034083
-0.084017627 0.043223064 0.40044796
-0.083622187 0.043201759 0.40026626
-0.0832133 0.043173302 0.40001819
-0.082853839 0.043170344 0.40000638
-0.08245983 0.043149292 0.39982679
-0.082087763 0.043139584 0.39975229
-0.08170519 0.043124251 0.3996256
-0.081341967 0.043119039 0.39959261
-0.080958895 0.043103218 0.39946127
-0.080573991 0.043086275 0.3993195
-0.080258541 0.043106493 0.39952204
-0.079895288 0.043101098 0.3994872
-0.079525918 0.04309234 0.39942104
-0.079198964 0.043106593 0.3995682
-0.13834868 0.045610439 0.41653371
-0.13802522 0.045626029 0.41669667
-0.13760497 0.045609623 0.41656739
-0.13720813 0.04560091 0.41650829
-0.13684 0.045601714 0.41653618
-0.13641872 0.045584764 0.41640186
-0.13594589 0.045550454 0.41610894
-0.13559407 0.045556609 0.41618568
-0.13508476 0.045509741 0.41577795
-0.13469033 0.045501418 0.41572237
-0.13429582 0.045493037 0.41566622
-0.13386306 0.045471612 0.41549087
-0.13348942 0.045470197 0.41549832
-0.13303693 0.045441851 0.41525966
-0.13264591 0.045434404 0.41521198
-0.13223164 0.045418922 0.41509089
-0.13176802 0.045386355 0.41481358
-0.1313947 0.045384798 0.41481963
-0.13095614 0.045360647 0.41461915
-0.13058166 0.045358606 0.41462076
-0.13013233 0.045330483 0.41438395
-0.12966377 0.045295481 0.41408417
-0.12928762 0.045292649 0.4140785
-0.12893495 0.045298059 0.41414812
-0.12847181 0.045264572 0.41386214
-0.12809189 0.045260303 0.41384324
-0.12766923 0.04524086 0.41368559
-0.12720142 0.045205262 0.41338015
-0.12677847 0.045185447 0.41321903
-0.12644155 0.045196269 0.41333804
-0.1260124 0.045174096 0.41315526
-0.12559853 0.04515728 0.41302145
-0.12524022 0.045160398 0.41306996
-0.12487669 0.04516165 0.41310135
-0.12449295 0.045155577 0.41306579
-0.12421639 0.04518846 0.41338652
-0.1239334 0.045219194 0.41368759
-0.092879146 0.043915778 0.40317038
-0.092496514 0.043903582 0.40307528
-0.092102259 0.043885753 0.40292841
-0.091722757 0.043874841 0.40284497
-0.091319606 0.043852489 0.40265647
-0.090968251 0.043854933 0.40269557
-0.090562068 0.04383086 0.40249112
-0.090176128 0.043816432 0.40237519
-0.089807369 0.043810271 0.40233511
-0.089404687 0.04378745 0.40214199
-0.089022063 0.04377431 0.40203771
-0.088602677 0.043742917 0.4017657
-0.088232137 0.043735478 0.40171373
-0.087890595 0.043742411 0.40179363
-0.087461457 0.043705631 0.401472
-0.087069958 0.04368744 0.40132102
-0.086693026 0.043676428 0.401236
-0.086312249 0.043663394 0.40113226
-0.085946225 0.043657742 0.40109631
-0.085572474 0.043648098 0.40102366
-0.085159138 0.043618102 0.40076396
-0.084813975 0.043622918 0.40082401
-0.084413081 0.043598991 0.40061992
-0.084022924 0.043580428 0.40046513
-0.083658114 0.043574914 0.40043008
-0.083289213 0.043567222 0.40037501
-0.082890131 0.043543596 0.40017343
-0.082500085 0.043524541 0.40001383
-0.082112558 0.043506656 0.39986488
-0.081757687 0.043505996 0.39987421
-0.08136607 0.043485686 0.39970288
-0.081010416 0.043484513 0.39970735
-0.080635175 0.043472767 0.3996146
-0.080263093 0.043462623 0.39953652
-0.079918429 0.043467306 0.39959469
-0.079563409 0.043466374 0.39960119
-0.079215795 0.043469496 0.39964494
-0.078919373 0.043500867 0.39994827
-0.13846762 0.046021115 0.41688505
-0.13809238 0.046019681 0.41689259
-0.13762395 0.045987099 0.41661799
-0.13725317 0.045987062 0.41663817
-0.1368603 0.045979608 0.41659114
-0.1364658 0.045971565 0.41653875
-0.1360299 0.045949481 0.41635916
-0.13564199 0.045943554 0.4163259
-0.13518772 0.04591503 0.41608793
-0.13479072 0.045905873 0.41602534
-0.13434519 0.045880087 0.41581208
-0.13392064 0.045861341 0.41566256
-0.13351411 0.045848675 0.41556817
-0.13309269 0.045830823 0.41542673
-0.13268197 0.045816563 0.4153178
-0.1322886 0.04580823 0.41526264
-0.13186835 0.04579052 0.41512242
-0.13143061 0.045766622 0.41492602
-0.13101825 0.045751441 0.41480872
-0.13063723 0.045747153 0.41479006
-0.13018624 0.045718282 0.41454849
-0.12983705 0.045725081 0.41463041
-0.12934558 0.045681678 0.41425702
-0.12893756 0.045667589 0.4141494
-0.12858233 0.045672156 0.41421103
-0.12815909 0.045652535 0.4140532
-0.1277232 0.045628276 0.41385329
-0.12731652 0.045614354 0.41374707
-0.12690134 0.045597281 0.41361231
-0.12643866 0.045563005 0.41332138
-0.12609091 0.045570064 0.41340545
-0.12564179 0.045540415 0.41315645
-0.12527966 0.045542222 0.41319284
-0.12492569 0.045547009 0.4132562
-0.12456457 0.04554921 0.41329613
-0.12427417 0.045577366 0.41357154
-0.12396711 0.045599561 0.41379285
-0.092893369 0.044279929 0.40322414
-0.092555761 0.044289209 0.40332547
-0.092174605 0.044277631 0.40323687
-0.091763675 0.04425161 0.40301663
-0.091362625 0.044230171 0.40283811
-0.090971805 0.04421353 0.40270323
-0.090573214 0.044192977 0.40253261
-0.090234958 0.044201817 0.40262964
-0.089839615 0.044182643 0.40247151
-0.089444913 0.044163644 0.40231487
-0.089081027 0.044159755 0.40229589
-0.088688098 0.044141393 0.40214494
-0.088251218 0.044100918 0.40179247
-0.087902412 0.0441043 0.40183955
-0.087532349 0.044097006 0.40178931
-0.087124474 0.044070527 0.40156418
-0.086740039 0.04405573 0.40144545
-0.08637017 0.044048253 0.40139332
-0.085989363 0.044035099 0.40128946
-0.08557678 0.044005509 0.4010357
-0.085217401 0.044003136 0.40102997
-0.084815621 0.043978758 0.40082365
-0.084458716 0.043977547 0.40082833
-0.084070124 0.043959755 0.40068188
-0.083678395 0.043940168 0.40051901
-0.083308585 0.043931969 0.40045989
-0.082933411 0.043920863 0.4003742
-0.082544006 0.043902088 0.40021858
-0.08215902 0.043885522 0.40008295
-0.081802666 0.043884162 0.40008596
-0.081399657 0.043857664 0.39985967
-0.081042901 0.043855954 0.39985937
-0.080635779 0.043826863 0.39960936
-0.080282971 0.043827165 0.39962727
-0.079961792 0.043844808 0.39980325
-0.079570122 0.043823786 0.39962664
-0.079248071 0.04384109 0.39979947
-0.078932509 0.043862164 0.40000656
-0.078624599 0.043887686 0.40025428
-0.078232028 0.043865975 0.40007114
-0.1381202 0.04640048 0.41696972
-0.13774231 0.046398163 0.41696942
-0.13733436 0.046385676 0.41687775
-0.13693473 0.046375938 0.41681072
-0.13653016 0.046364482 0.41672826
-0.13606369 0.046331879 0.41645569
-0.13572936 0.046344213 0.416587
-0.13529444 0.046322178 0.41640943
-0.13485876 0.046299763 0.41622835
-0.13442367 0.046277426 0.41604796
-0.13398233 0.046252813 0.41584703
-0.13355376 0.046232481 0.41568464
-0.13314685 0.04621955 0.41558874
-0.13274427 0.046208061 0.41550577
-0.13233888 0.046195526 0.41541338
-0.13191977 0.046178121 0.41527715
-0.13154121 0.04617485 0.41526806
-0.13110656 0.046151809 0.41508111
-0.1306916 0.046135604 0.41495562
-0.13031839 0.046134077 0.41496211
-0.12984905 0.046098415 0.41466156
-0.12943891 0.046083629 0.41454875
-0.12899248 0.046055805 0.41431862
-0.12861939 0.046054076 0.41432321
-0.12823164 0.04604708 0.41428038
-0.12778617 0.046019252 0.41405013
-0.12742884 0.046023101 0.41410485
-0.12698691 0.045996323 0.41388398
-0.12653448 0.045965575 0.41362733
-0.12613428 0.045953684 0.4135403
-0.12575018 0.045947608 0.41350564
-0.12533776 0.045931116 0.41337717
-0.12496498 0.045929089 0.41337886
-0.1246483 0.045947734 0.41356662
-0.12430009 0.045954835 0.41365045
-0.12400366 0.045981176 0.41390747
-0.092930347 0.044655122 0.40337655
-0.092577741 0.044657305 0.40341315
-0.092185229 0.044640183 0.40327525
-0.091794178 0.044623632 0.40314248
-0.091395415 0.044603199 0.40297458
-0.091030978 0.04459941 0.40295702
-0.09060432 0.044565 0.40266269
-0.09025684 0.044569418 0.40271914
-0.089853853 0.04454634 0.40252712
-0.089472905 0.044534061 0.40243262
-0.089120336 0.04453586 0.40246531
-0.088731319 0.044519383 0.40233272
-0.088302538 0.044482745 0.40201795
-0.087946154 0.044482432 0.40203133
-0.087591134 0.044482812 0.40205094
-0.087184057 0.044456642 0.40183058
-0.086824417 0.044454552 0.40182775
-0.086398005 0.044418115 0.40151444
-0.086011805 0.044402137 0.40138599
-0.085636407 0.044391625 0.4013069
-0.085268945 0.044385158 0.40126428
-0.084897898 0.044376761 0.40120423
-0.084489405 0.044348642 0.40096575
-0.08412502 0.044343535 0.40093529
-0.083742931 0.044329017 0.40081966
-0.083359204 0.044313498 0.40069497
-0.082966737 0.044293188 0.40052682
-0.082564227 0.044267308 0.40030831
-0.082217075 0.044271018 0.40035734
-0.081817992 0.044246688 0.40015265
-0.08146365 0.044246439 0.40016574
-0.081079669 0.044230018 0.40003249
-0.080702558 0.044217225 0.399932
-0.080309689 0.044195641 0.39975196
-0.079984084 0.044211049 0.3999064
-0.079627544 0.044209413 0.39990667
-0.079278775 0.044212107 0.39994603
-0.078936562 0.044218492 0.40001878
-0.078689985 0.044278745 0.4005788
-0.13815688 0.04678442 0.41707349
-0.13776299 0.046776686 0.41702509
-0.13737291 0.046770211 0.41698784
-0.13703018 0.046779856 0.41709432
-0.13653858 0.046738595 0.41674691
-0.13618295 0.046743795 0.41681373
-0.13569997 0.046705179 0.41648984
-0.13528921 0.046691272 0.41638631
-0.13493045 0.046695292 0.41644257
-0.13450107 0.046674825 0.41628042
-0.13407424 0.046655141 0.41612524
-0.13366012 0.046639774 0.41600856
-0.13324225 0.04662301 0.4158794
-0.13283713 0.046610631 0.41578934
-0.13244504 0.046602767 0.41573951
-0.13202374 0.046584554 0.41559732
-0.13160147 0.04656589 0.41545111
-0.13107696 0.046510849 0.41498029
-0.13075928 0.046529092 0.41516331
-0.13033566 0.046509635 0.41500995
-0.12993309 0.046497606 0.41492277
-0.12956055 0.046496276 0.41493112
-0.12907144 0.046452992 0.414565
-0.12865384 0.046435267 0.41442698
-0.12827043 0.04642982 0.41439846
-0.12790734 0.046431709 0.41443545
-0.12744471 0.046397381 0.41414911
-0.12699737 0.046368439 0.41391081
-0.1266176 0.046364062 0.41389176
-0.12624162 0.046361063 0.41388497
-0.12581491 0.046339352 0.41371116
-0.12541914 0.046328939 0.41363817
-0.12504634 0.046326991 0.41364068
-0.1246657 0.046322111 0.41361704
-0.12432333 0.046331458 0.41372043
-0.12400207 0.046348754 0.41389474
-0.092612945 0.045032009 0.40355837
-0.092222363 0.045015756 0.40342954
-0.09184818 0.045007411 0.40337151
-0.091445625 0.044985045 0.40318775
-0.091051199 0.044966526 0.40303838
-0.090674013 0.044956397 0.40296423
-0.090292767 0.044944178 0.40287125
-0.089934044 0.044943113 0.40287817
-0.08950609 0.044907302 0.40257365
-0.089158945 0.044911921 0.4026314
-0.088760398 0.044890575 0.4024564
-0.088382401 0.044879492 0.40237331
-0.08796373 0.044847582 0.40210345
-0.087606847 0.044847041 0.40211481
-0.087199092 0.044820353 0.40189162
-0.086866394 0.044832185 0.40201381
-0.086423449 0.044786971 0.40162438
-0.08603292 0.044768669 0.40147626
-0.085695468 0.044777941 0.40157536
-0.085304692 0.044759326 0.40142426
-0.084910035 0.044738498 0.40125328
-0.084515139 0.044717371 0.40107957
-0.084158614 0.044716462 0.40108711
-0.08376921 0.044697996 0.40093714
-0.083391815 0.044685807 0.40084338
-0.083026551 0.044680048 0.40080726
-0.082640246 0.044662859 0.40066859
-0.082217231 0.044625606 0.4003498
-0.081851475 0.044619244 0.40030807
-0.081477076 0.044608086 0.40022331
-0.08110854 0.044600062 0.4001666
-0.080752634 0.044598944 0.40017179
-0.080348872 0.044571269 0.39993861
-0.079998873 0.044573307 0.39997199
-0.079657517 0.044580191 0.40004885
-0.079264529 0.044558115 0.39986575
-0.078955278 0.044583134 0.40010521
-0.078656621 0.044614382 0.40040055
-0.13857926 0.047173504 0.41720042
-0.13818462 0.047165509 0.41715023
-0.13783309 0.047172237 0.41723022
-0.13748938 0.047181688 0.41733432
-0.13705269 0.047159191 0.41715583
-0.13662553 0.047139861 0.4170053
-0.1362547 0.047139913 0.41702622
-0.1358026 0.047111772 0.41679773
-0.13540585 0.047102734 0.41673818
-0.13501206 0.047094677 0.41668731
-0.13452978 0.047055624 0.41636223
-0.1341313 0.047045752 0.41629523
-0.13376459 0.047046997 0.41632661
-0.13331452 0.047018841 0.41609782
-0.13292709 0.047012694 0.41606376
-0.13247187 0.046982467 0.41581655
-0.13206674 0.046969883 0.41572547
-0.13161449 0.046940431 0.41548505
-0.1311885 0.046920191 0.41532618
-0.13079382 0.046911083 0.41526577
-0.13037108 0.04689182 0.41511545
-0.12998609 0.046886075 0.41508478
-0.12956658 0.046867799 0.41494316
-0.12919088 0.046865311 0.41494131
-0.12877043 0.046846539 0.41479525
-0.12831897 0.046816342 0.41454798
-0.12792674 0.046807636 0.414491
-0.12748769 0.046781708 0.41428143
-0.12710115 0.046774954 0.41424167
-0.12665693 0.046746865 0.41401294
-0.12626149 0.046736676 0.41394269
-0.12586576 0.046726324 0.41387093
-0.12541553 0.046695609 0.41361889
-0.12509474 0.046713058 0.41379336
-0.12471214 0.046707459 0.41376367
-0.12436 0.046713263 0.41383499
-0.12405152 0.046735559 0.41405237
-0.092680678 0.045422923 0.40384531
-0.092244044 0.045384012 0.40351611
-0.091879919 0.045380618 0.40350267
-0.091528445 0.045383457 0.40354463
-0.091105849 0.045350928 0.40327203
-0.090718575 0.045335792 0.40315402
-0.090333283 0.045321524 0.40304372
-0.089973114 0.045319814 0.40304494
-0.08954908 0.045285784 0.40275875
-0.089177758 0.04527824 0.40270808
-0.088794798 0.04526471 0.40260407
-0.088422172 0.045256358 0.40254608
-0.088029094 0.045237426 0.40239391
-0.087637179 0.045218945 0.4022457
-0.087259389 0.045207638 0.40216121
-0.086887524 0.045199305 0.40210322
-0.086514555 0.045190342 0.4020395
-0.086107448 0.045163386 0.40181568
-0.085701302 0.045136724 0.40159437
-0.085319124 0.045122508 0.40148377
-0.08494515 0.045112543 0.40141085
-0.084586002 0.045110393 0.40140751
-0.084196448 0.045091946 0.40125906
-0.083800733 0.045070022 0.40107962
-0.083430931 0.045061912 0.40102303
-0.083062828 0.045054648 0.40097398
-0.082671553 0.04503471 0.40081197
-0.082294561 0.045022413 0.40071794
-0.081900358 0.045000549 0.40053871
-0.081514023 0.044982839 0.40039644
-0.081159055 0.044982359 0.4004074
-0.080771536 0.044963751 0.40025702
-0.080408677 0.04495877 0.40022781
-0.080029972 0.044944853 0.40011898
-0.079700358 0.044958498 0.40025556
-0.079302289 0.044933483 0.40004784
-0.078979447 0.044951055 0.4002192
-0.07867869 0.044981413 0.40050438
-0.078369409 0.045007143 0.4007484
-0.077967651 0.04497977 0.40051943
-0.13750382 0.047558509 0.41737109
-0.1371163 0.047552902 0.41734233
-0.13672227 0.047544993 0.41729343
-0.13633417 0.047539119 0.41726232
-0.13595793 0.047537357 0.41726729
-0.13546836 0.047495857 0.41692346
-0.13506857 0.047485691 0.41685462
-0.13457754 0.047443297 0.41650286
-0.13420731 0.047443379 0.41652393
-0.1338257 0.047439422 0.41650957
-0.13337886 0.047412261 0.41629145
-0.13294847 0.047390811 0.41612345
-0.13254407 0.047378533 0.41603592
-0.13212296 0.0473602 0.41589522
-0.13173968 0.04735535 0.41587293
-0.13126689 0.047318224 0.4155671
-0.1308707 0.047308568 0.41550252
-0.13039476 0.047269948 0.41518354
-0.1300403 0.047275275 0.41525051
-0.12961464 0.047254678 0.41508976
-0.1292266 0.047247712 0.41504872
-0.12879278 0.047223918 0.41485983
-0.12839516 0.047213305 0.41478673
-0.12796506 0.047190655 0.41460779
-0.12754728 0.047172423 0.41446769
-0.12713365 0.047155637 0.4143402
-0.12676133 0.047154114 0.41434684
-0.12633988 0.047134247 0.41419229
-0.12593244 0.047119509 0.41408274
-0.12550199 0.047096055 0.41389653
-0.12514418 0.047099803 0.41394943
-0.12476913 0.047097061 0.41394523
-0.1244276 0.047107 0.41405246
-0.12407677 0.047113456 0.41412908
-0.12379657 0.047146861 0.4144426
-0.092297241 0.045768071 0.40374058
-0.091930822 0.045763608 0.40371794
-0.091554441 0.045754127 0.403651
-0.091187946 0.045749538 0.40362713
-0.090779454 0.045723759 0.40341628
-0.090402 0.045713462 0.40334201
-0.089988999 0.045685045 0.40310776
-0.089611217 0.04567435 0.40302986
-0.089225799 0.045659669 0.40291667
-0.08884152 0.045645453 0.40280756
-0.088443682 0.045624126 0.40263563
-0.088082492 0.045621607 0.40262964
-0.087713361 0.045614943 0.40258703
-0.087301813 0.045586076 0.40234837
-0.086919978 0.045572549 0.40224501
-0.086521916 0.045550365 0.40206528
-0.086161613 0.045547962 0.40206003
-0.08578369 0.04553619 0.40197203
-0.085382931 0.045512147 0.40177563
-0.085003406 0.045499261 0.4016777
-0.084616244 0.04548217 0.40154257
-0.08422751 0.045464084 0.40139863
-0.08387778 0.045466993 0.40143991
-0.083449334 0.045427069 0.40110302
-0.083103478 0.04543196 0.40116173
-0.082705081 0.045408048 0.40096608
-0.082342438 0.045403641 0.40094259
-0.081930362 0.045371819 0.40067697
-0.081540562 0.04535212 0.4005183
-0.081188738 0.045353454 0.40054536
-0.08081793 0.045344155 0.40047842
-0.080437608 0.045329407 0.40036336
-0.080050938 0.045310944 0.40021533
-0.079722069 0.045325171 0.40035608
-0.079354778 0.045317583 0.40030405
-0.079004653 0.045319781 0.40033841
-0.078685232 0.045339692 0.40052918
-0.13793576 0.047951438 0.4175269
-0.13765869 0.047984358 0.41783404
-0.13712798 0.047928806 0.41737077
-0.13675523 0.047928311 0.41738689
-0.13638031 0.047927056 0.4173964
-0.13595806 0.047909107 0.41726053
-0.13553347 0.047890242 0.41711664
-0.13517828 0.04789586 0.41718596
-0.13465036 0.047840137 0.41672102
-0.13432576 0.047856543 0.4168843
-0.13379598 0.047799744 0.41640982
-0.13344008 0.047804922 0.41647527
-0.13298753 0.047775406 0.41623843
-0.13261293 0.047773801 0.41624478
-0.13220027 0.047758441 0.41613126
-0.131782 0.047740966 0.41599923
-0.13134418 0.047716286 0.41580442
-0.13094988 0.047707334 0.4157466
-0.13054578 0.047694735 0.41565704
-0.13005275 0.047649492 0.41528293
-0.12970786 0.047658425 0.41538092
-0.12924556 0.047624137 0.41510224
-0.12884848 0.047613759 0.41503185
-0.12844905 0.047602449 0.41495338
-0.12802771 0.047582936 0.41480336
-0.12762694 0.047570966 0.41471907
-0.12720352 0.047550473 0.41456044
-0.12679718 0.047536258 0.41445652
-0.12637989 0.04751784 0.41431594
-0.12593473 0.047488816 0.4140828
-0.12557562 0.047492154 0.41413185
-0.12515214 0.047471102 0.41396821
-0.12479959 0.047476914 0.41403875
-0.12442613 0.047474772 0.41403997
-0.12413045 0.047502395 0.41430071
-0.12383874 0.047531698 0.41457614
-0.092334762 0.046144702 0.40389633
-0.092007235 0.046159789 0.4040451
-0.091599591 0.046134643 0.4038417
-0.091215469 0.046121184 0.40374053
-0.090833575 0.046108764 0.40364838
-0.090455689 0.046098284 0.40357319
-0.090048261 0.046072602 0.40336484
-0.08963614 0.046044312 0.40313354
-0.089281768 0.046045572 0.40316099
-0.088907875 0.046036735 0.40309998
-0.088496812 0.046008512 0.40286908
-0.088117898 0.045996834 0.4027831
-0.08774104 0.045986142 0.40270564
-0.087368757 0.045977768 0.40264842
-0.086970694 0.045955703 0.40247127
-0.086561322 0.045927461 0.40223995
-0.086174317 0.045910899 0.40211087
-0.085808538 0.045905557 0.40208
-0.085435279 0.045896154 0.40201345
-0.085060269 0.045885727 0.40193796
-0.084683754 0.045874394 0.40185446
-0.08427307 0.045844384 0.40160725
-0.083894804 0.045831826 0.40151289
-0.083526634 0.045824703 0.40146607
-0.083116882 0.04579461 0.40121797
-0.082759835 0.045793414 0.401223
-0.082370326 0.045774177 0.40106985
-0.081997983 0.045764353 0.40099919
-0.08162421 0.045753639 0.4009206
-0.081234738 0.045733999 0.40076375
-0.080827631 0.045704208 0.40051791
-0.080476277 0.045705833 0.40054727
-0.080097564 0.045691855 0.40043989
-0.079744257 0.045692313 0.40045893
-0.07937815 0.045685407 0.40041339
-0.079032533 0.045690279 0.40047106
-0.078723639 0.045716539 0.40071607
-0.13764551 0.048352014 0.41778684
-0.1372897 0.048357625 0.4178558
-0.13683458 0.048328195 0.41762191
-0.13646206 0.048327852 0.4176394
-0.13602141 0.048303302 0.41744772
-0.13561359 0.04829032 0.41735592
-0.13523416 0.04828741 0.41735116
-0.13484514 0.048281044 0.41731653
-0.13433287 0.048230391 0.41689909
-0.13395275 0.048227042 0.41689047
-0.13345367 0.048180722 0.41651037
-0.13305266 0.048169643 0.41643491
-0.1327121 0.048180457 0.4165487
-0.13224311 0.048144583 0.41625878
-0.13187614 0.048145741 0.41628906
-0.1314256 0.048116304 0.41605479
-0.13099347 0.048093468 0.41587755
-0.13058357 0.048078697 0.41576999
-0.13015826 0.048058141 0.41561243
-0.12971668 0.048031446 0.41540167
-0.12938251 0.048044488 0.41553465
-0.12893671 0.04801603 0.41530859
-0.12850818 0.047993854 0.4151369
-0.12809697 0.047978047 0.41502023
-0.12770054 0.047967695 0.41495073
-0.12726261 0.047941655 0.41474548
-0.12684049 0.047921434 0.41459054
-0.12645429 0.047914714 0.41455236
-0.12598723 0.047877211 0.41424787
-0.12561113 0.04787416 0.4142414
-0.12523042 0.047869336 0.41421956
-0.12483598 0.047859218 0.41415185
-0.1245058 0.04787375 0.41429749
-0.12417415 0.047887795 0.4144389
-0.12382911 0.04789675 0.41453627
-0.092415601 0.046543449 0.40424153
-0.09201441 0.046521563 0.4040682
-0.091649495 0.046517923 0.40405327
-0.091248609 0.046495929 0.40387884
-0.09086404 0.046482097 0.4037753
-0.090491042 0.046474107 0.40372241
-0.090073809 0.04644325 0.40347081
-0.089705206 0.046437312 0.40343571
-0.089341879 0.046434078 0.40342396
-0.088945948 0.046413798 0.40326411
-0.088565312 0.046401374 0.40317246
-0.088130906 0.046360556 0.40283403
-0.087780207 0.046363629 0.40287685
-0.087375514 0.046338089 0.40267104
-0.086985752 0.046320282 0.4025324
-0.086629063 0.046320032 0.40254623
-0.086246118 0.046305668 0.40243739
-0.085840315 0.046278864 0.40222034
-0.085453667 0.046262212 0.40209144
-0.08510188 0.046264373 0.40212604
-0.08469855 0.046238411 0.40191612
-0.0843096 0.046220113 0.40177277
-0.083932795 0.046208348 0.40168613
-0.083572783 0.04620577 0.40167931
-0.08319512 0.046193365 0.40158701
-0.082775377 0.04615739 0.40128976
-0.082400024 0.046145968 0.40120587
-0.081990272 0.046115097 0.40095282
-0.081651188 0.046123881 0.40104452
-0.081273325 0.046110738 0.40094545
-0.080903023 0.046101794 0.4008829
-0.080536932 0.046095178 0.40084052
-0.080125995 0.046062719 0.40057334
-0.079780862 0.046067972 0.40063405
-0.079424791 0.046066932 0.40064001
-0.079068944 0.046066009 0.40064695
-0.078729585 0.046074729 0.40073764
-0.078415163 0.046098188 0.40095651
-0.078100607 0.046121784 0.40117654
-0.13802312 0.048726339 0.41777694
-0.13769877 0.048743121 0.4179413
-0.13732414 0.048742142 0.41795337
-0.13691688 0.04872955 0.41786581
-0.13651778 0.048719797 0.41780263
-0.13610737 0.048705947 0.41770428
-0.13565837 0.048678178 0.41748652
-0.1352634 0.048669685 0.4174341
-0.134855 0.048656307 0.41733971
-0.13442369 0.048634566 0.41717359
-0.13406326 0.048638426 0.41722703
-0.13350888 0.048571743 0.41667533
-0.13316257 0.048580591 0.4167715
-0.13273136 0.04855844 0.41660181
-0.13231879 0.048542999 0.4164896
-0.13199334 0.048559517 0.41665155
-0.13153911 0.048528627 0.41640672
-0.13109264 0.048500422 0.41618493
-0.13064863 0.048472982 0.41596964
-0.13028422 0.048474997 0.41600713
-0.12981884 0.048439354 0.41572139
-0.12939794 0.048420146 0.4155767
-0.12900133 0.048409946 0.41550922
-0.12864053 0.048413169 0.41555697
-0.12819785 0.048385493 0.4153395
-0.12770689 0.048339393 0.41496381
-0.12735745 0.048346754 0.41504702
-0.12691924 0.048320349 0.41484034
-0.12652251 0.048309643 0.41476837
-0.12611455 0.048294567 0.41465887
-0.12574384 0.048293706 0.41467142
-0.12526275 0.048250332 0.41431886
-0.12486194 0.048237707 0.41423035
-0.1245126 0.048244957 0.41431245
-0.12420398 0.048268072 0.41453078
-0.12385917 0.048277218 0.41462919
-0.12357751 0.048311114 0.41494012
-0.092799582 0.04691498 0.4043299
-0.092453003 0.046920773 0.40439662
-0.092085406 0.046915911 0.4043715
-0.091687664 0.046895597 0.40421304
-0.091279916 0.046869975 0.40400884
-0.090916246 0.046866886 0.40399879
-0.09050443 0.04683885 0.40377367
-0.090132497 0.046831317 0.40372518
-0.08976347 0.046825238 0.40368921
-0.089348324 0.046794951 0.4034445
-0.088976696 0.046787314 0.403395
-0.08857502 0.046763748 0.40320805
-0.088215776 0.046762485 0.40321338
-0.08780247 0.046732437 0.40297046
-0.087439634 0.046729121 0.40295798
-0.087051146 0.046712011 0.40282649
-0.086666748 0.046696957 0.4027127
-0.086273164 0.046676815 0.40255496
-0.085895918 0.046665385 0.40247229
-0.085525081 0.046657354 0.40241885
-0.085138038 0.046640381 0.40228826
-0.084740303 0.046617378 0.40210563
-0.084344104 0.046595033 0.40192854
-0.083965942 0.046582509 0.40183616
-0.083583467 0.04656747 0.40172201
-0.083222106 0.046564117 0.40170863
-0.082835212 0.046546392 0.40157115
-0.082448624 0.046528686 0.40143383
-0.082045354 0.046501372 0.40121356
-0.081662267 0.046485305 0.40109023
-0.081300206 0.046481129 0.40106946
-0.080919363 0.046466123 0.40095517
-0.080553405 0.046459571 0.40091377
-0.080168262 0.046441857 0.40077597
-0.079829931 0.046451218 0.40087181
-0.079452589 0.046437867 0.40077156
-0.079096183 0.046436671 0.40077621
-0.078755684 0.046444863 0.40086177
-0.078444488 0.046470482 0.40109771
-0.13804494 0.049106371 0.41783574
-0.13773598 0.049128786 0.41804692
-0.13734803 0.049123075 0.41801876
-0.13695724 0.049116317 0.41798171
-0.13662969 0.049132254 0.41813779
-0.13612685 0.049085081 0.41775668
-0.13571443 0.049070343 0.41765168
-0.13527967 0.049047422 0.41747692
-0.13493422 0.049056843 0.41757748
-0.13448524 0.049028575 0.41735724
-0.13407849 0.049015589 0.41726702
-0.13363674 0.048989702 0.41706693
-0.13320598 0.048967704 0.41689995
-0.1328236 0.048963428 0.41688386
-0.13243081 0.048955269 0.41683462
-0.1320321 0.048944879 0.41676638
-0.13156675 0.048909657 0.41648668
-0.13113847 0.048888061 0.41632301
-0.1307276 0.048872836 0.41621354
-0.13032106 0.048859157 0.41611722
-0.1298988 0.048839498 0.41596991
-0.12945372 0.048811108 0.41574824
-0.12905465 0.048799966 0.4156734
-0.12864688 0.048785456 0.41556987
-0.12823065 0.048767634 0.41543818
-0.12782231 0.048752736 0.41533127
-0.12734751 0.048712321 0.415007
-0.12699112 0.048717108 0.4150677
-0.12658677 0.048703451 0.41497132
-0.12616847 0.048684347 0.41482851
-0.12577714 0.048675563 0.41477358
-0.12537618 0.048662994 0.41468635
-0.12495625 0.048642963 0.41453552
-0.12456881 0.048635498 0.41449177
-0.1242154 0.048641313 0.41456115
-0.12388773 0.048657279 0.41471705
-0.12361774 0.048696056 0.41506734
-0.092821538 0.047284603 0.40441701
-0.092465065 0.047285434 0.40444088
-0.092113174 0.047288623 0.40448487
-0.091723323 0.047272269 0.4043617
-0.091325656 0.047251742 0.40420273
-0.090963766 0.047249649 0.40420139
-0.090571031 0.047231447 0.40406218
-0.090198383 0.047223616 0.4040117
-0.089794554 0.047199339 0.4038204
-0.089412302 0.047186244 0.40372476
-0.089020081 0.047167774 0.40358305
-0.088631354 0.047151007 0.40345588
-0.08821708 0.047120463 0.40321073
-0.087846488 0.047113098 0.40316385
-0.087472133 0.047103647 0.40309909
-0.087110236 0.047100857 0.40309128
-0.086697131 0.047070235 0.4028452
-0.086346738 0.047073558 0.40288961
-0.085917197 0.047033578 0.40256333
-0.085530981 0.047017083 0.40243798
-0.085154258 0.047005683 0.40235624
-0.084771752 0.046990987 0.40224615
-0.084400527 0.046982445 0.40218875
-0.084022693 0.04697014 0.40209901
-0.083631411 0.04695018 0.40194371
-0.083259553 0.046940994 0.40188065
-0.082845293 0.046907734 0.40161133
-0.082494549 0.046910301 0.40164873
-0.082093678 0.046884257 0.4014411
-0.081714198 0.046870261 0.40133658
-0.081370093 0.046876524 0.40140542
-0.080953993 0.046841186 0.40111804
-0.080579787 0.046829883 0.40103638
-0.080228619 0.046831928 0.40106896
-0.079834633 0.046808884 0.40088663
-0.079483926 0.046811119 0.40092078
-0.079124279 0.046808098 0.40090981
-0.078776866 0.046812311 0.40096074
-0.078459233 0.046834338 0.40116429
-0.078181848 0.046880703 0.40157622
-0.13776498 0.049511705 0.41812763
-0.1374035 0.049515523 0.41818029
-0.1370528 0.049523246 0.418266
-0.13662998 0.049504887 0.41813132
-0.13624147 0.04949889 0.41810107
-0.13582942 0.049484286 0.41799811
-0.13537592 0.049454462 0.41776651
-0.13491336 0.049421154 0.41750553
-0.13451625 0.04941171 0.41744605
-0.13410516 0.049397051 0.41734257
-0.13368216 0.049377922 0.41720122
-0.13325165 0.049355898 0.41703543
-0.13286322 0.04934939 0.41700068
-0.13246708 0.049339961 0.41694129
-0.13202956 0.049315035 0.41675085
-0.13165715 0.049314357 0.41676536
-0.13122995 0.049293086 0.4166058
-0.13079493 0.04926876 0.41642034
-0.13041474 0.049265001 0.41640872
-0.12998945 0.049244132 0.41625249
-0.12954602 0.049216263 0.41603702
-0.12914318 0.049203698 0.41595086
-0.12870774 0.0491786 0.41575882
-0.12830693 0.049166635 0.41567767
-0.12790903 0.049155712 0.41560534
-0.12749152 0.049137164 0.41546857
-0.12709266 0.049125731 0.41539186
-0.12661198 0.049082503 0.4150463
-0.12622243 0.04907446 0.4149982
-0.12582973 0.049065132 0.41493922
-0.12539572 0.049039595 0.41474316
-0.12496408 0.049014851 0.41455373
-0.12463866 0.049031742 0.41471642
-0.12425547 0.04902593 0.4146871
-0.12389619 0.049029551 0.41473755
-0.12360445 0.049060006 0.41501492
-0.12332276 0.04909464 0.4153277
-0.092843473 0.047654398 0.404504
-0.092492051 0.047657877 0.40455031
-0.092152014 0.047667276 0.40464678
-0.091754779 0.047647037 0.40449169
-0.091373146 0.047634788 0.40440434
-0.090998009 0.047625836 0.40434489
-0.090602212 0.047605958 0.40419266
-0.090216242 0.047591109 0.40408304
-0.08985272 0.047588028 0.4040733
-0.089470074 0.047574751 0.40397695
-0.089059718 0.04754658 0.40375406
-0.088683255 0.047536355 0.40368348
-0.088289164 0.047516547 0.40353149
-0.087903753 0.047501281 0.403418
-0.08752431 0.047489118 0.4033308
-0.087110914 0.047458369 0.40308574
-0.086752981 0.047457702 0.40309608
-0.086399451 0.04745945 0.40312687
-0.085967079 0.047417715 0.40278831
-0.085581437 0.047401529 0.4026666
-0.085175835 0.047374103 0.40244943
-0.084800355 0.04736327 0.40237314
-0.084443413 0.047362745 0.40238434
-0.084063873 0.047349487 0.40228736
-0.083680421 0.0473339 0.40217048
-0.083288468 0.047313355 0.40201145
-0.082912534 0.047301777 0.40192851
-0.082536578 0.047290072 0.4018445
-0.082144693 0.047269117 0.40168178
-0.081768304 0.047256928 0.40159351
-0.081358261 0.047225099 0.40133825
-0.080989175 0.04721687 0.4012835
-0.080623761 0.047210719 0.4012464
-0.080233932 0.047190152 0.40108666
-0.079911008 0.047208935 0.40126133
-0.079499915 0.047175556 0.4009926
-0.079176098 0.047193907 0.40116352
-0.078793958 0.047177505 0.40103894
-0.07852836 0.047231045 0.40150887
-0.078208588 0.047252338 0.40170467
-0.13781826 0.049903575 0.41828197
-0.13748357 0.049917191 0.41841653
-0.13713984 0.049927596 0.41852421
-0.13668545 0.049897652 0.41829357
-0.13631192 0.04989716 0.41830981
-0.13589332 0.049880113 0.41818729
-0.1354308 0.049846809 0.41792843
-0.13504587 0.049841952 0.41790807
-0.13460243 0.049815428 0.41770595
-0.13422504 0.049813256 0.4177081
-0.13373955 0.049770851 0.41737279
-0.13335252 0.04976495 0.41734359
-0.13294828 0.049752567 0.41726002
-0.13251796 0.049730349 0.4170939
-0.13207933 0.049704865 0.4169004
-0.13174306 0.04971787 0.41702965
-0.13133796 0.049704898 0.41694108
-0.13082922 0.049652521 0.41652185
-0.13042137 0.049638249 0.41642228
-0.13002113 0.049626794 0.41634631
-0.12961227 0.049611986 0.41624215
-0.12920097 0.049596138 0.41612929
-0.12878558 0.049578644 0.4160026
-0.12831625 0.049540214 0.41570017
-0.12796038 0.049545489 0.41576445
-0.1275183 0.04951733 0.41554812
-0.1271017 0.049498923 0.41541365
-0.126663 0.049471781 0.41520578
-0.12628204 0.049467098 0.41518641
-0.12594554 0.04947985 0.41531336
-0.12544736 0.049428981 0.41490626
-0.12506834 0.04942489 0.41489175
-0.12466436 0.049410891 0.41479406
-0.12430826 0.049415845 0.41485545
-0.12392478 0.049409904 0.41482538
-0.12361867 0.04943487 0.41505477
-0.1233268 0.049465701 0.41533339
-0.092161238 0.048030797 0.40467864
-0.091793798 0.048026022 0.40465507
-0.091424324 0.048020139 0.40462214
-0.091039672 0.04800621 0.40452135
-0.090622537 0.04797497 0.40427464
-0.090285972 0.047986314 0.40438667
-0.089922197 0.047983218 0.40437701
-0.089485973 0.04794129 0.40404001
-0.089121036 0.047937371 0.40402332
-0.088730954 0.047919843 0.40389183
-0.08832401 0.047893029 0.40368202
-0.087933719 0.047875062 0.40354675
-0.087540068 0.047855109 0.40339473
-0.087194666 0.047861479 0.40346444
-0.086805247 0.047843643 0.40333009
-0.086429261 0.0478331 0.40325713
-0.086018629 0.047803205 0.40302104
-0.085625648 0.04778292 0.40286586
-0.085264884 0.047780514 0.40286136
-0.084870555 0.047759201 0.40269738
-0.084459744 0.047728401 0.40245336
-0.084097363 0.047724821 0.40243879
-0.083729148 0.04771788 0.40239584
-0.083359793 0.047710236 0.40234688
-0.082965702 0.047688298 0.40217736
-0.082549185 0.047653232 0.40189707
-0.082164206 0.047636151 0.40176833
-0.081802018 0.047632188 0.40175021
-0.081426993 0.047620688 0.40166846
-0.081048392 0.047606982 0.40156806
-0.080668382 0.047592327 0.40145957
-0.080306813 0.047588475 0.40144214
-0.07996317 0.047595248 0.40151432
-0.079568349 0.047571491 0.40132886
-0.079202347 0.047564827 0.40128756
-0.078852281 0.047567721 0.40132684
-0.078530319 0.04758767 0.40150994
-0.078211777 0.047609877 0.40171212
-0.1375109 0.050300013 0.41849229
-0.13712905 0.050296541 0.41848382
-0.13676819 0.050300762 0.41853935
-0.13638107 0.050295334 0.41851452
-0.13594204 0.05027068 0.41832975
-0.13545345 0.050227504 0.4179908
-0.13513446 0.050247159 0.41817471
-0.13471584 0.050229769 0.41805032
-0.13423829 0.050190255 0.41774172
-0.13381419 0.050170563 0.41759813
-0.13340986 0.050158191 0.4175154
-0.13300149 0.050144229 0.41741946
-0.13258338 0.050126508 0.41729215
-0.1321238 0.050092965 0.41703311
-0.13175796 0.050094873 0.4170692
-0.13137116 0.050088789 0.41703877
-0.13095427 0.050071184 0.41691229
-0.13048136 0.050031994 0.41660613
-0.13008553 0.050022218 0.41654485
-0.12969361 0.050013896 0.41649562
-0.12922905 0.049977433 0.41621205
-0.1288228 0.049963374 0.41611505
-0.12844704 0.049961094 0.41611609
-0.12798628 0.049925648 0.41584086
-0.12761615 0.04992545 0.41585919
-0.12722252 0.049916025 0.41580069
-0.12681441 0.049900856 0.41569427
-0.12639239 0.04988011 0.41554132
-0.12587342 0.04982087 0.41506773
-0.12550826 0.049822334 0.4150998
-0.12519117 0.049842943 0.41529131
-0.12470985 0.049798101 0.41493753
-0.12433788 0.049796786 0.41494638
-0.12402209 0.049818031 0.41514319
-0.12366358 0.049822196 0.41519767
-0.12331575 0.049830697 0.41528824
-0.12304873 0.049871996 0.41565222
-0.092237957 0.048429821 0.40500674
-0.091869444 0.048424609 0.4049798
-0.091486849 0.048411891 0.40489009
-0.091087982 0.048390444 0.40472722
-0.090707205 0.048378468 0.4046436
-0.09032505 0.048365653 0.40455288
-0.0899496 0.048356351 0.40449148
-0.089529961 0.048323121 0.40422985
-0.089157447 0.04831516 0.4041796
-0.088775031 0.048301745 0.40408364
-0.088366799 0.048274126 0.40386876
-0.087998517 0.048268192 0.4038353
-0.087608099 0.04825002 0.40369937
-0.087197952 0.048220787 0.40347081
-0.086843759 0.048222382 0.40350017
-0.086452708 0.048203446 0.40335765
-0.086052917 0.048179463 0.40317285
-0.085684329 0.048172813 0.40313306
-0.085306928 0.048161138 0.40305114
-0.084939264 0.048154879 0.40301454
-0.084510185 0.048113611 0.40268478
-0.084121004 0.048094802 0.40254301
-0.083764717 0.04809472 0.40255788
-0.083376236 0.048076071 0.40241733
-0.083015725 0.048073467 0.40241098
-0.082644679 0.048064709 0.40235305
-0.082192481 0.048008475 0.40189767
-0.081838228 0.048009213 0.40191913
-0.081477709 0.048006255 0.40190965
-0.081108242 0.047997992 0.40185565
-0.08070112 0.047967266 0.40161353
-0.080326706 0.0479558 0.40153259
-0.079948567 0.047941994 0.40143204
-0.079621814 0.047959022 0.40158957
-0.079252489 0.047950443 0.40153265
-0.078886591 0.047943868 0.40149242
-0.078561358 0.047962058 0.40165961
-0.078230999 0.047977284 0.40180185
-0.13755418 0.050688859 0.4186165
-0.13718204 0.050688993 0.41863799
-0.13681452 0.050690833 0.41867357
-0.13643031 0.05068649 0.41865808
-0.13604519 0.050681781 0.41863957
-0.13561574 0.050660484 0.418484
-0.13520594 0.050646443 0.41838831
-0.13484393 0.050650265 0.41844022
-0.13434342 0.050601941 0.41806129
-0.13392399 0.050583977 0.41793317
-0.13347757 0.050555684 0.41771966
-0.1330425 0.050531548 0.41754049
-0.13264152 0.050520271 0.4174675
-0.13228589 0.050526239 0.41753703
-0.1318069 0.050484993 0.41721639
-0.1313815 0.050464097 0.41706386
-0.13099682 0.050458785 0.41704011
-0.13056393 0.050434805 0.41686207
-0.13014525 0.050416186 0.41672826
-0.12973502 0.05040076 0.41662085
-0.12934904 0.050394692 0.41659072
-0.12890023 0.050364025 0.41635731
-0.12851962 0.05035992 0.41634339
-0.12807269 0.05032973 0.41611379
-0.1276678 0.050315924 0.41601962
-0.12727097 0.050305229 0.41595116
-0.12684283 0.050282061 0.41577953
-0.12643792 0.050268002 0.41568318
-0.12596861 0.050228171 0.41537368
-0.1256109 0.050232742 0.41543132
-0.1252266 0.050226677 0.41540101
-0.12478269 0.050196584 0.41517192
-0.12439715 0.050189871 0.41513622
-0.12400064 0.050178684 0.41506344
-0.12368224 0.050199121 0.41525227
-0.12333272 0.050207023 0.41533738
-0.12300652 0.050224494 0.41550162
-0.092306904 0.04882535 0.40530071
-0.091923311 0.048812222 0.40520841
-0.091522329 0.048789732 0.40503833
-0.091093898 0.04875236 0.40474465
-0.090744548 0.048757199 0.40480131
-0.09033446 0.048729304 0.4045862
-0.089965366 0.048723392 0.4045535
-0.089593858 0.04871612 0.40450948
-0.089199968 0.04869657 0.40436345
-0.08881148 0.048679829 0.4042407
-0.088432148 0.04866799 0.40415856
-0.088046335 0.048652466 0.40404585
-0.087642804 0.048626997 0.40385041
-0.08723405 0.048598405 0.40362898
-0.086888537 0.04860495 0.40369934
-0.086492807 0.048583344 0.40353581
-0.086118765 0.048573796 0.40347245
-0.08572901 0.048555266 0.40333435
-0.085343823 0.048539188 0.40321654
-0.084965475 0.048526868 0.40312994
-0.084574319 0.048507102 0.4029814
-0.084197298 0.048495311 0.40289912
-0.083787717 0.048464596 0.40265948
-0.083410233 0.048452251 0.40257245
-0.083048768 0.048449155 0.40256217
-0.082665883 0.048433483 0.40244731
-0.082272924 0.048411738 0.40228203
