# .PCD v0.7 - Point Cloud Data file format
VERSION 0.7
FIELDS x y z
SIZE 4 4 4
TYPE F F F
COUNT 1 1 1
WIDTH 1289
HEIGHT 1
VIEWPOINT 0 0 0 1 0 0 0
POINTS 1289
DATA ascii
-0.081039496 -0.013128918 0.4780519
-0.080631591 -0.013131166 0.47814971
-0.080166452 -0.013124066 0.47790703
-0.079726443 -0.013121029 0.47781226
-0.079282857 -0.013117367 0.4776946
-0.078870647 -0.013118884 0.47776547
-0.078397632 -0.01311025 0.47746661
-0.077949874 -0.013105769 0.47731891
-0.077489488 -0.013099105 0.47709158
-0.077056631 -0.013097048 0.47703195
-0.076612368 -0.013093017 0.47690043
-0.076184645 -0.013091786 0.47687069
-0.075738728 -0.013087394 0.47672585
-0.07529369 -0.013083109 0.47658479
-0.074861549 -0.013081027 0.47652388
-0.074383765 -0.013070903 0.47616988
-0.073963426 -0.013070814 0.47618145
-0.073540509 -0.013070269 0.47617626
-0.073093154 -0.013065347 0.47601157
-0.072652683 -0.013061605 0.4758898
-0.072207555 -0.01305698 0.47573569
-0.071777433 -0.013055028 0.47567898
-0.071336813 -0.013051132 0.47555134
-0.070872411 -0.013042814 0.47526249
-0.070438296 -0.013040004 0.47517422
-0.070003241 -0.013036988 0.47507834
-0.069573306 -0.01303489 0.47501588
-0.069131322 -0.013030501 0.47486982
-0.068699822 -0.013028042 0.47479403
-0.068249635 -0.01302199 0.4745872
-0.067817405 -0.013019309 0.47450313
-0.067388617 -0.01301726 0.47444203
-0.06693776 -0.013010898 0.47422361
-0.066499412 -0.0130069 0.47409135
-0.066064641 -0.013003558 0.47398281
-0.06564372 -0.013002915 0.47397262
-0.065200135 -0.012997746 0.47379735
-0.064744465 -0.012990087 0.47353128
-0.064333305 -0.012991314 0.473589
-0.063896045 -0.012987253 0.47345388
-0.063451245 -0.012981599 0.47326055
-0.063036054 -0.012981965 0.47328669
-0.062598988 -0.012977802 0.47314757
-0.062199783 -0.012981484 0.47329438
-0.061777882 -0.012980448 0.4732691
-0.0547865 -0.012904973 0.47070545
-0.054386161 -0.012908338 0.47083923
-0.053949758 -0.012903127 0.47066015
-0.053528652 -0.012901522 0.47061256
-0.053075507 -0.012892112 0.47028008
-0.052648179 -0.012888872 0.47017264
-0.052214697 -0.012884066 0.47000793
-0.051794428 -0.012882466 0.46996015
-0.051380377 -0.0128824 0.46996823
-0.050956052 -0.012879736 0.46988142
-0.050542653 -0.012879813 0.46989453
-0.050128195 -0.012879619 0.46989772
-0.049714286 -0.012879565 0.46990585
-0.049301293 -0.01287975 0.4699226
-0.048891161 -0.012880689 0.46996689
-0.048474833 -0.012880001 0.46995166
-0.048069794 -0.012882324 0.47004622
-0.092282012 -0.012803922 0.48128289
-0.091884211 -0.012807705 0.4814429
-0.091422312 -0.012802547 0.48126671
-0.090980351 -0.012800144 0.48119405
-0.090501294 -0.012792477 0.48092338
-0.090055197 -0.012789417 0.48082584
-0.08961612 -0.01278733 0.48076481
-0.089185148 -0.012786386 0.48074669
-0.088738814 -0.012783218 0.48064491
-0.088253163 -0.012774331 0.4803279
-0.087823994 -0.012773572 0.48031652
-0.087374449 -0.012769827 0.48019278
-0.086936124 -0.012767695 0.48012957
-0.086478435 -0.012762682 0.479958
-0.086015888 -0.012756901 0.47975749
-0.085582525 -0.012755411 0.47971824
-0.085109301 -0.012747936 0.4794538
-0.084657446 -0.012743604 0.4793075
-0.084231742 -0.012743185 0.47930825
-0.083784662 -0.01273951 0.47918651
-0.083365165 -0.012740015 0.47922188
-0.082866237 -0.012728322 0.47879836
-0.082429379 -0.012726095 0.47873083
-0.081987441 -0.012723053 0.4786326
-0.081578806 -0.012725176 0.47872853
-0.081103005 -0.012716792 0.47842911
-0.080666654 -0.012714536 0.47836021
-0.080197833 -0.01270711 0.47809672
-0.079741545 -0.012701603 0.4779053
-0.079298854 -0.012698215 0.47779354
-0.078855656 -0.01269471 0.47767729
-0.07844349 -0.012696189 0.47774848
-0.077991515 -0.012691205 0.4775764
-0.077554621 -0.012688636 0.4774951
-0.077080838 -0.012679971 0.47718439
-0.076637603 -0.012676262 0.47706002
-0.076203242 -0.012673988 0.47698966
-0.075767785 -0.012671506 0.47691131
-0.07530506 -0.01266441 0.47665927
-0.074884422 -0.012664353 0.47667205
-0.074428573 -0.012658308 0.47645935
-0.074004099 -0.012657558 0.47644588
-0.073560916 -0.012653581 0.47631091
-0.07311105 -0.012648406 0.47613069
-0.072674543 -0.012645492 0.47603559
-0.072227307 -0.012640668 0.4758684
-0.071799405 -0.012639191 0.47582719
-0.07136023 -0.012635699 0.47571
-0.070922628 -0.012632448 0.47560185
-0.070475191 -0.012627393 0.47542566
-0.070039138 -0.012624333 0.47532445
-0.06959635 -0.012620013 0.47517583
-0.069163226 -0.012617404 0.47509149
-0.068713836 -0.012611778 0.47489345
-0.06827873 -0.01260872 0.47479206
-0.067851111 -0.012607018 0.47474158
-0.067412816 -0.012603296 0.47461501
-0.066968098 -0.01259832 0.47444114
-0.066526212 -0.012593818 0.47428498
-0.066097498 -0.012591767 0.47422108
-0.065659039 -0.012587826 0.47408587
-0.065211356 -0.012582051 0.47388151
-0.064799525 -0.012583163 0.4739365
-0.064338461 -0.012574668 0.47362953
-0.063908339 -0.012572149 0.47354758
-0.063482642 -0.012570472 0.47349727
-0.0630484 -0.012567072 0.47338191
-0.062613405 -0.012563474 0.47325909
-0.062221799 -0.012568593 0.47346449
-0.061789926 -0.012565591 0.47336397
-0.054809906 -0.012495434 0.47090912
-0.054401271 -0.012496824 0.47097263
-0.053964715 -0.012491773 0.47079322
-0.053541627 -0.012489785 0.47072923
-0.053109035 -0.012485533 0.47057974
-0.052671634 -0.012480074 0.47038475
-0.052250285 -0.01247836 0.4703308
-0.05182315 -0.012475228 0.47022334
-0.051382277 -0.012468711 0.46998817
-0.050972447 -0.012469684 0.4700352
-0.050545316 -0.012466405 0.46992189
-0.050133634 -0.012466913 0.46995127
-0.04971569 -0.01246586 0.46992168
-0.049303416 -0.012466222 0.4699454
-0.048893735 -0.012467252 0.46999419
-0.048490006 -0.012469831 0.47010133
-0.048076861 -0.012470011 0.47011793
-0.047673162 -0.012472666 0.47022772
-0.092401192 -0.012394594 0.48190692
-0.09193778 -0.012389484 0.48172602
-0.091465659 -0.012383145 0.48149732
-0.091004997 -0.012378307 0.48132685
-0.090569958 -0.012376926 0.48129067
-0.090121202 -0.012373646 0.4811807
-0.089633539 -0.01236497 0.48086068
-0.089208089 -0.012364834 0.48087278
-0.088781998 -0.012364605 0.48088121
-0.088321984 -0.01235963 0.48070493
-0.087854512 -0.012353558 0.48048589
-0.087393381 -0.012348322 0.48029929
-0.086960778 -0.012347085 0.48026818
-0.086515121 -0.012343974 0.48016408
-0.086052954 -0.012338465 0.47996664
-0.085603416 -0.012334721 0.47983781
-0.085154325 -0.012331006 0.47970992
-0.084713891 -0.01232851 0.47962952
-0.084244534 -0.012321761 0.4793835
-0.083812736 -0.012320467 0.47934958
-0.083359189 -0.012315944 0.47918999
-0.082913592 -0.012312557 0.47907451
-0.082466803 -0.012308955 0.47895062
-0.082017303 -0.01230491 0.47880942
-0.081592135 -0.012304492 0.47880924
-0.081146345 -0.012300945 0.47868726
-0.08068236 -0.012294587 0.47845575
-0.080239132 -0.012291344 0.47834539
-0.079778291 -0.012285352 0.47812799
-0.079348199 -0.012284056 0.47809333
-0.078896336 -0.01227936 0.47792614
-0.07845813 -0.012276748 0.4778401
-0.078023314 -0.012274644 0.47777361
-0.077581733 -0.012271446 0.47766459
-0.077125609 -0.0122659 0.47746402
-0.076695718 -0.012264487 0.47742426
-0.076241083 -0.012259081 0.47722897
-0.075815417 -0.012258299 0.47721362
-0.0753337 -0.012248395 0.47684306
-0.074926488 -0.01225056 0.47694233
-0.074463934 -0.012243652 0.47668815
-0.074058771 -0.012246152 0.47680032
-0.073583536 -0.012237032 0.47645989
-0.073170602 -0.012238224 0.47652093
-0.072715744 -0.012232379 0.4763079
-0.072247341 -0.012224173 0.47600287
-0.071835503 -0.012225499 0.47606885
-0.071392544 -0.012221512 0.47592789
-0.070936017 -0.012215143 0.47569406
-0.070514128 -0.012214698 0.47569087
-0.070064373 -0.012209391 0.47549826
-0.069620319 -0.012205019 0.47534195
-0.069172814 -0.012199988 0.47515985
-0.06873104 -0.012195908 0.47501484
-0.068324558 -0.012198083 0.47511324
-0.067874804 -0.01219251 0.47490981
-0.06743709 -0.012189043 0.47478837
-0.067009158 -0.012187314 0.47473449
-0.06656906 -0.012183337 0.47459298
-0.066114433 -0.01217663 0.47434506
-0.065714121 -0.012179907 0.47448599
-0.065254487 -0.012172161 0.47419736
-0.064803839 -0.012166003 0.47397056
-0.06438075 -0.012164973 0.47394335
-0.063944094 -0.012161345 0.47381499
-0.063488118 -0.012153975 0.47354066
-0.063082196 -0.012156151 0.47363818
-0.062642701 -0.012151842 0.473483
-0.062223386 -0.012151418 0.47347906
-0.061809786 -0.012152112 0.47351858
-0.061463349 -0.01216611 0.47407648
-0.054844532 -0.012088013 0.47120911
-0.0544101 -0.012083686 0.47105151
-0.053978465 -0.01207992 0.47091568
-0.05356124 -0.012079344 0.47090414
-0.053120244 -0.012073357 0.47068155
-0.052687906 -0.012069259 0.47053251
-0.052269172 -0.012068237 0.47050333
-0.051845305 -0.012066005 0.47042686
-0.051420536 -0.012063525 0.47034061
-0.050987978 -0.012059161 0.47018087
-0.050567102 -0.012057512 0.4701269
-0.050134193 -0.012052944 0.46995902
-0.049721573 -0.012053217 0.46997979
-0.049306206 -0.012052824 0.46997452
-0.048899919 -0.012054661 0.47005612
-0.048486911 -0.012054862 0.47007379
-0.048084188 -0.012057642 0.47019204
-0.047670037 -0.012057582 0.47019941
-0.047265891 -0.012060072 0.47030619
-0.092839301 -0.011970357 0.48195693
-0.092405833 -0.01196933 0.48193344
-0.091956399 -0.011966216 0.48182589
-0.091529019 -0.011965958 0.48183322
-0.091043688 -0.011958084 0.48153383
-0.090570398 -0.011951726 0.48129535
-0.090147547 -0.011951996 0.48132369
-0.089712702 -0.011950669 0.48128772
-0.08922933 -0.011942836 0.48098963
-0.088809788 -0.011943512 0.48103416
-0.088335492 -0.011936795 0.48078084
-0.087898202 -0.011935038 0.48072717
-0.087425515 -0.011928434 0.48047826
-0.08697588 -0.011924927 0.48035398
-0.086534724 -0.011922551 0.48027524
-0.086088508 -0.011919456 0.48016733
-0.085672468 -0.011920526 0.48022723
-0.085182898 -0.011911324 0.47987327
-0.084746622 -0.011909521 0.47981724
-0.084294505 -0.011905462 0.47967023
-0.083849929 -0.011902433 0.47956464
-0.083402619 -0.011898982 0.47944203
-0.082950704 -0.011894835 0.47929129
-0.08251337 -0.011892749 0.47922346
-0.082093604 -0.011893187 0.47925723
-0.081585839 -0.011880811 0.4787747
-0.081163526 -0.011880819 0.478791
-0.080723614 -0.011878235 0.47870278
-0.080273569 -0.011874125 0.47855303
-0.079821423 -0.011869662 0.47838891
-0.079378866 -0.011866582 0.47828051
-0.078950532 -0.011865608 0.47825688
-0.078483663 -0.011858799 0.47799802
-0.078041069 -0.011855605 0.47788474
-0.07762076 -0.01185578 0.47790721
-0.077160001 -0.011849747 0.47767931
-0.076727025 -0.011847936 0.47762156
-0.076289274 -0.011845363 0.47753304
-0.075812288 -0.011836637 0.47719628
-0.075372711 -0.011833686 0.47709239
-0.074933715 -0.011830795 0.4769907
-0.074497692 -0.011828342 0.47690672
-0.074056379 -0.011825017 0.47678742
-0.07362926 -0.011823932 0.47675833
-0.07319399 -0.01182152 0.47667569
-0.072730385 -0.011814477 0.47640622
-0.072281331 -0.011809729 0.47622922
-0.071849406 -0.011807741 0.47616339
-0.071410537 -0.011804581 0.47605026
-0.070961766 -0.011799738 0.47586921
-0.070551455 -0.01180127 0.47594509
-0.070099257 -0.011795769 0.47573736
-0.069665939 -0.011793403 0.47565588
-0.069207884 -0.011786791 0.47540313
-0.06876564 -0.01178281 0.47525635
-0.068352439 -0.011783789 0.47530955
-0.06790942 -0.011779604 0.47515443
-0.067445591 -0.011771738 0.47485068
-0.067021489 -0.01177075 0.47482431
-0.066581354 -0.011766914 0.47468299
-0.066158257 -0.011766062 0.47466192
-0.065729357 -0.01176416 0.47459841
-0.065278865 -0.011758343 0.47437695
-0.064831145 -0.011752956 0.47417268
-0.06439811 -0.011750177 0.47407356
-0.063975915 -0.011749352 0.4740532
-0.063530982 -0.011744315 0.47386277
-0.063104503 -0.011742642 0.47380805
-0.062657967 -0.011737192 0.4736008
-0.062232226 -0.011735591 0.47354877
-0.061850067 -0.011742241 0.47382963
-0.061458021 -0.011747091 0.47403777
-0.06105949 -0.01175076 0.47419822
-0.054880507 -0.011680356 0.47152063
-0.054443441 -0.01167567 0.47134256
-0.054010939 -0.011671901 0.47120139
-0.053583357 -0.011669146 0.47110102
-0.053158551 -0.011666954 0.47102338
-0.052729759 -0.011663847 0.4709087
-0.052281853 -0.011656431 0.47061989
-0.051862799 -0.011655378 0.47058794
-0.051428083 -0.011650762 0.47041202
-0.051012702 -0.011650485 0.47041127
-0.050583813 -0.011647095 0.47028467
-0.050153881 -0.011643407 0.47014597
-0.049731225 -0.011641359 0.47007343
-0.049309023 -0.011639385 0.47000372
-0.04889939 -0.011640369 0.47005349
-0.048486434 -0.011640573 0.47007155
-0.04808142 -0.011642703 0.4701674
-0.04767346 -0.011644151 0.47023556
-0.047252178 -0.011642342 0.47017214
-0.093353257 -0.011555377 0.48239812
-0.092899121 -0.011551872 0.48226973
-0.09244664 -0.011548542 0.48214859
-0.091996871 -0.011545521 0.48204026
-0.091556035 -0.011543599 0.48197773
-0.09110368 -0.0115402 0.48185343
-0.090612471 -0.011531822 0.48152125
-0.090171561 -0.011529799 0.48145422
-0.089725606 -0.011527106 0.48135924
-0.089294448 -0.0115263 0.48134291
-0.088848636 -0.011523586 0.48124683
-0.088365391 -0.011515967 0.48094586
-0.087930501 -0.011514603 0.48090613
-0.087490387 -0.011512543 0.48083711
-0.087048113 -0.011510175 0.48075515
-0.086590841 -0.011505791 0.480589
-0.086124137 -0.011500105 0.48036835
-0.085668147 -0.011495799 0.48020527
-0.085230738 -0.011493958 0.48014501
-0.084802248 -0.011493307 0.48013443
-0.084338143 -0.011487797 0.47992083
-0.083866961 -0.011481262 0.47966433
-0.083426915 -0.011478947 0.47958401
-0.082978636 -0.011475469 0.47945499
-0.082529604 -0.01147185 0.47932002
-0.082113907 -0.011472852 0.47937804
-0.081636891 -0.011465252 0.47907659
-0.081186809 -0.011461375 0.47893059
-0.080762021 -0.011461047 0.47893286
-0.080302067 -0.011455701 0.47872528
-0.079868287 -0.011454049 0.47867203
-0.079421982 -0.011450574 0.47854254
-0.07896664 -0.011445752 0.47835669
-0.078545205 -0.011445822 0.47837514
-0.078062899 -0.011436972 0.47802073
-0.07763686 -0.011436315 0.47800869
-0.077204138 -0.01143466 0.47795483
-0.076737806 -0.011427983 0.47769094
-0.076298922 -0.011425342 0.47759575
-0.075864188 -0.011423297 0.47752532
-0.075443387 -0.011423338 0.47754207
-0.074974835 -0.011416109 0.47725478
-0.074526139 -0.011411837 0.47709107
-0.074076802 -0.01140742 0.47692117
-0.07365299 -0.011406904 0.47691432
-0.073208213 -0.011403118 0.47677061
-0.072771162 -0.011400498 0.47667563
-0.072328001 -0.011396887 0.47653905
-0.071892463 -0.011394437 0.47645104
-0.071456626 -0.011391915 0.47635987
-0.070994988 -0.011385224 0.47609425
-0.070556961 -0.011382262 0.47598451
-0.070135556 -0.011381963 0.47598609
-0.069698021 -0.011379027 0.47587723
-0.06923531 -0.01137192 0.47559389
-0.068794101 -0.011368277 0.47545537
-0.068366669 -0.011366882 0.47541079
-0.067938067 -0.011365273 0.47535717
-0.067496344 -0.011361438 0.47521031
-0.067067593 -0.011359752 0.47515327
-0.066603377 -0.011351997 0.47484231
-0.066167079 -0.011348935 0.47472754
-0.065738231 -0.011347119 0.47466481
-0.065314509 -0.011346171 0.47463831
-0.064868562 -0.011341323 0.47444862
-0.06444937 -0.011341123 0.47445321
-0.063990049 -0.01133381 0.47416022
-0.063556433 -0.011330986 0.4740549
-0.063114993 -0.01132672 0.4738892
-0.062678449 -0.011323282 0.47375798
-0.062258977 -0.011322901 0.47375461
-0.061854392 -0.011325242 0.47386509
-0.06144233 -0.011326236 0.47391909
-0.061042797 -0.01132957 0.47407094
-0.060644034 -0.011333093 0.47423062
-0.060224701 -0.011332792 0.47423026
-0.055407532 -0.011287544 0.47246513
-0.0548984 -0.011268442 0.47167668
-0.054457355 -0.011263129 0.47146535
-0.054040164 -0.011262706 0.47145867
-0.053611729 -0.011259915 0.47135276
-0.053178165 -0.011255996 0.47119948
-0.052753046 -0.011253818 0.47111899
-0.052308861 -0.011247504 0.47086534
-0.051885251 -0.011245547 0.47079399
-0.051451765 -0.011241403 0.47063097
-0.051024619 -0.011238589 0.47052354
-0.050600659 -0.011236434 0.47044364
-0.050170578 -0.011232875 0.47030482
-0.049747106 -0.011230746 0.47022587
-0.049325198 -0.01122894 0.47016028
-0.048902571 -0.011226938 0.4700864
-0.048497461 -0.011228955 0.47018075
-0.048081376 -0.011228448 0.47016928
-0.047674865 -0.011230186 0.47025177
-0.047264595 -0.011231059 0.47029796
-0.046866652 -0.011234906 0.47046858
-0.093417071 -0.011136658 0.48273006
-0.092962779 -0.011133299 0.48260242
-0.092478476 -0.011126298 0.48231679
-0.092039883 -0.011124759 0.48226786
-0.091581739 -0.01112083 0.48211524
-0.091122732 -0.011116758 0.48195639
-0.090676978 -0.011114273 0.48186621
-0.090215728 -0.011109857 0.48169222
-0.089769095 -0.011107208 0.48159483
-0.089330345 -0.011105511 0.48153862
-0.0888763 -0.011101888 0.48139882
-0.088397965 -0.011095184 0.4811253
-0.087984636 -0.011096613 0.48120442
-0.087498568 -0.011088837 0.48088425
-0.087043732 -0.011084961 0.48073319
-0.086632855 -0.011086675 0.48082444
-0.086176142 -0.01108251 0.48066062
-0.085717179 -0.011078012 0.48048234
-0.085254312 -0.011072963 0.48028004
-0.084818006 -0.011071332 0.48022589
-0.084365718 -0.011067586 0.48007992
-0.083911903 -0.011063603 0.47992361
-0.083441325 -0.011057355 0.479669
-0.083011709 -0.011056501 0.47964832
-0.082583234 -0.011055791 0.47963372
-0.082129814 -0.011051717 0.47947311
-0.08164762 -0.011043709 0.47914177
-0.081244558 -0.011046375 0.4792735
-0.080757231 -0.011037555 0.47890672
-0.080342874 -0.011038665 0.47897074
-0.079915568 -0.011037998 0.47895762
-0.079455592 -0.011032789 0.47874728
-0.079005003 -0.011028836 0.47859135
-0.07855963 -0.01102557 0.4784652
-0.078110799 -0.011021783 0.47831631
-0.077663131 -0.011018117 0.47817266
-0.077231467 -0.011016696 0.47812629
-0.076790616 -0.011013942 0.47802198
-0.07633736 -0.011009366 0.47783858
-0.075883217 -0.011004612 0.4776473
-0.075460739 -0.011004423 0.4776541
-0.0750117 -0.011000337 0.47749168
-0.074562974 -0.01099625 0.47732913
-0.074121423 -0.010993181 0.47721067
-0.073666319 -0.010988056 0.47700289
-0.073239028 -0.010987042 0.4769735
-0.072796218 -0.010983678 0.47684199
-0.072351731 -0.010980019 0.47669759
-0.071908206 -0.010976463 0.47655755
-0.071478583 -0.010975002 0.47650844
-0.071021296 -0.01096925 0.47627288
-0.070590377 -0.010967528 0.47621223
-0.070155442 -0.010965155 0.47612327
-0.069718964 -0.010962512 0.47602245
-0.069275267 -0.010958695 0.47587061
-0.068831682 -0.010954848 0.47571734
-0.068412051 -0.010954789 0.47572857
-0.067961447 -0.010949741 0.47552302
-0.067513958 -0.010945136 0.47533655
-0.067086563 -0.01094375 0.47528988
-0.066658907 -0.010942304 0.47524044
-0.066206239 -0.010936707 0.47501075
-0.065775558 -0.010934697 0.4749366
-0.065332919 -0.010930656 0.47477433
-0.064896986 -0.010927698 0.47465882
-0.064468026 -0.010925878 0.4745928
-0.064021736 -0.01092108 0.4743973
-0.063574761 -0.010916102 0.47419384
-0.063143305 -0.010913738 0.47410402
-0.062716693 -0.010912187 0.4740493
-0.06228549 -0.010909812 0.47395864
-0.061859939 -0.0109084 0.4739098
-0.061454073 -0.010910464 0.47401187
-0.061039411 -0.010910984 0.47404683
-0.060623743 -0.010911331 0.47407413
-0.060204431 -0.01091102 0.47407287
-0.059812095 -0.01091563 0.47428527
-0.055882439 -0.010882576 0.47295409
-0.055414464 -0.010872478 0.47252646
-0.054920297 -0.010857048 0.47186702
-0.054480735 -0.010852261 0.47167
-0.054057512 -0.010850679 0.47161227
-0.053638019 -0.010849828 0.47158617
-0.053189088 -0.010842961 0.47129852
-0.05277057 -0.010842237 0.47127774
-0.052341934 -0.010839405 0.47116527
-0.051914539 -0.010836786 0.471062
-0.05147725 -0.010832042 0.47086629
-0.051046535 -0.010828619 0.47072783
-0.05061467 -0.01082489 0.47057611
-0.050185796 -0.010821747 0.47044969
-0.049759496 -0.010819111 0.4703452
-0.049343467 -0.010818684 0.47033668
-0.048923738 -0.01081743 0.47029209
-0.048498672 -0.010814964 0.47019476
-0.048091117 -0.010816396 0.47026679
-0.047683194 -0.010817767 0.47033611
-0.047267787 -0.010817451 0.47033203
-0.046864346 -0.010819891 0.47044763
-0.093871616 -0.010713268 0.4828597
-0.093420625 -0.010710446 0.48275048
-0.092959769 -0.010706463 0.48258886
-0.092519797 -0.010704858 0.48253438
-0.092087574 -0.010704141 0.48251984
-0.091615766 -0.010698792 0.48229644
-0.091165975 -0.010695977 0.48218718
-0.090716235 -0.010693142 0.48207694
-0.090271465 -0.010690867 0.48199195
-0.089812696 -0.010686908 0.48183081
-0.089366339 -0.010684394 0.48173481
-0.088916481 -0.010681434 0.48161864
-0.088436551 -0.010674817 0.48133749
-0.088029839 -0.010677014 0.48145375
-0.087542593 -0.01066942 0.48112831
-0.087117292 -0.010669337 0.48114157
-0.086636946 -0.010662479 0.48084924
-0.086216271 -0.010662934 0.48088655
-0.085766941 -0.010659832 0.48076344
-0.085312545 -0.010656064 0.48061022
-0.084849097 -0.010651124 0.48040402
-0.084419154 -0.01065036 0.48038611
-0.083955862 -0.010645363 0.48017716
-0.0834997 -0.01064122 0.48000672
-0.083028771 -0.010635146 0.47974899
-0.082589358 -0.010633065 0.47967139
-0.082142249 -0.010629969 0.47954786
-0.081712902 -0.010629149 0.47952697
-0.081263527 -0.010625703 0.47938752
-0.080819413 -0.010622913 0.47927755
-0.080360129 -0.010618089 0.47907573
-0.079917572 -0.010615434 0.47897181
-0.079479538 -0.010613357 0.47889373
-0.079030976 -0.010609843 0.47875082
-0.07856375 -0.010603772 0.47849244
-0.078134686 -0.010602816 0.47846472
-0.077690609 -0.010599798 0.47834393
-0.077272967 -0.010600376 0.47838533
-0.076804139 -0.010593899 0.47810829
-0.0763679 -0.010591869 0.47803187
-0.075918101 -0.010587927 0.47786897
-0.075468838 -0.010584018 0.47770756
-0.075043045 -0.010583372 0.47769332
-0.074593529 -0.010579355 0.47752687
-0.074161611 -0.010577803 0.47747159
-0.07371407 -0.010573991 0.4773142
-0.07326939 -0.010570548 0.47717339
-0.07280793 -0.010564633 0.47692087
-0.072380409 -0.010563599 0.47688869
-0.071960807 -0.010563717 0.47690839
-0.071499579 -0.01055769 0.47665054
-0.071066029 -0.010555703 0.47657508
-0.070615381 -0.010551136 0.47638303
-0.07018581 -0.010549685 0.4763315
-0.069746599 -0.010546757 0.47621328
-0.069299206 -0.01054255 0.47603723
-0.068865798 -0.01054043 0.47595528
-0.068437345 -0.010539049 0.47590667
-0.067979865 -0.010533152 0.47565407
-0.067542337 -0.010530292 0.47553849
-0.067113787 -0.010528808 0.47548491
-0.06666299 -0.01052379 0.47527167
-0.066240795 -0.010523253 0.47526076
-0.065804131 -0.010520398 0.47514507
-0.065355055 -0.010515507 0.47493738
-0.064923257 -0.010513352 0.47485307
-0.064497381 -0.010512136 0.47481111
-0.064058885 -0.010508829 0.4746747
-0.063614756 -0.010504552 0.47449428
-0.063174687 -0.010500894 0.47434181
-0.062730677 -0.010496524 0.47415709
-0.06230754 -0.010495614 0.47412857
-0.061872102 -0.010492605 0.47400513
-0.061450947 -0.010491995 0.47398996
-0.061028812 -0.010491206 0.47396672
-0.060621534 -0.010492979 0.47405902
-0.060209263 -0.010493906 0.47411311
-0.059800513 -0.010495465 0.47419563
-0.059412796 -0.010500763 0.47444698
-0.056793086 -0.010480038 0.4735809
-0.056352153 -0.010475603 0.47339195
-0.055884011 -0.010466006 0.47296953
-0.055390034 -0.010451389 0.47232029
-0.054928355 -0.010442693 0.4719384
-0.054502983 -0.01044082 0.47186482
-0.054076415 -0.010438684 0.47177932
-0.053651463 -0.010436831 0.47170648
-0.053207286 -0.010431183 0.47146195
-0.052791175 -0.010430987 0.47146389
-0.05236762 -0.010429308 0.47139862
-0.051931422 -0.010425064 0.47121733
-0.051508948 -0.01042353 0.47115844
-0.051075164 -0.010419661 0.47099403
-0.050627816 -0.010412941 0.4707005
-0.050212491 -0.01041275 0.47070208
-0.049779553 -0.010408873 0.47053692
-0.049361195 -0.010408005 0.47050774
-0.048931029 -0.010404613 0.47036433
-0.048507653 -0.010402616 0.47028399
-0.048092131 -0.010402285 0.4702788
-0.04768135 -0.010402985 0.47032014
-0.047271121 -0.010403817 0.47036734
-0.046857927 -0.010404005 0.47038537
-0.046461068 -0.010407855 0.4705689
-0.045630716 -0.010407411 0.47056746
-0.093928091 -0.010292712 0.48315224
-0.093448453 -0.010286878 0.48289639
-0.093025878 -0.010287298 0.48293409
-0.092574589 -0.010284535 0.48282221
-0.092107557 -0.010279987 0.48262653
-0.091667965 -0.010278476 0.4825733
-0.091195218 -0.010273215 0.48234391
-0.090753287 -0.010271393 0.48227587
-0.090292796 -0.010267441 0.48210785
-0.089852594 -0.010265772 0.48204687
-0.089388594 -0.010261353 0.48185679
-0.088926248 -0.010257084 0.48167354
-0.088490896 -0.010255903 0.48163527
-0.088056229 -0.010254788 0.48160011
-0.087592378 -0.010250249 0.48140395
-0.087138854 -0.01024688 0.48126271
-0.086660899 -0.01024059 0.48098418
-0.086237498 -0.010240717 0.48100698
-0.085777543 -0.010236484 0.48082489
-0.085344486 -0.010235433 0.48079219
-0.084896021 -0.010232515 0.48067176
-0.084431499 -0.010227622 0.48045847
-0.083998322 -0.010226496 0.48042202
-0.083536707 -0.010221878 0.48022151
-0.08310008 -0.010220288 0.4801631
-0.082657896 -0.010217994 0.48007151
-0.082188927 -0.010212348 0.47982243
-0.081745468 -0.01020983 0.47972015
-0.081300743 -0.010207127 0.47960916
-0.080836862 -0.010201975 0.47938305
-0.080409884 -0.010201453 0.47937438
-0.07996358 -0.010198462 0.47924957
-0.079508215 -0.010194276 0.47906858
-0.079078086 -0.010193297 0.47903821
-0.078617185 -0.010188323 0.47881994
-0.078177869 -0.010186105 0.47873122
-0.07772845 -0.010182538 0.47857898
-0.077293232 -0.010180805 0.47851288
-0.076840885 -0.010176783 0.47833902
-0.076410301 -0.010175616 0.47829935
-0.075948551 -0.010170263 0.47806278
-0.075512812 -0.010168351 0.47798792
-0.075061917 -0.010164367 0.47781551
-0.074636765 -0.010163842 0.4778057
-0.074196823 -0.010161286 0.47770032
-0.073739305 -0.010156279 0.47747964
-0.073311791 -0.010155371 0.47745159
-0.072857998 -0.010150794 0.47725087
-0.072416902 -0.010147941 0.47713119
-0.071962163 -0.010143132 0.47691947
-0.071539789 -0.010142854 0.47692069
-0.071078859 -0.010137075 0.47666311
-0.070645049 -0.010135119 0.47658524
-0.070212469 -0.010133315 0.47651449
-0.069764607 -0.010129272 0.47633836
-0.069337942 -0.010128275 0.47630537
-0.068904921 -0.010126332 0.47622776
-0.068450905 -0.010121262 0.47600302
-0.068006709 -0.010117588 0.47584394
-0.067575768 -0.010115854 0.4757759
-0.067128427 -0.010111631 0.47559071
-0.066703491 -0.010110746 0.47556257
-0.066269942 -0.010108539 0.47547203
-0.065822579 -0.010104181 0.47528031
-0.065381467 -0.010100735 0.47513133
-0.064956419 -0.010099742 0.47509769
-0.064531274 -0.010098721 0.47506261
-0.064073794 -0.010092591 0.47478724
-0.063636974 -0.010089659 0.4746621
-0.063187346 -0.010084643 0.47443888
-0.062777705 -0.010085984 0.47451466
-0.062328231 -0.010080901 0.47428805
-0.061901234 -0.01007941 0.47423038
-0.061456423 -0.010074978 0.47403431
-0.061034638 -0.010074287 0.47401404
-0.06061833 -0.010074493 0.47403604
-0.060198989 -0.010074197 0.47403431
-0.059787288 -0.010075185 0.47409284
-0.059396159 -0.010079676 0.47431621
-0.058994859 -0.010082493 0.47446069
-0.058567218 -0.010080817 0.47439367
-0.058139529 -0.010079108 0.474325
-0.057255477 -0.010070573 0.4739466
-0.056780837 -0.010060431 0.47348082
-0.05634113 -0.010056376 0.47330138
-0.055865262 -0.010045758 0.47281295
-0.055393361 -0.010035697 0.47235072
-0.054963633 -0.010033185 0.47224361
-0.054543827 -0.010032457 0.47222045
-0.054119755 -0.01003093 0.4721595
-0.053672411 -0.010025031 0.47189274
-0.053237252 -0.010021334 0.47172952
-0.052814048 -0.010019847 0.47167027
-0.052377481 -0.01001578 0.47148946
-0.051955212 -0.010014405 0.47143531
-0.051519796 -0.010010454 0.47125974
-0.051096171 -0.010008748 0.47118983
-0.050672077 -0.01000692 0.47111407
-0.050231069 -0.010001696 0.4708783
-0.049801566 -0.0099986931 0.47074711
-0.049380239 -0.0099972961 0.47069135
-0.048941709 -0.0099923629 0.47046903
-0.048523881 -0.0099916095 0.4704434
-0.048101217 -0.0099898363 0.47036976
-0.047684506 -0.0099892803 0.47035328
-0.047272757 -0.0099897645 0.47038564
-0.046865895 -0.0099912984 0.47046742
-0.046453249 -0.0099916151 0.47049177
-0.046055231 -0.0099951141 0.4706659
-0.045625914 -0.00999182 0.47052005
-0.094393834 -0.0098697962 0.48333636
-0.093950376 -0.0098680491 0.4832688
-0.093517967 -0.0098674512 0.4832575
-0.093055137 -0.0098636216 0.48308796
-0.092600167 -0.0098605948 0.48295754
-0.092152573 -0.0098583307 0.48286438
-0.091698594 -0.0098553561 0.48273641
-0.091218635 -0.0098495511 0.48246971
-0.090797506 -0.0098500727 0.48251283
-0.090324655 -0.0098449616 0.4822799
-0.089874402 -0.0098422766 0.48216584
-0.089441672 -0.0098414943 0.48214483
-0.088963911 -0.0098357257 0.4818795
-0.088526018 -0.0098343315 0.48182839
-0.088074923 -0.0098314499 0.48170429
-0.087625675 -0.0098287473 0.48158893
-0.087191239 -0.0098276874 0.48155394
-0.086721197 -0.0098225838 0.4813208
-0.086260974 -0.0098185483 0.48113987
-0.085815288 -0.0098161353 0.48103839
-0.0853846 -0.0098154219 0.48102015
-0.084934399 -0.0098124472 0.48089096
-0.084471352 -0.0098079517 0.4806872
-0.084032185 -0.009806199 0.4806177
-0.083552606 -0.0097996853 0.48031485
-0.083114706 -0.0097980201 0.48024955
-0.082699351 -0.0097990083 0.4803142
-0.082226448 -0.009793154 0.48004338
-0.081765831 -0.0097887097 0.47984162
-0.081335135 -0.0097878203 0.47981399
-0.080877163 -0.0097836209 0.47962406
-0.080455989 -0.0097838519 0.47965121
-0.079990022 -0.0097786104 0.47941002
-0.079540767 -0.0097753648 0.47926664
-0.079123378 -0.0097760241 0.47931457
-0.078663133 -0.0097713657 0.47910172
-0.078224391 -0.0097693438 0.479018
-0.077764787 -0.0097646788 0.47880468
-0.077318944 -0.0097617023 0.47867402
-0.076899432 -0.0097620329 0.47870547
-0.076440439 -0.0097573288 0.47848994
-0.075988226 -0.0097534433 0.47831449
-0.075530119 -0.0097487522 0.47809947
-0.075089939 -0.0097463364 0.47799584
-0.07465522 -0.009744606 0.47792581
-0.074211933 -0.009741731 0.47779956
-0.073759399 -0.0097376024 0.47761175
-0.073340006 -0.009737826 0.47763735
-0.072889641 -0.0097339163 0.47746009
-0.072432399 -0.009729038 0.47723526
-0.072009742 -0.0097287772 0.47723675
-0.071577102 -0.009727153 0.47717142
-0.071116365 -0.0097216694 0.47691661
-0.070688106 -0.0097205881 0.47687766
-0.070237525 -0.0097164046 0.47668651
-0.069804765 -0.0097146519 0.47661451
-0.069362499 -0.0097115468 0.47647598
-0.068906516 -0.009706472 0.47624081
-0.068488464 -0.0097067086 0.47626618
-0.068058617 -0.0097052678 0.4762091
-0.067616776 -0.0097020883 0.47606665
-0.067162149 -0.0096970238 0.47583154
-0.066739343 -0.0096965181 0.47582015
-0.066288747 -0.0096919425 0.47560897
-0.065853216 -0.0096895248 0.47550353
-0.065417357 -0.0096870279 0.47539419
-0.0649627 -0.0096816989 0.47514567
-0.064547248 -0.0096821794 0.47518227
-0.064105526 -0.0096786991 0.47502434
-0.06367512 -0.0096768942 0.47494861
-0.063225396 -0.0096721118 0.47472659
-0.062792361 -0.0096698329 0.47462744
-0.062360052 -0.0096676368 0.47453219
-0.061916478 -0.0096636536 0.47434914
-0.061483126 -0.0096612228 0.47424221
-0.061040603 -0.0096573066 0.47406235
-0.060619488 -0.0096567469 0.47404712
-0.060196385 -0.0096558612 0.47401574
-0.059786893 -0.0096571604 0.47409165
-0.059373815 -0.0096578961 0.47413975
-0.058972929 -0.0096606379 0.47428629
-0.058553815 -0.0096604116 0.47428706
-0.058121633 -0.0096580125 0.47418097
-0.05766375 -0.0096512763 0.4738619
-0.057219815 -0.009646792 0.47365335
-0.056775238 -0.0096421344 0.47343612
-0.056333832 -0.0096379491 0.47324207
-0.05584991 -0.0096263746 0.47268501
-0.055419669 -0.0096239485 0.4725771
-0.05497716 -0.0096193375 0.47236183
-0.054563973 -0.0096198255 0.47239685
-0.054117892 -0.0096144779 0.47214523
-0.053698737 -0.0096138688 0.47212622
-0.053255025 -0.0096088182 0.47188902
-0.052830603 -0.0096071968 0.47182009
-0.052409805 -0.0096062133 0.47178248
-0.051978339 -0.0096032443 0.47164714
-0.05154511 -0.0095998971 0.47149324
-0.051108867 -0.0095959324 0.47130886
-0.05068896 -0.0095949927 0.47127303
-0.050256655 -0.0095916707 0.47112012
-0.049821503 -0.009587748 0.47093752
-0.049397178 -0.0095858593 0.47085479
-0.04896922 -0.0095832273 0.47073546
-0.048534099 -0.0095791379 0.47054446
-0.048123583 -0.0095798755 0.47059047
-0.047696933 -0.009577387 0.47047788
-0.04728435 -0.0095777027 0.47050303
-0.046869982 -0.0095776608 0.47051045
-0.046468161 -0.0095802033 0.47064483
-0.046052676 -0.00957995 0.47064176
-0.045643084 -0.0095809298 0.47069913
-0.045243584 -0.0095840627 0.47086227
-0.094475724 -0.0094508072 0.4837575
-0.093500637 -0.0094386218 0.48316979
-0.093089886 -0.0094402339 0.4832702
-0.09263324 -0.009437182 0.48313186
-0.092189044 -0.0094353799 0.48305732
-0.091752812 -0.0094343787 0.48302373
-0.091277868 -0.0094293682 0.48278484
-0.090814874 -0.0094255498 0.48260695
-0.090381399 -0.0094247758 0.48258474
-0.089916326 -0.0094206827 0.48239261
-0.089480944 -0.0094196768 0.48235837
-0.089032464 -0.009417274 0.48225269
-0.088556699 -0.0094119515 0.48199725
-0.088116951 -0.0094104214 0.48193604
-0.087665267 -0.0094075967 0.48180842
-0.087207891 -0.0094041303 0.48164779
-0.086762257 -0.0094019026 0.4815506
-0.086299323 -0.0093977684 0.4813557
-0.085872605 -0.0093975551 0.48136154
-0.08542113 -0.0093946187 0.48122782
-0.084944442 -0.0093888678 0.48094973
-0.084500194 -0.0093866596 0.48085317
-0.084068656 -0.0093858493 0.48082814
-0.08359579 -0.0093803918 0.48056495
-0.083161473 -0.0093792295 0.48052168
-0.082712844 -0.0093764309 0.48039451
-0.08225964 -0.0093730818 0.48023906
-0.081808381 -0.0093699219 0.48009321
-0.081369326 -0.0093681328 0.48001754
-0.080921814 -0.0093653463 0.4798907
-0.080461614 -0.0093610557 0.47968671
-0.080027603 -0.0093597826 0.47963718
-0.079574302 -0.0093562249 0.47947061
-0.07914304 -0.0093552368 0.47943556
-0.078700632 -0.0093529141 0.47933203
-0.078262195 -0.0093510393 0.47925141
-0.077809744 -0.0093474602 0.47908342
-0.077349581 -0.0093429117 0.47886553
-0.076932617 -0.0093435589 0.47891396
-0.076455936 -0.0093369195 0.47858882
-0.076026745 -0.0093360413 0.47855881
-0.075577922 -0.0093327267 0.4784039
-0.075122505 -0.0093285572 0.47820508
-0.07466235 -0.0093237488 0.47797343
-0.074248776 -0.0093247341 0.4780387
-0.073793508 -0.0093204649 0.47783449
-0.073364757 -0.0093195159 0.47780046
-0.07291244 -0.0093155438 0.47761133
-0.072468109 -0.0093125533 0.47747245
-0.072029345 -0.0093102474 0.47736853
-0.071597233 -0.0093087787 0.47730753
-0.071144685 -0.0093046194 0.47710845
-0.070701852 -0.0093016895 0.47697228
-0.070279002 -0.00930137 0.4769699
-0.069836311 -0.0092984028 0.47683179
-0.06938339 -0.0092940312 0.47662142
-0.068945393 -0.0092916163 0.47651142
-0.068489335 -0.0092867212 0.4762741
-0.068077981 -0.0092878677 0.47634649
-0.067634448 -0.0092846099 0.47619295
-0.067197651 -0.0092822416 0.47608495
-0.066765837 -0.0092805363 0.47601092
-0.066318788 -0.0092766788 0.47582632
-0.06588307 -0.0092743672 0.47572097
-0.065426387 -0.009269055 0.47546169
-0.065008223 -0.0092691677 0.4754805
-0.064545393 -0.009262871 0.47517046
-0.064129077 -0.00926321 0.47520077
-0.063699171 -0.0092615793 0.4751299
-0.063258938 -0.0092584155 0.47498035
-0.062816538 -0.0092548896 0.47481206
-0.0623799 -0.009252172 0.47468519
-0.061947383 -0.0092500299 0.47458783
-0.06151427 -0.0092477715 0.47448435
-0.061077822 -0.0092449756 0.47435328
-0.060627621 -0.0092400471 0.47411257
-0.060199495 -0.0092384387 0.47404221
-0.059788737 -0.0092394892 0.47410819
-0.059358254 -0.0092374869 0.47401738
-0.058942527 -0.0092377672 0.47404373
-0.058521744 -0.009237254 0.47402921
-0.058086958 -0.0092345076 0.47389999
-0.057622064 -0.0092269005 0.4735212
-0.057181727 -0.0092231426 0.47334
-0.056757405 -0.0092219319 0.47328931
-0.056316011 -0.0092179086 0.47309422
-0.055890109 -0.0092163803 0.47302714
-0.055439543 -0.0092107328 0.47274846
-0.055002473 -0.0092072561 0.47258118
-0.054572992 -0.0092050089 0.47247687
-0.054151144 -0.0092040226 0.47243723
-0.053716786 -0.0092008803 0.47228676
-0.053280789 -0.0091974037 0.47211921
-0.052864008 -0.0091972174 0.47212031
-0.052427702 -0.0091936039 0.47194543
-0.051985972 -0.0091889733 0.47171828
-0.051569801 -0.0091888234 0.47172105
-0.051129881 -0.0091844043 0.47150454
-0.050716579 -0.0091847321 0.47153175
-0.050274014 -0.0091797234 0.47128475
-0.0498464 -0.0091773849 0.47117481
-0.0494246 -0.0091760848 0.47111806
-0.048982885 -0.0091710351 0.47086874
-0.048555478 -0.0091685997 0.47075364
-0.048130028 -0.0091664959 0.47065535
-0.047718246 -0.009166983 0.47069001
-0.047296271 -0.0091655012 0.47062352
-0.046871748 -0.0091634952 0.47053006
-0.046464168 -0.0091647953 0.47060627
-0.046052407 -0.009165287 0.47064087
-0.045640621 -0.0091657825 0.47067556
-0.045238297 -0.0091682049 0.47080916
-0.0949369 -0.0090264864 0.48391438
-0.0945151 -0.0090270163 0.4839609
-0.094064228 -0.0090247625 0.48385808
-0.093571648 -0.0090184668 0.48353851
-0.09312804 -0.0090168575 0.48347005
-0.092680342 -0.0090148319 0.48337933
-0.09219835 -0.0090094376 0.48310784
-0.091791026 -0.0090113226 0.48322666
-0.091282763 -0.0090032713 0.48281246
-0.090843856 -0.0090020169 0.48276275
-0.090379357 -0.0089982022 0.48257565
-0.089952521 -0.0089981193 0.48258856
-0.089514375 -0.0089968974 0.48254037
-0.089051917 -0.0089932112 0.48235989
-0.088610239 -0.0089915954 0.48229045
-0.088146679 -0.0089877341 0.4821004
-0.087680124 -0.0089835273 0.48189181
-0.087254882 -0.0089835338 0.48190913
-0.08681199 -0.0089817131 0.48182836
-0.086339518 -0.0089768013 0.4815816
-0.085888416 -0.0089740725 0.48145199
-0.085433461 -0.0089709125 0.4812991
-0.085002482 -0.0089702494 0.48128012
-0.08456628 -0.0089690266 0.48123103
-0.084107578 -0.0089653935 0.48105252
-0.08366257 -0.00896319 0.48095068
-0.083206519 -0.0089597758 0.48078376
-0.082744546 -0.0089556836 0.48058042
-0.082304083 -0.0089538908 0.48050034
-0.08184424 -0.0089499606 0.48030546
-0.08141014 -0.0089488169 0.4802601
-0.080959536 -0.0089458385 0.48011619
-0.080490775 -0.0089408131 0.4798623
-0.080052756 -0.0089391684 0.47978973
-0.079609022 -0.0089368634 0.47968167
-0.079169206 -0.0089349737 0.47959587
-0.078721598 -0.0089321807 0.47946149
-0.078269184 -0.0089288093 0.47929597
-0.077828459 -0.0089267436 0.47920045
-0.077383317 -0.0089241434 0.47907618
-0.07695403 -0.0089233564 0.47904912
-0.076498643 -0.0089195138 0.47885796
-0.076060779 -0.0089176856 0.47877488
-0.075595245 -0.0089125736 0.47851542
-0.075161763 -0.0089112055 0.47845683
-0.074708767 -0.0089074923 0.47827232
-0.074283361 -0.0089070471 0.47826314
-0.073817335 -0.0089016985 0.4779906
-0.073382959 -0.0089001264 0.4779208
-0.072943859 -0.0088979611 0.47781894
-0.072490402 -0.0088940086 0.47762117
-0.072053812 -0.0088920891 0.47753248
-0.071624391 -0.0088910395 0.47749037
-0.071179077 -0.0088879932 0.47734088
-0.070742399 -0.0088859936 0.47724766
-0.070272766 -0.0088798078 0.47692943
-0.06984783 -0.0088792276 0.47691223
-0.069404118 -0.0088762399 0.47676563
-0.068963386 -0.0088735977 0.47663751
-0.068528414 -0.0088716708 0.47654766
-0.068084605 -0.0088685686 0.47639465
-0.067656755 -0.008867519 0.47635183
-0.067208141 -0.0088637182 0.47616109
-0.066789038 -0.0088637862 0.47617817
-0.066325843 -0.0088579655 0.47587878
-0.065903366 -0.0088575445 0.47586936
-0.065473989 -0.0088561848 0.47580945
-0.065029263 -0.0088527175 0.47563621
-0.064597882 -0.0088510346 0.47555876
-0.064163424 -0.0088489028 0.47545713
-0.063708782 -0.0088439435 0.47520345
-0.063283794 -0.0088430606 0.47516876
-0.062840834 -0.0088396389 0.47499749
-0.062411822 -0.008838146 0.47492987
-0.061974157 -0.0088354005 0.47479478
-0.061547048 -0.0088341311 0.47473896
-0.061113145 -0.0088318642 0.47462946
-0.06067811 -0.008829399 0.47450921
-0.06021696 -0.0088230753 0.47418147
-0.059791099 -0.0088218702 0.47412875
-0.059365354 -0.0088206632 0.47407588
-0.058940936 -0.0088196388 0.47403276
-0.058521576 -0.0088193631 0.47402966
-0.058054257 -0.0088118007 0.47363502
-0.057626739 -0.0088102166 0.4735615
-0.057198793 -0.008808542 0.47348303
-0.056757476 -0.0088047702 0.47329175
-0.056342103 -0.0088049946 0.47331524
-0.055910897 -0.0088027315 0.47320485
-0.055478938 -0.0088003157 0.47308621
-0.055026028 -0.0087945126 0.47278541
-0.054578017 -0.0087894108 0.4725222
-0.054164149 -0.0087897722 0.47255254
-0.053736821 -0.0087879375 0.47246474
-0.053314548 -0.0087869065 0.47242016
-0.052875478 -0.0087830694 0.47222459
-0.052449707 -0.0087813977 0.47214535
-0.052027158 -0.0087802429 0.47209382
-0.05158053 -0.0087749735 0.47182095
-0.05114761 -0.0087719718 0.47166982
-0.050715603 -0.0087690763 0.47152445
-0.050291155 -0.0087674502 0.47144723
-0.049879793 -0.0087680984 0.47149223
-0.049436554 -0.0087631075 0.47123384
-0.049014598 -0.0087618362 0.4711754
-0.048585355 -0.0087592285 0.47104508
-0.048154894 -0.0087563563 0.47090036
-0.047725737 -0.0087536732 0.47076571
-0.047302477 -0.0087520322 0.47068709
-0.046887252 -0.0087518627 0.47068751
-0.046465196 -0.0087504042 0.47061846
-0.046055492 -0.0087512666 0.47067419
-0.045650091 -0.00875297 0.47077504
-0.045238715 -0.0087535484 0.47081536
-0.044840921 -0.0087567894 0.47099873
-0.095016435 -0.0086059868 0.48432148
-0.09453854 -0.0086014196 0.48408258
-0.094093971 -0.0085998597 0.48401275
-0.093616307 -0.008595245 0.48377103
-0.093193687 -0.0085956641 0.48381254
-0.092699222 -0.0085894307 0.4834795
-0.092235386 -0.0085859913 0.48330364
-0.091805138 -0.0085856607 0.48330268
-0.090410471 -0.0085747931 0.48274347
-0.089954399 -0.0085719414 0.48260033
-0.089520678 -0.0085712029 0.48257604
-0.089076139 -0.0085694166 0.48249274
-0.088632904 -0.0085677393 0.48241547
-0.088198714 -0.0085669253 0.48238668
-0.087741949 -0.0085639004 0.48223335
-0.087305568 -0.0085628415 0.48219073
-0.086836383 -0.0085585425 0.48196548
-0.086375237 -0.008554996 0.48178256
-0.085923806 -0.0085523818 0.48165208
-0.085494213 -0.0085519245 0.48164299
-0.085025713 -0.0085475519 0.48141336
-0.084582709 -0.0085457135 0.48132625
-0.08414001 -0.0085438853 0.48123971
-0.083668917 -0.0085391412 0.48098886
-0.083229691 -0.0085376184 0.48091933
-0.08276616 -0.0085335718 0.48070768
-0.08232002 -0.0085312882 0.48059508
-0.081882775 -0.0085299052 0.48053327
-0.081436276 -0.0085275415 0.48041606
-0.080985971 -0.0085247494 0.48027468
-0.080555938 -0.0085240752 0.4802525
-0.080117203 -0.0085224668 0.48017767
-0.079652809 -0.0085180979 0.47994718
-0.079205506 -0.00851552 0.47981751
-0.078741893 -0.0085111512 0.47958681
-0.07831841 -0.0085110962 0.47959915
-0.07786037 -0.0085072638 0.47939858
-0.077402927 -0.0085034575 0.47919932
-0.076979309 -0.0085033439 0.47920814
-0.076529384 -0.0085003069 0.47905213
-0.076083668 -0.0084977057 0.47892064
-0.075644262 -0.0084957862 0.47882739
-0.075192451 -0.0084924418 0.47865385
-0.074735634 -0.008488493 0.47844604
-0.074300505 -0.0084869759 0.47837526
-0.073861577 -0.0084850052 0.47827888
-0.073428035 -0.0084836334 0.47821605
-0.072968118 -0.0084791817 0.4779796
-0.072533272 -0.0084776068 0.47790527
-0.072093301 -0.0084754126 0.47779593
-0.071632713 -0.0084707551 0.47754759
-0.071193717 -0.0084686093 0.4774408
-0.070761554 -0.0084672552 0.47737861
-0.07029862 -0.0084621832 0.4771066
-0.06987866 -0.008462253 0.47712448
-0.06943877 -0.008459894 0.47700536
-0.068989761 -0.0084563904 0.47682157
-0.068561152 -0.0084553584 0.47677708
-0.068107404 -0.0084511954 0.47655597
-0.067684762 -0.0084508639 0.47655076
-0.067243554 -0.0084481966 0.47641379
-0.066802368 -0.0084454967 0.47627491
-0.066363066 -0.0084430035 0.47614762
-0.065931723 -0.0084414966 0.47607586
-0.065478787 -0.0084371893 0.47584608
-0.065059833 -0.0084372321 0.47586155
-0.06462802 -0.0084355986 0.47578231
-0.064180031 -0.0084318174 0.47558197
-0.063744351 -0.0084296139 0.47547045
-0.063309126 -0.0084274421 0.47536066
-0.062882297 -0.0084263664 0.47531268
-0.062421352 -0.0084206751 0.47500414
-0.061991062 -0.0084190685 0.47492602
-0.061575901 -0.00841951 0.47496328
-0.061105613 -0.0084123667 0.47457266
-0.060693648 -0.0084132105 0.47463247
-0.060247671 -0.0084093185 0.47442505
-0.059813078 -0.0084069734 0.47430477
-0.059386984 -0.0084057972 0.47425038
-0.058960684 -0.0084045744 0.47419327
-0.058532383 -0.0084030479 0.47411892
-0.058093209 -0.0083999261 0.47395453
-0.057637915 -0.0083944118 0.47365505
-0.057207715 -0.0083924988 0.47355866
-0.056778003 -0.0083906297 0.47346464
-0.056345753 -0.0083883554 0.47334766
-0.055939294 -0.0083899144 0.47344697
-0.055495191 -0.0083858091 0.47322649
-0.055032447 -0.0083788047 0.47284231
-0.05460465 -0.0083770519 0.47275448
-0.054188959 -0.008377146 0.47277075
-0.053747471 -0.0083732214 0.47256014
-0.053342965 -0.0083750421 0.47267368
-0.052899782 -0.0083707711 0.47244337
-0.052464042 -0.0083676213 0.47227615
-0.052040242 -0.008366338 0.47221425
-0.051597584 -0.0083619785 0.47197869
-0.051176161 -0.0083610183 0.47193485
-0.050741684 -0.0083578918 0.47176868
-0.050314203 -0.0083558764 0.47166502
-0.04990441 -0.0083567882 0.47172666
-0.049451239 -0.0083503928 0.47137558
-0.049029242 -0.0083491942 0.47131795
-0.048597544 -0.0083463108 0.471165
-0.048167836 -0.0083437217 0.47102863
-0.047741316 -0.0083416458 0.4709211
-0.047319725 -0.0083404016 0.47086045
-0.046901565 -0.0083397459 0.47083291
-0.046480715 -0.0083385967 0.47077742
-0.046060085 -0.0083374651 0.47072291
-0.045655761 -0.0083392914 0.47083527
-0.045244087 -0.0083397971 0.470873
-0.044832405 -0.0083403103 0.47091106
-0.095485315 -0.0081814509 0.48451382
-0.095032863 -0.0081793377 0.4844068
-0.094591878 -0.0081781968 0.48435736
-0.094122641 -0.0081745917 0.48416185
-0.093666047 -0.0081720576 0.48402965
-0.09325169 -0.0081732003 0.48411527
-0.092822723 -0.0081730681 0.48412523
-0.089116491 -0.0081468681 0.48271295
-0.088653348 -0.0081434632 0.48252842
-0.088220872 -0.0081428569 0.48250946
-0.087756142 -0.0081392517 0.48231292
-0.087318592 -0.0081381453 0.48226428
-0.086893171 -0.0081381649 0.48228231
-0.086402722 -0.0081320638 0.4819375
-0.085992455 -0.008133485 0.48203847
-0.085502476 -0.0081273448 0.48169118
-0.085068561 -0.0081264982 0.48165759
-0.084616944 -0.0081239445 0.48152271
-0.084177367 -0.0081225252 0.48145503
-0.083729662 -0.008120303 0.48133969
-0.083252087 -0.0081151482 0.48105034
-0.0828152 -0.0081139272 0.48099414
-0.082351901 -0.0081100902 0.48078281
-0.081923693 -0.0081096888 0.48077506
-0.081474744 -0.0081072189 0.48064458
-0.081011318 -0.0081032757 0.48042664
-0.080574103 -0.0081019253 0.48036242
-0.080124795 -0.008099339 0.48022482
-0.079688244 -0.0080980202 0.48016229
-0.07925497 -0.0080970228 0.48011875
-0.078802392 -0.0080940323 0.47995692
-0.078335129 -0.008089494 0.47970322
-0.077899508 -0.0080881892 0.4796412
-0.077447005 -0.0080851093 0.47947389
-0.0770045 -0.0080830446 0.4793666
-0.076553605 -0.0080800727 0.4792054
-0.076104365 -0.0080772405 0.47905254
-0.07568042 -0.0080770776 0.47905785
-0.075196415 -0.0080704689 0.47868073
-0.074790977 -0.0080722636 0.478802
-0.07430844 -0.0080657108 0.47842801
-0.073887549 -0.0080658123 0.47844863
-0.073425204 -0.0080613624 0.47819924
-0.073011614 -0.0080622463 0.47826618
-0.072577536 -0.0080608632 0.47819862
-0.072143756 -0.0080594989 0.47813195
-0.068563312 -0.00803506 0.47679371
-0.068123445 -0.0080327438 0.47666982
-0.067685544 -0.0080306306 0.47655794
-0.067251831 -0.0080289897 0.47647402
-0.066830635 -0.0080288341 0.47647816
-0.066392988 -0.0080266856 0.47636393
-0.065939233 -0.0080225505 0.47613171
-0.065512657 -0.00802169 0.47609377
-0.065082878 -0.0080204252 0.47603169
-0.064644493 -0.0080180774 0.47590527
-0.064204969 -0.0080155535 0.47576836
-0.063778363 -0.0080146212 0.4757258
-0.063339107 -0.008012075 0.47558743
-0.062892437 -0.0080085536 0.475391
-0.0624655 -0.0080075124 0.47534174
-0.062020496 -0.0080041252 0.47515318
-0.061602842 -0.0080042463 0.4751727
-0.061139349 -0.0079983734 0.47483629
-0.060714286 -0.0079974802 0.47479552
-0.060287278 -0.007996317 0.47473863
-0.05982697 -0.007990689 0.47441655
-0.059407458 -0.0079904702 0.47441554
-0.058975302 -0.0079885358 0.47431251
-0.058547877 -0.0079872189 0.47424611
-0.058123324 -0.0079862773 0.47420192
-0.057661735 -0.0079801967 0.47385249
-0.057236739 -0.0079791276 0.47380057
-0.05680076 -0.0079765012 0.47365606
-0.056368135 -0.0079743108 0.47353733
-0.055949185 -0.007974036 0.47353232
-0.0555089 -0.0079706945 0.47334507
-0.055083163 -0.0079694055 0.47327968
-0.054640785 -0.0079656718 0.47306901
-0.054194797 -0.0079613505 0.47282329
-0.05376853 -0.0079598818 0.47274694
-0.053346459 -0.0079590157 0.47270626
-0.052910648 -0.0079560718 0.47254205
-0.052477393 -0.0079534668 0.47239798
-0.05205927 -0.0079531306 0.47238857
-0.051632404 -0.0079514449 0.47229886
-0.051186681 -0.0079468032 0.4720335
-0.050775923 -0.0079475585 0.47208869
-0.050332546 -0.0079431785 0.47183868
-0.049907841 -0.0079416968 0.47176075
-0.049478911 -0.0079395119 0.471641
-0.04905792 -0.007938575 0.47159526
-0.048612319 -0.0079336064 0.4713099
