# .PCD v0.7 - Point Cloud Data file format
VERSION 0.7
FIELDS x y z
SIZE 4 4 4
TYPE F F F
COUNT 1 1 1
WIDTH 1322
HEIGHT 1
VIEWPOINT 0 0 0 1 0 0 0
POINTS 1322
DATA ascii
-0.068122774 -0.049866002 0.44050184
-0.06771636 -0.049853101 0.44040105
-0.067318372 -0.049846295 0.44035408
-0.066915363 -0.049835652 0.44027317
-0.066509455 -0.049822733 0.44017199
-0.066085055 -0.049795717 0.43994626
-0.065693468 -0.049793262 0.43993744
-0.065280557 -0.049774516 0.43978459
-0.064879902 -0.049764939 0.43971267
-0.064463101 -0.049742803 0.43952972
-0.064061522 -0.049732205 0.43944865
-0.063665912 -0.04972614 0.43940756
-0.063253224 -0.049706589 0.43924722
-0.062894516 -0.04972947 0.43946177
-0.062513851 -0.049735174 0.43952444
-0.062140383 -0.049746703 0.43963858
-0.06177393 -0.049764033 0.4398039
-0.12012146 -0.051255103 0.45420009
-0.11978949 -0.051285438 0.45448935
-0.11939129 -0.051287528 0.4545283
-0.11893109 -0.051262911 0.45433047
-0.11851704 -0.051258087 0.454308
-0.11809887 -0.051251434 0.45426935
-0.11763723 -0.051225811 0.45406246
-0.11720647 -0.05121351 0.45397359
-0.11677612 -0.051201303 0.45388553
-0.11628351 -0.051161613 0.4535538
-0.1158976 -0.051168762 0.45363721
-0.11543605 -0.051142439 0.45342389
-0.11502495 -0.051138371 0.45340776
-0.11458978 -0.05112353 0.45329612
-0.11413997 -0.051102035 0.45312539
-0.11370634 -0.051087663 0.45301777
-0.11325014 -0.051063001 0.45281884
-0.11282299 -0.051051319 0.45273495
-0.11240394 -0.05104322 0.45268285
-0.11198064 -0.051033132 0.452613
-0.11151143 -0.051001981 0.45235628
-0.11109978 -0.050997015 0.45233181
-0.11067349 -0.050985277 0.45224717
-0.11022808 -0.050964616 0.45208335
-0.10977938 -0.050942268 0.45190451
-0.10937642 -0.050941061 0.45191318
-0.10893309 -0.050920978 0.4517543
-0.10850342 -0.050907161 0.45165095
-0.10805033 -0.050882205 0.45144874
-0.10761787 -0.050866812 0.45133129
-0.10720351 -0.050859902 0.45128906
-0.10677856 -0.050847895 0.45120156
-0.10635049 -0.050834298 0.45109987
-0.10591999 -0.050819442 0.45098701
-0.10557223 -0.050844319 0.45122665
-0.1051664 -0.050841309 0.45121881
-0.10479091 -0.050853003 0.45134139
-0.07675425 -0.049778201 0.44290107
-0.076356746 -0.049774121 0.44287947
-0.075954273 -0.049766753 0.44282854
-0.075529374 -0.049744535 0.44264534
-0.075143836 -0.049748145 0.44269198
-0.074730843 -0.049733516 0.44257623
-0.074314557 -0.049716536 0.4424395
-0.073898651 -0.049699634 0.4423033
-0.073479503 -0.049680352 0.44214594
-0.073056355 -0.049658149 0.44196248
-0.072667927 -0.049659435 0.44198802
-0.072260559 -0.049647719 0.44189778
-0.071851671 -0.049634829 0.44179696
-0.071434528 -0.049616065 0.4416438
-0.071019612 -0.049598657 0.44150263
-0.070612997 -0.049586881 0.44141153
-0.070198432 -0.049569357 0.44126919
-0.06978792 -0.049554516 0.44115067
-0.069395773 -0.049552631 0.44114736
-0.068968542 -0.049525525 0.44091952
-0.068554819 -0.049507868 0.44077566
-0.068154469 -0.04949972 0.44071648
-0.067728288 -0.049472611 0.44048831
-0.067328766 -0.04946477 0.44043168
-0.066934653 -0.049460847 0.44040978
-0.066528529 -0.049447943 0.44030789
-0.066114217 -0.049428772 0.44015014
-0.065713555 -0.04941963 0.4400816
-0.065313913 -0.049411159 0.44001895
-0.064891607 -0.049385343 0.43980175
-0.064501293 -0.049383692 0.43979979
-0.064080812 -0.049358808 0.43959069
-0.063690253 -0.049356792 0.43958527
-0.063281357 -0.049340464 0.43945226
-0.062900335 -0.049345799 0.43951213
-0.062520154 -0.049351864 0.43957847
-0.062165096 -0.049377959 0.43982315
-0.12018742 -0.050879739 0.45445815
-0.11984085 -0.050903734 0.45469293
-0.11944141 -0.050905354 0.45472786
-0.11897358 -0.050877739 0.45450154
-0.11853969 -0.050864492 0.45440352
-0.11809826 -0.050847914 0.45427576
-0.11767588 -0.050839458 0.45422041
-0.11724755 -0.05082836 0.45414147
-0.11684113 -0.050826717 0.45414698
-0.11633107 -0.050779827 0.45374811
-0.11592672 -0.050778911 0.45375997
-0.11547621 -0.050757691 0.45359042
-0.11507212 -0.050756808 0.45360252
-0.11462726 -0.050737876 0.45345324
-0.11419909 -0.050726216 0.45336893
-0.1137507 -0.05070547 0.45320338
-0.11334471 -0.050703529 0.45320582
-0.11285374 -0.050663441 0.45286721
-0.11244045 -0.050658058 0.45283881
-0.11200668 -0.050643373 0.45272717
-0.11155249 -0.050619319 0.45253175
-0.11114284 -0.050615378 0.45251611
-0.11070294 -0.050597578 0.45237648
-0.11025751 -0.050577119 0.45221302
-0.10984548 -0.050571881 0.45218557
-0.10941036 -0.050555937 0.4520624
-0.10895801 -0.050531883 0.45186663
-0.10854193 -0.050524544 0.45182022
-0.10810891 -0.050509226 0.45170245
-0.10765937 -0.050486054 0.45151439
-0.10723852 -0.050476208 0.45144546
-0.10680158 -0.050458688 0.45130783
-0.10641744 -0.050466076 0.45139295
-0.1059614 -0.050439298 0.45117232
-0.10563058 -0.050472151 0.45148516
-0.10523293 -0.050473198 0.45151338
-0.10486711 -0.050489571 0.45167869
-0.07676959 -0.049396403 0.44299909
-0.076377042 -0.049395613 0.44300675
-0.07597477 -0.049388502 0.44295755
-0.075566664 -0.04937749 0.44287342
-0.075160742 -0.049367812 0.44280109
-0.074748605 -0.04935392 0.44269091
-0.074334033 -0.049338277 0.44256493
-0.073935583 -0.049333222 0.44253391
-0.0735166 -0.049314335 0.44237873
-0.073098794 -0.049296044 0.44222879
-0.072688274 -0.049282491 0.4421213
-0.072248138 -0.049248613 0.44183138
-0.071849771 -0.049242992 0.4417949
-0.071451843 -0.049237609 0.44176048
-0.071053118 -0.049231615 0.44172049
-0.070640139 -0.049215622 0.44159076
-0.07023076 -0.049201977 0.44148201
-0.069821984 -0.049188606 0.44137561
-0.069418386 -0.049178753 0.44130075
-0.068999186 -0.049157664 0.44112498
-0.068571508 -0.04913028 0.44089261
-0.068195105 -0.049139522 0.44098884
-0.067780189 -0.049120959 0.44083548
-0.067369126 -0.049104989 0.44070533
-0.066953734 -0.049085658 0.44054496
-0.066538095 -0.049065925 0.44038087
-0.066157155 -0.049071699 0.44044566
-0.065738 -0.04904902 0.44025496
-0.065321624 -0.049028162 0.44008052
-0.06491676 -0.049015749 0.43998188
-0.064508133 -0.049000323 0.43985608
-0.06409914 -0.048984438 0.43972608
-0.063704699 -0.048979547 0.43969464
-0.063308746 -0.048973415 0.43965206
-0.062911883 -0.048966512 0.43960246
-0.062551014 -0.048987713 0.43980512
-0.062156714 -0.048982829 0.4397735
-0.061793637 -0.04900264 0.43996355
-0.061399706 -0.048998088 0.43993479
-0.12023333 -0.050495524 0.45464048
-0.11986908 -0.050511934 0.45480868
-0.11944787 -0.050504375 0.45476109
-0.11905279 -0.050507855 0.45481279
-0.11860146 -0.050487407 0.45464906
-0.11820404 -0.05048985 0.45469135
-0.11776547 -0.050474677 0.45457497
-0.11728805 -0.050442684 0.45430711
-0.11686853 -0.050435457 0.4542622
-0.11642085 -0.050415993 0.45410702
-0.11599723 -0.05040684 0.4540447
-0.11555126 -0.050387885 0.45389402
-0.11507783 -0.050356783 0.45363384
-0.11463384 -0.050338391 0.45348808
-0.11422572 -0.050335664 0.45348343
-0.1137861 -0.050319001 0.45335317
-0.11335786 -0.050307266 0.45326731
-0.11291067 -0.050287016 0.45310456
-0.11250635 -0.050285768 0.45311308
-0.11206121 -0.050266206 0.45295647
-0.11158361 -0.050231893 0.45266691
-0.11119647 -0.0502382 0.45274332
-0.11074235 -0.050214186 0.45254645
-0.11032903 -0.050208561 0.45251521
-0.10988531 -0.050189011 0.45235842
-0.10944765 -0.050172094 0.45222539
-0.10899933 -0.050150149 0.4520469
-0.10857434 -0.050138816 0.45196405
-0.10815506 -0.050130054 0.45190427
-0.107715 -0.050111551 0.45175663
-0.10729922 -0.050104253 0.45170999
-0.10682308 -0.050068602 0.45140764
-0.1064278 -0.050070733 0.45144585
-0.10601831 -0.050066166 0.45142367
-0.10565656 -0.050084196 0.4516052
-0.10522025 -0.050066885 0.45146799
-0.076421864 -0.04903264 0.44327623
-0.075978294 -0.04899909 0.44298756
-0.075604744 -0.049010582 0.44310609
-0.075185895 -0.048992686 0.44295877
-0.074776985 -0.048981104 0.4428685
-0.074348889 -0.048956778 0.44266292
-0.073950678 -0.048951965 0.44263372
-0.073535278 -0.04893567 0.44250062
-0.07312268 -0.048921075 0.44238278
-0.07272879 -0.048918903 0.4423773
-0.072296761 -0.048890915 0.44213822
-0.071892105 -0.048881244 0.4420647
-0.071477965 -0.048864976 0.44193146
-0.071083836 -0.04886229 0.44192103
-0.070669062 -0.048845295 0.44178107
-0.070252486 -0.04882687 0.44162807
-0.069829218 -0.048803557 0.44143084
-0.069424987 -0.048793368 0.44135225
-0.069037177 -0.048794664 0.44137743
-0.068625331 -0.048778895 0.44124818
-0.068212785 -0.048762452 0.4411127
-0.067811035 -0.048753571 0.44104561
-0.067389935 -0.048730597 0.440851
-0.066983953 -0.048718356 0.4407534
-0.066571943 -0.048701558 0.44061443
-0.06616427 -0.048687756 0.44050252
-0.065760598 -0.048676755 0.44041589
-0.065357529 -0.048666071 0.44033206
-0.064947039 -0.048649691 0.4401966
-0.064548127 -0.048641853 0.44013837
-0.064125881 -0.048616223 0.43991902
-0.063733913 -0.048613381 0.43990582
-0.063326277 -0.048598479 0.43978345
-0.062929966 -0.048592132 0.43973839
-0.062562861 -0.048608404 0.43989795
-0.06217413 -0.048607972 0.4399063
-0.061799165 -0.048618361 0.44001254
-0.12028217 -0.050112214 0.45483369
-0.11994861 -0.05014139 0.45511904
-0.11951677 -0.050129548 0.45503202
-0.11912656 -0.050135143 0.45510322
-0.11864623 -0.050102718 0.45482928
-0.11821612 -0.05009136 0.45474645
-0.11782816 -0.050097834 0.45482558
-0.11735649 -0.05006865 0.45458087
-0.11690592 -0.050048292 0.45441622
-0.11645158 -0.050026175 0.45423558
-0.11606085 -0.050031319 0.45430243
-0.11556903 -0.049992774 0.45397246
-0.11513668 -0.04997978 0.4538745
-0.11474316 -0.049983606 0.45392922
-0.11426134 -0.04994886 0.45363361
-0.11384088 -0.049940787 0.4535802
-0.11339467 -0.049921319 0.45342323
-0.11297363 -0.049912833 0.45336592
-0.11253899 -0.049898256 0.45325327
-0.11206003 -0.049863856 0.45296049
-0.1116441 -0.049857356 0.45292109
-0.11123116 -0.049852155 0.45289341
-0.11079545 -0.049836662 0.45277226
-0.11035822 -0.049820375 0.45264378
-0.10992794 -0.04980712 0.45254281
-0.1094703 -0.049781326 0.45232782
-0.10902487 -0.049760915 0.45216167
-0.10860378 -0.049751502 0.45209548
-0.10817412 -0.049738079 0.45199278
-0.10778204 -0.049741905 0.45204672
-0.10733769 -0.049721543 0.45188084
-0.10687771 -0.049693763 0.45164746
-0.10645434 -0.049682863 0.45156741
-0.10608494 -0.049697153 0.4517163
-0.10570222 -0.0497053 0.45180932
-0.10533579 -0.049721193 0.45197269
-0.10497233 -0.049738608 0.4521499
-0.076434396 -0.048648644 0.44335827
-0.076041713 -0.048647955 0.44336671
-0.075605534 -0.048619304 0.44312015
-0.075212419 -0.048618183 0.44312444
-0.074796624 -0.048602309 0.44299424
-0.074401855 -0.048600014 0.44298771
-0.073966704 -0.048571166 0.44273907
-0.073561221 -0.048561599 0.44266614
-0.073155843 -0.048552006 0.44259286
-0.072762385 -0.048550256 0.44259104
-0.072324984 -0.048519012 0.44232026
-0.07190565 -0.048499621 0.44215745
-0.071512103 -0.048497498 0.44215196
-0.071069025 -0.048461579 0.44183835
-0.070673041 -0.048457555 0.44181544
-0.070281975 -0.048456877 0.44182295
-0.069866434 -0.048439227 0.44167563
-0.069449425 -0.048420347 0.44151703
-0.069058083 -0.048419259 0.44152057
-0.068647452 -0.048404552 0.44139987
-0.068246834 -0.048396777 0.44134235
-0.067826487 -0.048374847 0.44115558
-0.067440078 -0.048377011 0.44118854
-0.067006171 -0.048344921 0.44090903
-0.066602826 -0.048334647 0.44082835
-0.066200279 -0.048324827 0.44075176
-0.065798864 -0.048315726 0.44068167
-0.06537807 -0.048292197 0.44047987
-0.064971164 -0.048278712 0.44036967
-0.06457153 -0.048270501 0.44030744
-0.064148389 -0.048244514 0.440083
-0.063748993 -0.048236169 0.44001943
-0.063343875 -0.048223369 0.43991515
-0.062958702 -0.048225697 0.43994877
-0.062563226 -0.048220105 0.43991008
-0.062206704 -0.048244655 0.4401463
-0.06180682 -0.048235677 0.44007656
-0.061430737 -0.048245274 0.44017628
-0.12033196 -0.049728975 0.45503053
-0.12000546 -0.049760908 0.45534328
-0.11956474 -0.049745552 0.45522323
-0.1191427 -0.049737878 0.45517343
-0.11871318 -0.049727023 0.45509455
-0.11825033 -0.049702086 0.45488665
-0.11785666 -0.049706157 0.45494425
-0.11736929 -0.049670599 0.45463908
-0.11691821 -0.049650203 0.45447263
-0.11653044 -0.049656648 0.45455179
-0.11607856 -0.049635723 0.45438039
-0.11563365 -0.049617648 0.45423502
-0.11518048 -0.049595889 0.45405585
-0.11474456 -0.049581427 0.45394346
-0.11430833 -0.049566735 0.4538289
-0.11386339 -0.049548142 0.45367855
-0.11344595 -0.049541436 0.453637
-0.11301223 -0.049527537 0.45352957
-0.11256427 -0.049507279 0.45336381
-0.11213776 -0.049496349 0.45328346
-0.1117127 -0.049485978 0.45320809
-0.11125327 -0.049460251 0.45299214
-0.11084605 -0.049457636 0.45298773
-0.11042967 -0.049450904 0.45294562
-0.10996656 -0.049423113 0.45271054
-0.1095478 -0.049415126 0.45265681
-0.1091018 -0.049394757 0.45248955
-0.10863347 -0.049364083 0.45222789
-0.10821909 -0.049357783 0.45218948
-0.10782096 -0.049358882 0.45221877
-0.10736691 -0.049334303 0.45201269
-0.10694525 -0.049324464 0.45194167
-0.10651374 -0.049309995 0.45182818
-0.10617955 -0.049340639 0.45212805
-0.10574739 -0.049325816 0.4520112
-0.10538853 -0.04934521 0.45220783
-0.07606151 -0.048268493 0.44349146
-0.075657152 -0.048260424 0.44343194
-0.075230725 -0.048238132 0.44324163
-0.07483577 -0.048235882 0.44323546
-0.074424163 -0.048222829 0.4431299
-0.074013121 -0.048209995 0.4430263
-0.073587812 -0.048187681 0.44283551
-0.073175631 -0.048173778 0.44272196
-0.072769597 -0.048163794 0.44264433
-0.072358303 -0.0481502 0.4425334
-0.071946345 -0.048136014 0.44241706
-0.071545579 -0.048129205 0.44236839
-0.071126379 -0.048109848 0.44220433
-0.070714056 -0.048094958 0.44208124
-0.070317946 -0.048090991 0.44205847
-0.069897048 -0.048069932 0.4418785
-0.069485724 -0.048055265 0.44175723
-0.069081828 -0.048045591 0.4416818
-0.068669595 -0.048029974 0.44155169
-0.068258405 -0.04801492 0.44142663
-0.067848951 -0.048000913 0.44131112
-0.067445368 -0.047990926 0.4412325
-0.067025252 -0.047968995 0.441044
-0.066627875 -0.047963172 0.44100356
-0.066214889 -0.047945984 0.44085848
-0.065810271 -0.047934677 0.44076747
-0.065403491 -0.047921654 0.44066057
-0.064997621 -0.047909155 0.4405584
-0.064590156 -0.04789532 0.44044387
-0.064166188 -0.047869015 0.44021457
-0.063763618 -0.047858432 0.44012982
-0.063375205 -0.047858421 0.44014218
-0.062966578 -0.04784305 0.44001323
-0.062576339 -0.047841545 0.44001171
-0.062209778 -0.047858238 0.44017753
-0.061809923 -0.047849368 0.44010815
-0.12037982 -0.049344603 0.45521998
-0.12002079 -0.049362976 0.45540997
-0.11960485 -0.04935798 0.45538443
-0.11918398 -0.049350917 0.45533973
-0.11876579 -0.049344912 0.45530474
-0.11830867 -0.049322635 0.45511961
-0.11787783 -0.049311206 0.45503446
-0.11740661 -0.049282748 0.45479217
-0.11697033 -0.049268812 0.45468375
-0.11656552 -0.049268078 0.45469719
-0.11608487 -0.049235176 0.45441368
-0.11569311 -0.049239881 0.45447722
-0.11525381 -0.049224306 0.45435354
-0.11483313 -0.049216602 0.45430246
-0.11439108 -0.049199652 0.45416602
-0.11391664 -0.049168605 0.45389932
-0.11350989 -0.049166668 0.45390135
-0.1130292 -0.049132563 0.45360634
-0.11260115 -0.049121182 0.45352098
-0.11218528 -0.049115058 0.45348418
-0.11174475 -0.049098041 0.45334679
-0.11133823 -0.049095914 0.45334673
-0.1108841 -0.049072698 0.45315197
-0.11045238 -0.049059257 0.45304742
-0.11000824 -0.049040191 0.45289084
-0.1095989 -0.049036555 0.45287672
-0.10912587 -0.04900429 0.45259812
-0.10867736 -0.048982844 0.45241937
-0.10827891 -0.048983872 0.45244819
-0.10785274 -0.048972335 0.45236084
-0.10741773 -0.048956674 0.45223534
-0.10700572 -0.048951428 0.45220602
-0.10659873 -0.048948433 0.45219749
-0.10621953 -0.048958234 0.45230708
-0.10582937 -0.04896304 0.45237049
-0.10543805 -0.048967339 0.45242918
-0.076060064 -0.04787546 0.44349235
-0.075668819 -0.047875747 0.44350961
-0.07526771 -0.047869772 0.44346878
-0.074854128 -0.047855753 0.44335344
-0.074450478 -0.047847975 0.44329581
-0.074028477 -0.047828265 0.44312754
-0.073635593 -0.04782724 0.44313231
-0.073194355 -0.04779464 0.44284448
-0.072804563 -0.047795471 0.4428663
-0.072390445 -0.047780242 0.44273928
-0.071980067 -0.047767337 0.44263369
-0.071564138 -0.047750589 0.44249243
-0.071143091 -0.047730222 0.44231755
-0.070739798 -0.047721606 0.4422515
-0.070335642 -0.047712307 0.44217902
-0.06992279 -0.04769697 0.44205058
-0.069533728 -0.047697797 0.44207177
-0.069095761 -0.047664884 0.44178024
-0.068685159 -0.047650579 0.44166106
-0.068292826 -0.047648862 0.44165853
-0.067878686 -0.047631826 0.44151393
-0.067473657 -0.047621015 0.44142693
-0.067053325 -0.047599223 0.44123808
-0.066647872 -0.047587801 0.44114524
-0.066243984 -0.047577366 0.44106153
-0.065823764 -0.047555003 0.44086719
-0.065429382 -0.047551163 0.44084442
-0.065025263 -0.047540154 0.44075513
-0.064616106 -0.047525305 0.4406302
-0.064208709 -0.047511585 0.44051564
-0.063790306 -0.047489498 0.44032338
-0.063396893 -0.047485869 0.44030222
-0.063004963 -0.047483295 0.44029081
-0.062584795 -0.047459289 0.44008052
-0.062230285 -0.047485083 0.440332
-0.061847862 -0.04748977 0.44038767
-0.061458375 -0.047489051 0.44039315
-0.12043819 -0.048964184 0.45544904
-0.12005276 -0.048971713 0.45553967
-0.11967674 -0.048983146 0.45566657
-0.11921324 -0.04895873 0.45545989
-0.11878829 -0.048950031 0.45539942
-0.11835749 -0.048938867 0.45531595
-0.11796248 -0.048942458 0.45536974
-0.11744986 -0.048897121 0.45496821
-0.1170281 -0.048889425 0.45491686
-0.11659691 -0.048877716 0.45482814
-0.11614002 -0.048855126 0.45463809
-0.11573139 -0.048852749 0.4546361
-0.11526836 -0.048827309 0.45441946
-0.11485882 -0.048824426 0.45441267
-0.11441864 -0.048808455 0.45428401
-0.11398366 -0.048794594 0.45417497
-0.11350945 -0.048763786 0.45390812
-0.11309525 -0.048758626 0.45387995
-0.1126397 -0.048735544 0.45368484
-0.11221571 -0.048725996 0.45361575
-0.11179892 -0.048719525 0.45357519
-0.11130769 -0.048680447 0.45323101
-0.11092576 -0.04868906 0.45333084
-0.11048584 -0.048672196 0.45319337
-0.11003622 -0.048650913 0.45301473
-0.10963845 -0.048652481 0.4530488
-0.1091831 -0.048628423 0.45284414
-0.10876141 -0.048619229 0.45277789
-0.1083008 -0.048592504 0.45254833
-0.10788309 -0.048584905 0.4524968
-0.10745618 -0.048573092 0.45240602
-0.1070228 -0.048558243 0.4522869
-0.10663009 -0.048561823 0.45233929
-0.10622372 -0.048559174 0.45233372
-0.10582168 -0.048558496 0.45234638
-0.075697929 -0.047501896 0.44368947
-0.075299241 -0.047497589 0.44366378
-0.074878715 -0.047479395 0.44350833
-0.074470937 -0.047469124 0.44342685
-0.074060872 -0.047457285 0.44333062
-0.073652059 -0.047446132 0.44324073
-0.073238023 -0.047431465 0.44311795
-0.072811671 -0.047408625 0.44291872
-0.07240466 -0.047398213 0.44283551
-0.071994595 -0.04738567 0.44273233
-0.071592875 -0.04737851 0.44267935
-0.071154468 -0.04734686 0.44239753
-0.07077124 -0.047351781 0.44245732
-0.070348561 -0.047330216 0.44226953
-0.069952503 -0.04732642 0.44224772
-0.069547512 -0.047316499 0.44216862
-0.069130704 -0.047298394 0.44201294
-0.068724334 -0.047287256 0.44192228
-0.068302915 -0.047265574 0.44173306
-0.067901179 -0.047257353 0.44166946
-0.06750647 -0.047253944 0.44165087
-0.067079887 -0.047228064 0.44142219
-0.066667989 -0.047212284 0.44128773
-0.066264383 -0.047202215 0.44120663
-0.065853752 -0.047187001 0.44107735
-0.065453187 -0.047178857 0.44101411
-0.065055013 -0.047172353 0.44096613
-0.064642273 -0.047155146 0.44081795
-0.064242423 -0.047147181 0.4407562
-0.063829377 -0.047129381 0.44060239
-0.063414834 -0.04711026 0.44043609
-0.063010633 -0.047098622 0.44033971
-0.062618926 -0.047096245 0.44032985
-0.062230244 -0.047096126 0.44034103
-0.061847728 -0.0471007 0.44039604
-0.061475433 -0.047113165 0.44052473
-0.12044708 -0.048563428 0.45549104
-0.12015383 -0.048608199 0.45593157
-0.11973938 -0.048604075 0.45591345
-0.11929414 -0.048587382 0.45577738
-0.11883831 -0.048566252 0.45559964
-0.11838225 -0.048544884 0.45541957
-0.11801707 -0.048560757 0.45558888
-0.11750995 -0.04851814 0.45520937
-0.1170825 -0.048508234 0.45513675
-0.11662229 -0.048484642 0.45493564
-0.11618739 -0.048471447 0.45483199
-0.11578296 -0.048470911 0.45484713
-0.11533134 -0.048450552 0.45467618
-0.1148809 -0.048430547 0.45450851
-0.11445963 -0.048422743 0.45445526
-0.11402931 -0.048411038 0.45436543
-0.11358121 -0.048391674 0.45420358
-0.1131187 -0.048366014 0.45398259
-0.11272403 -0.048369277 0.45403308
-0.11228364 -0.048352879 0.45389894
-0.11185569 -0.048341736 0.45381406
-0.11139902 -0.048318062 0.45361149
-0.11094255 -0.048294298 0.45340806
-0.11052947 -0.048289325 0.45338088
-0.11009425 -0.048274606 0.45326221
-0.10966413 -0.048262011 0.45316347
-0.10925674 -0.048259381 0.4531582
-0.10877647 -0.048224412 0.45284921
-0.10833776 -0.048207678 0.45271143
-0.10789733 -0.048190054 0.45256516
-0.1075232 -0.048202019 0.4526968
-0.10705306 -0.048170876 0.45242345
-0.10669252 -0.048188996 0.45261276
-0.10627783 -0.048182704 0.45257279
-0.10592217 -0.048203234 0.45278463
-0.10558052 -0.048230309 0.453058
-0.075720474 -0.047123656 0.44383076
-0.07531774 -0.047116924 0.44378194
-0.074900977 -0.047101304 0.44364932
-0.074504167 -0.04709813 0.44363388
-0.074106723 -0.04709452 0.44361424
-0.073686503 -0.047076322 0.44345713
-0.073258072 -0.047052655 0.44324845
-0.072850414 -0.047042146 0.44316357
-0.072431788 -0.047024403 0.44301057
-0.072029263 -0.047016982 0.44295469
-0.071613781 -0.047000978 0.44281784
-0.071217768 -0.04699764 0.44280025
-0.070806369 -0.046984054 0.44268611
-0.070390664 -0.046967454 0.44254339
-0.069982134 -0.046955466 0.44244418
-0.069556013 -0.046931494 0.44223189
-0.069160677 -0.04692813 0.44221371
-0.068747632 -0.046912655 0.44208133
-0.06834805 -0.046906229 0.44203418
-0.067939393 -0.04689347 0.44192725
-0.067508794 -0.046865333 0.44167534
-0.067118131 -0.046864755 0.44168302
-0.066710912 -0.04685254 0.44158101
-0.066287719 -0.0468289 0.4413712
-0.06587822 -0.04681471 0.44125041
-0.065493755 -0.046818245 0.44129667
-0.065078005 -0.046799328 0.44113114
-0.064653546 -0.046773884 0.44090405
-0.064255141 -0.046767097 0.44085273
-0.063848399 -0.046754114 0.44074294
-0.063438781 -0.046738856 0.4406116
-0.063035242 -0.046727926 0.440521
-0.062639989 -0.046723031 0.44048721
-0.062239546 -0.046714183 0.4404161
-0.061883066 -0.046738423 0.4406569
-0.061487455 -0.046733234 0.44062012
-0.061110619 -0.046742339 0.44071808
-0.12047438 -0.048169974 0.45560256
-0.1202112 -0.048226472 0.45615757
-0.1197371 -0.048198454 0.45591313
-0.11933266 -0.048198376 0.45593289
-0.11891507 -0.04819297 0.45590228
-0.11845791 -0.048171431 0.45571896
-0.11804694 -0.0481686 0.45571256
-0.11756988 -0.048138682 0.45544988
-0.11711729 -0.048118614 0.45528033
-0.11667793 -0.048103869 0.45516109
-0.11627113 -0.048102487 0.45516819
-0.11582059 -0.048082937 0.45500338
-0.11538795 -0.048070706 0.4549078
-0.11494315 -0.048053306 0.4547632
-0.11449657 -0.048035033 0.45461032
-0.11406984 -0.048024993 0.45453531
-0.11361632 -0.048003569 0.45435247
-0.11321903 -0.04800583 0.45439374
-0.1127431 -0.047974642 0.4541184
-0.11232831 -0.047969338 0.45408797
-0.11187561 -0.047947753 0.45390341
-0.11145224 -0.04793863 0.45383674
-0.11101795 -0.04792472 0.45372471
-0.11056536 -0.047902785 0.45353666
-0.1101545 -0.047898836 0.45351881
-0.10967723 -0.047865871 0.45322618
-0.10925589 -0.047857165 0.45316321
-0.10884867 -0.047854606 0.45315835
-0.10837135 -0.047821086 0.45286033
-0.10799662 -0.047832765 0.4529902
-0.1075412 -0.047808658 0.45278117
-0.1070957 -0.047788799 0.45261225
-0.10672653 -0.047802974 0.45276564
-0.10634149 -0.047810122 0.45285249
-0.10597111 -0.047823943 0.45300248
-0.075342312 -0.046739839 0.44393581
-0.074930258 -0.046727363 0.44383186
-0.074537046 -0.046726566 0.44383875
-0.074121617 -0.046711758 0.4437125
-0.073699899 -0.046692815 0.44354683
-0.073295526 -0.046684712 0.44348413
-0.072894119 -0.046678424 0.44343859
-0.072463267 -0.046653111 0.44321218
-0.072067752 -0.046650395 0.44320047
-0.07165242 -0.04663476 0.44306585
-0.071233943 -0.046616882 0.44290996
-0.070823543 -0.04660413 0.44280261
-0.070418552 -0.046594813 0.44272783
-0.070008159 -0.046581797 0.44261786
-0.069597751 -0.046568628 0.44250634
-0.069184929 -0.046553686 0.44237792
-0.068781368 -0.046544846 0.44230738
-0.068365224 -0.046527337 0.44215438
-0.067957297 -0.046515256 0.4420529
-0.067532435 -0.046491366 0.4418391
-0.067147568 -0.046494905 0.44188592
-0.066731669 -0.04647686 0.44172755
-0.066337287 -0.046473686 0.44171041
-0.065903418 -0.046442654 0.44142839
-0.065509938 -0.046439871 0.44141489
-0.065071426 -0.046404947 0.44109571
-0.064692214 -0.046412148 0.44117692
-0.064276136 -0.046392821 0.44100589
-0.063883282 -0.046390127 0.44099289
-0.063469909 -0.046372414 0.440837
-0.063061923 -0.046358444 0.44071665
-0.062665701 -0.04635299 0.4406772
-0.062257901 -0.046338864 0.44055519
-0.061887022 -0.046352204 0.44069424
-0.061499704 -0.046353322 0.44071707
-0.061135989 -0.046372369 0.44091025
-0.06077344 -0.046392541 0.44111407
-0.12054704 -0.04779432 0.45588556
-0.1202179 -0.0478242 0.45619121
-0.11980735 -0.04782179 0.4561888
-0.11937021 -0.047808707 0.45608461
-0.11894945 -0.047802124 0.45604229
-0.11848966 -0.047779761 0.45584941
-0.1180563 -0.047767933 0.45575699
-0.11759487 -0.047744632 0.45555502
-0.11720967 -0.04775222 0.45564777
-0.11672575 -0.047719512 0.45535594
-0.11630584 -0.047712829 0.4553124
-0.1158477 -0.047690362 0.45511824
-0.11541808 -0.047679529 0.45503494
-0.11497514 -0.047663078 0.45489809
-0.11453862 -0.047649197 0.45478567
-0.11411498 -0.047640599 0.4547236
-0.11367533 -0.047625225 0.45459679
-0.11326683 -0.047622841 0.45459396
-0.11277685 -0.047586061 0.45426273
-0.11233575 -0.047569711 0.45412648
-0.11192732 -0.047567133 0.45412162
-0.11147873 -0.047547404 0.453953
-0.11107264 -0.047545731 0.45395669
-0.11061844 -0.047523368 0.45376283
-0.11017649 -0.047506135 0.45361781
-0.109755 -0.047497623 0.45355606
-0.10930028 -0.047474612 0.45335585
-0.10886633 -0.047460489 0.45324036
-0.10846134 -0.047458932 0.45324486
-0.10801627 -0.047439765 0.45308116
-0.1075928 -0.047429979 0.45300692
-0.10715692 -0.047414623 0.45287949
-0.10678604 -0.047428023 0.45302668
-0.10637801 -0.047424968 0.45301661
-0.1060055 -0.047437783 0.45315808
-0.075358555 -0.046357367 0.44404051
-0.074961305 -0.046354204 0.44402474
-0.074553229 -0.046344273 0.4439441
-0.074148849 -0.046336554 0.44388455
-0.073748283 -0.046331141 0.44384706
-0.073340207 -0.046320941 0.44376355
-0.072912969 -0.046298452 0.44356233
-0.072505504 -0.046288341 0.4434796
-0.072097398 -0.046277713 0.44339183
-0.071675502 -0.04625807 0.44321755
-0.071256146 -0.046239864 0.44305706
-0.070831865 -0.046218239 0.44286367
-0.070456468 -0.046228446 0.44297528
-0.070031039 -0.046205763 0.44277158
-0.069615468 -0.046189368 0.44262812
-0.069218665 -0.046185303 0.44260272
-0.068806052 -0.046170585 0.44247517
-0.068370789 -0.046140414 0.44219941
-0.067975216 -0.046136837 0.44217846
-0.067567609 -0.046125006 0.44207838
-0.067163266 -0.046115275 0.4419983
-0.066752553 -0.046101037 0.44187492
-0.066352546 -0.046094056 0.44182107
-0.065940119 -0.046078328 0.44168329
-0.065520748 -0.04605753 0.44149682
-0.065123431 -0.046052068 0.4414573
-0.064721361 -0.046043169 0.44138473
-0.064310677 -0.046027996 0.44125199
-0.063904881 -0.04601616 0.44115111
-0.06349431 -0.046000712 0.4410156
-0.063072838 -0.045977134 0.44080201
-0.062681004 -0.045975 0.4407939
-0.062282268 -0.045967743 0.44073665
-0.061900884 -0.045973286 0.44080207
-0.061514199 -0.045974936 0.44083008
-0.12057517 -0.047400672 0.45600012
-0.12027033 -0.047439925 0.45639837
-0.11984532 -0.047431882 0.45634159
-0.11942419 -0.047425319 0.45629904
-0.11899075 -0.047413815 0.45620885
-0.11851269 -0.047384385 0.45594621
-0.11810391 -0.047382556 0.45594904
-0.11767314 -0.047371853 0.45586643
-0.11722887 -0.047355626 0.45573065
-0.11680322 -0.047346845 0.45566645
-0.11631497 -0.047312532 0.45535645
-0.11590444 -0.0473097 0.45534942
-0.11548845 -0.047304615 0.45532066
-0.11507943 -0.047302358 0.45531905
-0.1145715 -0.047259286 0.45492452
-0.11413629 -0.047246013 0.45481685
-0.11371113 -0.047236819 0.4547483
-0.11328195 -0.047225893 0.45466301
-0.11284009 -0.047209576 0.45452583
-0.11239361 -0.047191199 0.45436874
-0.11197724 -0.047185387 0.45433256
-0.11153598 -0.047169004 0.45419452
-0.11108752 -0.047149442 0.45402583
-0.1106525 -0.047135469 0.45391092
-0.11024401 -0.047132727 0.45390415
-0.10978489 -0.047108248 0.45368797
-0.10937297 -0.047103919 0.45366573
-0.1089153 -0.047079775 0.45345268
-0.10848127 -0.047065713 0.45333657
-0.10805865 -0.047056518 0.45326737
-0.10763501 -0.047046807 0.45319313
-0.10720234 -0.047033064 0.45307997
-0.10679875 -0.047032017 0.45308906
-0.1064355 -0.0470488 0.4532699
-0.10607396 -0.047066465 0.45345917
-0.10572129 -0.047088217 0.45368785
-0.075382985 -0.045979735 0.44419345
-0.074981786 -0.045974247 0.44415501
-0.074575163 -0.045965366 0.44408372
-0.074171022 -0.045957923 0.4440262
-0.073758096 -0.045944933 0.44391504
-0.073344469 -0.045931369 0.44379824
-0.072946168 -0.045927308 0.44377321
-0.072531812 -0.045913037 0.44364947
-0.07212618 -0.045904167 0.44357783
-0.071692586 -0.045877304 0.44333225
-0.07130935 -0.045882549 0.44339684
-0.070862688 -0.045846816 0.4430654
-0.070463583 -0.045841634 0.44302905
-0.070052229 -0.045828369 0.44291461
-0.069640212 -0.045814518 0.44279438
-0.069231316 -0.045802586 0.44269261
-0.068845965 -0.045806177 0.44274083
-0.068407796 -0.045774471 0.44244778
-0.06799762 -0.045761235 0.44233319
-0.067601137 -0.045757119 0.4423067
-0.067174621 -0.045732513 0.44208202
-0.066774547 -0.045725714 0.44202945
-0.0663734 -0.045718104 0.44196898
-0.065974183 -0.045711745 0.44192046
-0.065560274 -0.045695063 0.44177213
-0.065147579 -0.045679044 0.44163007
-0.064727679 -0.045657735 0.44143683
-0.064329818 -0.04565182 0.44139233
-0.063926145 -0.045641683 0.44130695
-0.063518927 -0.045628868 0.44119558
-0.063109033 -0.045613967 0.44106397
-0.062711172 -0.04560763 0.44101512
-0.062315233 -0.04560262 0.440979
-0.061931051 -0.045606207 0.44102594
-0.061542924 -0.045606915 0.44104499
-0.061157778 -0.045609858 0.44108555
-0.060802534 -0.045635283 0.44134349
-0.12034653 -0.047064591 0.45669565
-0.11988546 -0.047042564 0.45650253
-0.11946977 -0.047038257 0.45648137
-0.11904847 -0.047031704 0.4564383
-0.11859423 -0.04701205 0.45626807
-0.11817905 -0.047007803 0.4562473
-0.11770679 -0.046980731 0.45600501
-0.1172839 -0.046973255 0.45595279
-0.1168421 -0.04695813 0.45582631
-0.11635707 -0.046925455 0.45552942
-0.11596674 -0.046930894 0.45560241
-0.1155128 -0.046910521 0.45542488
-0.11509595 -0.046905126 0.45539263
-0.11465328 -0.046889145 0.45525756
-0.1142091 -0.046872415 0.45511517
-0.11378819 -0.046865162 0.45506474
-0.11330241 -0.046831038 0.4547534
-0.11289226 -0.04682805 0.45474422
-0.11246677 -0.046818644 0.45467278
-0.1120168 -0.046798956 0.45450136
-0.11157378 -0.046782028 0.45435676
-0.1111079 -0.046755362 0.45411751
-0.1106969 -0.046751685 0.45410141
-0.11025982 -0.046736922 0.45397764
-0.10982861 -0.04672455 0.453877
-0.10938288 -0.046705887 0.45371521
-0.10893591 -0.046686549 0.45354685
-0.10854464 -0.046691038 0.45360982
-0.10810129 -0.046673071 0.45345461
-0.10767046 -0.046660393 0.45335078
-0.10725413 -0.04665393 0.45330724
-0.10689197 -0.046671074 0.453493
-0.10646632 -0.046660516 0.45340958
-0.10606535 -0.046660732 0.45343083
-0.075003885 -0.045595057 0.44429478
-0.074610457 -0.045594387 0.44430274
-0.074203037 -0.045585111 0.44422674
-0.07378754 -0.045570746 0.44410115
-0.073383138 -0.045563124 0.44404113
-0.072961323 -0.04554455 0.44387433
-0.072555937 -0.045536075 0.4438059
-0.072127111 -0.045512728 0.44359243
-0.071748801 -0.045521174 0.44368875
-0.071335576 -0.045507442 0.44356886
-0.070894316 -0.045475572 0.44327205
-0.070497274 -0.045471873 0.44324982
-0.070097998 -0.045466676 0.4432129
-0.069662973 -0.045438107 0.44294804
-0.069262199 -0.045431681 0.44289899
-0.068843275 -0.045413218 0.44273251
-0.068459295 -0.045417722 0.44278982
-0.068034485 -0.045395035 0.44258201
-0.067620911 -0.04537962 0.44244501
-0.067216374 -0.045370139 0.4423658
-0.066800416 -0.045352776 0.44220966
-0.066397958 -0.045344442 0.44214147
-0.065984659 -0.045328557 0.44199955
-0.06558004 -0.045318484 0.44191429
-0.065179594 -0.04531119 0.44185603
-0.064764962 -0.045293894 0.4417001
-0.064355627 -0.04528011 0.44157839
-0.063947283 -0.045266856 0.44146183
-0.063532159 -0.045248624 0.44129652
-0.063141972 -0.045248017 0.44130313
-0.062738217 -0.045237642 0.44121432
-0.062330425 -0.04522419 0.4410955
-0.061917137 -0.045206565 0.44093582
-0.061572582 -0.045239218 0.44126651
-0.061163846 -0.045224831 0.4411383
-0.060818542 -0.04525746 0.44146866
-0.12034648 -0.046659183 0.45670351
-0.1199571 -0.046665233 0.45678344
-0.1194943 -0.046642661 0.45658311
-0.11908139 -0.046639491 0.45657259
-0.11862957 -0.046621002 0.45641214
-0.1181945 -0.046608984 0.45631501
-0.1177882 -0.046608277 0.45632851
-0.11729036 -0.046571214 0.45598602
-0.11683083 -0.046549164 0.45579043
-0.11645849 -0.046561819 0.45593467
-0.11598397 -0.046533562 0.45567825
-0.11557619 -0.046531983 0.45568299
-0.11510038 -0.046502903 0.45541841
-0.114687 -0.046498936 0.45539963
-0.11424571 -0.04648358 0.45526931
-0.11381344 -0.046471797 0.45517394
-0.11333584 -0.046441358 0.45489576
-0.1129342 -0.046441942 0.45492142
-0.11246188 -0.046413362 0.45466128
-0.11206584 -0.04641616 0.45470855
-0.11163472 -0.046404406 0.45461321
-0.11115527 -0.046372399 0.45431936
-0.11073445 -0.046364713 0.45426372
-0.11030803 -0.046354614 0.45418438
-0.10987832 -0.046343051 0.45409068
-0.10945293 -0.046333238 0.45401406
-0.10901038 -0.046316057 0.45386523
-0.10856982 -0.046299607 0.4537234
-0.1081254 -0.046281375 0.45356411
-0.1076896 -0.046266709 0.45343968
-0.10728571 -0.046265699 0.45344904
-0.10691489 -0.046278987 0.45359853
-0.10650938 -0.046277314 0.45360133
-0.0750539 -0.045232467 0.4445999
-0.07463149 -0.045214396 0.44443679
-0.074232705 -0.045210529 0.44441321
-0.073814124 -0.045194499 0.44427001
-0.073409975 -0.045187179 0.44421235
-0.072996005 -0.045173705 0.44409412
-0.072583497 -0.045160994 0.44398335
-0.072167113 -0.045145724 0.4438473
-0.071757123 -0.045134302 0.44374904
-0.071343929 -0.045120735 0.44362956
-0.070938289 -0.04511182 0.4435558
-0.07053452 -0.045104012 0.44349283
-0.070121028 -0.045089848 0.4433673
-0.069710009 -0.045077138 0.44325599
-0.069285892 -0.045055754 0.44305933
-0.068893813 -0.045055091 0.44306633
-0.068469055 -0.045032926 0.4428618
-0.06805376 -0.045016762 0.44271621
-0.067653641 -0.045010515 0.44266805
-0.067237228 -0.044993281 0.44251183
-0.066836447 -0.044986382 0.44245711
-0.06642013 -0.044968873 0.44229797
-0.066011392 -0.044956319 0.44218752
-0.065606847 -0.044946495 0.44210383
-0.065199487 -0.044934604 0.44199976
-0.064797975 -0.044926632 0.44193414
-0.064364657 -0.044896379 0.44164923
-0.063974172 -0.044895817 0.44165638
-0.063555785 -0.04487554 0.44146946
-0.063153319 -0.044866331 0.44139135
-0.062757395 -0.044861682 0.44135806
-0.0623472 -0.04484671 0.44122308
-0.06196418 -0.044851217 0.44127971
-0.061571166 -0.044848509 0.44126529
-0.061181597 -0.044848289 0.44127527
-0.060816944 -0.044866443 0.44146597
-0.12042132 -0.046282556 0.45699552
-0.11999036 -0.046272613 0.45691803
-0.11959506 -0.046276405 0.45697615
-0.11912619 -0.046251658 0.45675239
-0.11870123 -0.046243854 0.45669582
-0.11825331 -0.046227019 0.45655012
-0.11780715 -0.046210766 0.45640999
-0.11738189 -0.046202622 0.45634997
-0.11692317 -0.046181202 0.45615876
-0.11647887 -0.046165351 0.45602256
-0.1160513 -0.046156041 0.45595083
-0.1156026 -0.046138242 0.45579523
-0.11515605 -0.046121165 0.45564675
-0.11471897 -0.046107784 0.45553467
-0.11426692 -0.046088263 0.4553619
-0.11386259 -0.046087928 0.45537862
-0.11341976 -0.046071954 0.45524079
-0.11299422 -0.046062913 0.45517135
-0.11254057 -0.046042297 0.45498756
-0.11211481 -0.046032991 0.45491543
-0.11168503 -0.046021957 0.45482624
-0.11125521 -0.046010833 0.45473602
-0.11077942 -0.045980543 0.45445636
-0.11037761 -0.045980856 0.4544791
-0.10990781 -0.045952741 0.45422083
-0.10948779 -0.045945313 0.45416692
-0.10901 -0.045913495 0.45387188
-0.10863868 -0.045926448 0.45401937
-0.10819249 -0.045907732 0.45385379
-0.10774512 -0.045888375 0.45368174
-0.10732856 -0.045882042 0.45363843
-0.10695983 -0.045896187 0.45379752
-0.10656038 -0.045897204 0.45382681
-0.10621652 -0.045922272 0.45409381
-0.075061373 -0.044843931 0.44465286
-0.074684158 -0.044853188 0.44475919
-0.074273951 -0.044842619 0.44466886
-0.073854685 -0.044826452 0.44452289
-0.073421337 -0.044801511 0.44428986
-0.07303182 -0.044803187 0.44432077
-0.072615013 -0.044788055 0.44418487
-0.072190352 -0.04476789 0.44399899
-0.07179679 -0.044766895 0.44400313
-0.071381196 -0.044752069 0.4438701
-0.07096079 -0.044734061 0.44370535
-0.070558541 -0.044727352 0.44365263
-0.070137978 -0.044708896 0.44348329
-0.069733545 -0.044700574 0.44341439
-0.069313154 -0.044681869 0.44324249
-0.068905689 -0.044671331 0.4431515
-0.068493612 -0.04465767 0.44302943
-0.068106182 -0.044660009 0.44306603
-0.067677453 -0.044635143 0.44283268
-0.067261972 -0.044618778 0.44268349
-0.066863097 -0.044613302 0.44264236
-0.066446111 -0.044595599 0.44247982
-0.066034898 -0.044581585 0.44235379
-0.065630235 -0.044571862 0.44227022
-0.065219298 -0.044557732 0.4421429
-0.064813644 -0.044547059 0.4420498
-0.06439656 -0.044528354 0.44187695
-0.063991316 -0.044517666 0.44178355
-0.063576266 -0.044499978 0.44162056
-0.063194662 -0.044505626 0.44168913
-0.062755071 -0.044470254 0.44135052
-0.062367763 -0.044471722 0.44137746
-0.061971769 -0.044466976 0.44134262
-0.061583795 -0.044467956 0.44136459
-0.06119176 -0.044466008 0.4413574
-0.060824759 -0.044482339 0.44153157
-0.060479205 -0.044514664 0.4418644
-0.12045 -0.045887835 0.45711228
-0.12005179 -0.045890544 0.45715994
-0.11962365 -0.045881789 0.45709339
-0.1191859 -0.04586928 0.45698935
-0.11870106 -0.045838494 0.45670322
-0.11830269 -0.045841008 0.45674875
-0.11785295 -0.045823555 0.45659539
-0.11743716 -0.045819242 0.45657283
-0.11699331 -0.045803905 0.45644039
-0.11656833 -0.04579588 0.45638075
-0.11608047 -0.045763012 0.45607352
-0.11566162 -0.045757208 0.45603594
-0.11520553 -0.045736581 0.45585054
-0.11479221 -0.045732852 0.45583355
-0.11431801 -0.045704752 0.45557362
-0.11387795 -0.04569016 0.45544818
-0.11346036 -0.045684509 0.45541182
-0.1130289 -0.045673203 0.45531914
-0.11259825 -0.04566215 0.45522889
-0.11214197 -0.045640588 0.45503375
-0.11170083 -0.045625057 0.45489874
-0.11127326 -0.045614976 0.45481795
-0.11085968 -0.045610573 0.45479381
-0.11039983 -0.045587037 0.45457876
-0.10993721 -0.045562174 0.4543505
-0.10952509 -0.04555814 0.45432979
-0.10909911 -0.045548286 0.45425108
-0.10867746 -0.045540176 0.45418966
-0.10822554 -0.045519277 0.45400059
-0.10780433 -0.045511186 0.45393926
-0.10736375 -0.045494825 0.45379537
-0.10698944 -0.045506526 0.45393136
-0.1066049 -0.04551395 0.45402467
-0.10624074 -0.045530166 0.4542056
-0.074681863 -0.044458706 0.44475421
-0.074285246 -0.044456355 0.44474518
-0.07387799 -0.04444759 0.44467184
-0.073476292 -0.044442084 0.44463113
-0.073067516 -0.044432212 0.44454664
-0.072652079 -0.044418171 0.44442028
-0.07221891 -0.04439307 0.44418332
-0.071805432 -0.044379871 0.44406527
-0.071396001 -0.044369046 0.44397092
-0.070981599 -0.044354983 0.44384411
-0.070578575 -0.044347923 0.44378731
-0.070170917 -0.044337854 0.44370028
-0.069749936 -0.044319209 0.4435274
-0.069343671 -0.044309754 0.44344637
-0.068929181 -0.044294905 0.44331133
-0.068518586 -0.044282403 0.44319966
-0.068120904 -0.044278152 0.44317052
-0.067711316 -0.044266075 0.44306299
-0.0673059 -0.044256594 0.44298136
-0.066879645 -0.044233225 0.44276062
-0.066464812 -0.044217173 0.44261307
-0.066055223 -0.044204451 0.44249871
-0.065644443 -0.044190764 0.44237471
-0.065237381 -0.04417944 0.44227421
-0.064842865 -0.04417653 0.44225788
-0.064422421 -0.04415581 0.44206321
-0.064031906 -0.044155471 0.44207248
-0.063603096 -0.044128567 0.4418157
-0.063203245 -0.044121541 0.44175789
-0.062799811 -0.044111915 0.44167396
-0.062391881 -0.044098988 0.44155687
-0.062004942 -0.044100832 0.44158766
-0.061608978 -0.044096243 0.44155386
-0.061222371 -0.044098329 0.44158694
-0.0608413 -0.044104457 0.4416604
-0.12045799 -0.04548512 0.45715049
-0.12008052 -0.045495663 0.45727718
-0.11965823 -0.045489255 0.45723343
-0.11921305 -0.04547406 0.45710132
-0.11879843 -0.045470458 0.45708576
-0.11832426 -0.045443963 0.45683995
-0.11792178 -0.045444921 0.45687002
-0.1174664 -0.045425419 0.45669445
-0.11705248 -0.045421876 0.45667922
-0.11659838 -0.045402665 0.45650643
-0.11610661 -0.045368589 0.45618421
-0.11568572 -0.045362081 0.45613897
-0.1152748 -0.045359444 0.45613268
-0.11483595 -0.045345757 0.45601523
-0.11440003 -0.045333136 0.45590848
-0.11399315 -0.045331977 0.45591691
-0.11348984 -0.045292333 0.45553818
-0.11305977 -0.045281731 0.45545155
-0.11264901 -0.045278814 0.45544213
-0.1121937 -0.045257907 0.45525175
-0.11175266 -0.045242626 0.45511785
-0.11130878 -0.045226082 0.45497122
-0.11088378 -0.045217119 0.45490077
-0.11044802 -0.045203682 0.45478529
-0.11000086 -0.045185465 0.45462164
-0.10955326 -0.045166928 0.45445472
-0.10912459 -0.045156103 0.45436528
-0.10869992 -0.045146845 0.45429164
-0.10827534 -0.045137554 0.45421761
-0.10783456 -0.045121424 0.45407468
-0.1074051 -0.045109924 0.45397827
-0.10703237 -0.045122258 0.45412168
-0.10662636 -0.045120597 0.45412421
-0.10626196 -0.045136608 0.45430452
-0.10592006 -0.045162328 0.45458251
-0.074721135 -0.044088773 0.44499671
-0.074320607 -0.044084251 0.44496551
-0.073896646 -0.044065699 0.44479269
-0.07350602 -0.044066947 0.44481963
-0.073104233 -0.044061475 0.44477865
-0.072688386 -0.044047426 0.44465107
-0.072241701 -0.044014435 0.44433212
-0.071838342 -0.044007622 0.44427744
-0.071432479 -0.043999203 0.44420639
-0.071013495 -0.043982551 0.44405222
-0.070605323 -0.043972455 0.44396415
-0.070191123 -0.043958474 0.44383672
-0.069781423 -0.043947168 0.44373623
-0.069381267 -0.04394177 0.4436954
-0.068962201 -0.04392428 0.44353235
-0.068566807 -0.043921746 0.44352025
-0.068139717 -0.043898765 0.44330162
-0.067750752 -0.043900222 0.44332969
-0.067310318 -0.043868162 0.44301912
-0.066919059 -0.043867949 0.44303021
-0.066504806 -0.043852575 0.44288805
-0.066090487 -0.043836977 0.4427436
-0.065675884 -0.043821011 0.4425953
-0.065266751 -0.04380852 0.44248205
-0.064860262 -0.043797664 0.4423852
-0.064445779 -0.043781243 0.4422321
-0.064042635 -0.043772373 0.44215521
-0.063641116 -0.043764528 0.44208851
-0.063222557 -0.043744776 0.44190156
-0.062820703 -0.043736417 0.44182956
-0.062425878 -0.04373287 0.44180614
-0.062021535 -0.043722581 0.44171447
-0.061614037 -0.043709926 0.44159883
-0.061270915 -0.043743059 0.44194576
-0.060865533 -0.043731887 0.441845
-0.060494974 -0.04374576 0.44199717
-0.12049192 -0.045092054 0.45728704
-0.12010143 -0.045097664 0.45736468
-0.11968528 -0.045093644 0.45734459
-0.11926836 -0.045089301 0.45732123
-0.11882553 -0.045075104 0.45719784
-0.11840452 -0.045069117 0.45715767
-0.11796985 -0.045057874 0.45706415
-0.11752475 -0.045042548 0.45692921
-0.11706025 -0.045019664 0.45671743
-0.11662514 -0.045007959 0.45661908
-0.11619588 -0.044998437 0.45654282
-0.11574452 -0.044980261 0.4563787
-0.11529314 -0.044961948 0.45621315
-0.1148835 -0.044959851 0.45621204
-0.11442143 -0.044937138 0.4560017
-0.11398583 -0.044924702 0.4558956
-0.11353166 -0.044904828 0.45571399
-0.11307683 -0.044884548 0.4555282
-0.11266925 -0.044882953 0.45553195
-0.11222871 -0.044868167 0.45540181
-0.11180115 -0.044858482 0.45532331
-0.11138472 -0.044853207 0.4552896
-0.11092398 -0.044829983 0.45507362
-0.11050057 -0.044821743 0.45500967
-0.11007917 -0.044814251 0.45495331
-0.10963227 -0.044796288 0.45479053
-0.1091774 -0.044774927 0.45459324
-0.10873311 -0.044757757 0.45443839
-0.10831612 -0.044751748 0.45439678
-0.10787022 -0.044733699 0.45423293
-0.10744666 -0.044724811 0.45416206
-0.10707338 -0.044736866 0.45430377
-0.10667998 -0.044740576 0.45436069
-0.1063106 -0.044754423 0.45452052
-0.10596395 -0.044777986 0.454779
-0.074730083 -0.043700695 0.44505849
-0.074343853 -0.04370464 0.44511318
-0.073934257 -0.043694824 0.44502765
-0.073515959 -0.043679737 0.44488829
-0.073114753 -0.043674693 0.44485122
-0.072707213 -0.043665789 0.44477478
-0.072289057 -0.043650378 0.44463196
-0.071871094 -0.043634918 0.44448853
-0.071462937 -0.04362528 0.44440433
-0.07103128 -0.043601103 0.44417199
-0.070621431 -0.043590121 0.44407398
-0.070224412 -0.043586981 0.44405577
-0.069806248 -0.043570612 0.44390267
-0.069391452 -0.043556161 0.4437691
-0.068987221 -0.04354823 0.44370183
-0.068581462 -0.043539222 0.4436236
-0.068170592 -0.043526862 0.44351107
-0.067768358 -0.043519892 0.44345346
-0.067340516 -0.043496314 0.44322643
-0.066920213 -0.043477353 0.44304645
-0.066532187 -0.043479268 0.44307908
-0.066118136 -0.043464083 0.4429374
-0.065711841 -0.043453861 0.44284618
-0.06531018 -0.043446597 0.44278505
-0.064890079 -0.043426897 0.44259718
-0.064481698 -0.043414857 0.44248718
-0.064067967 -0.043399047 0.44233873
-0.063654147 -0.04338298 0.44218761
-0.063240729 -0.043366995 0.44203717
-0.062836841 -0.04335738 0.44195166
-0.062435482 -0.043349404 0.44188276
-0.062050126 -0.043352507 0.44192672
-0.061637506 -0.043336488 0.44177568
-0.0612785 -0.043358196 0.44200912
-0.060887441 -0.043357357 0.4420127
-0.12021566 -0.044734243 0.45780742
-0.11970496 -0.044695098 0.45742756
-0.11930878 -0.044698596 0.45748404
-0.11886863 -0.044685587 0.45737153
-0.11841815 -0.044668581 0.45721808
-0.1179873 -0.04465891 0.45713955
-0.11755795 -0.044649731 0.45706612
-0.11712676 -0.044639785 0.45698473
-0.1166734 -0.044621293 0.45681584
-0.11624703 -0.04461303 0.45675159
-0.11578505 -0.044591006 0.45654643
-0.11532529 -0.044569667 0.45634821
-0.11490862 -0.044564907 0.45631966
-0.1144736 -0.04455296 0.4562175
-0.1140512 -0.044545859 0.45616496
-0.11357877 -0.044519104 0.45591098
-0.11320349 -0.044530366 0.45604634
-0.11268921 -0.044486839 0.45562059
-0.11228106 -0.044485044 0.45562211
-0.11183639 -0.04446872 0.45547476
-0.11135615 -0.044438079 0.45518079
-0.11098781 -0.044452038 0.45534354
-0.11055279 -0.04443929 0.45523265
-0.11012496 -0.044429351 0.45515054
-0.10965833 -0.044403628 0.45490664
-0.10921365 -0.04438664 0.45475215
-0.10879605 -0.044380564 0.45470944
-0.10834228 -0.044359639 0.4545145
-0.1079357 -0.044357952 0.45451662
-0.10749067 -0.044340398 0.4543561
-0.10711278 -0.044350497 0.45447895
-0.10669719 -0.044345018 0.45444205
-0.10633384 -0.044361282 0.45462796
-0.074758545 -0.043323833 0.44523647
-0.074349962 -0.043314811 0.4451583
-0.073975287 -0.043325555 0.44528314
-0.073557854 -0.043311231 0.44515029
-0.07313697 -0.043294724 0.4449949
-0.072733924 -0.043288644 0.44494665
-0.072313458 -0.043272078 0.44479057
-0.071902253 -0.043260902 0.44468975
-0.071474202 -0.043239415 0.44448289
-0.071088426 -0.043243401 0.44453782
-0.070655115 -0.043218363 0.44429427
-0.070264593 -0.043219361 0.44431835
-0.069827974 -0.043191858 0.4440493
-0.069425911 -0.043185543 0.44399804
-0.069014408 -0.043173246 0.44388521
-0.068603143 -0.04316096 0.44377238
-0.068202361 -0.043155167 0.4437263
-0.067790866 -0.04314249 0.4436093
-0.067369722 -0.043123495 0.44342721
-0.066988125 -0.043129735 0.4435046
-0.066540897 -0.04309354 0.44314557
-0.066135891 -0.043084424 0.4430649
-0.065734088 -0.043077301 0.44300464
-0.065327823 -0.04306715 0.44291317
-0.064912722 -0.043051023 0.44276017
-0.06452506 -0.043053009 0.44279337
-0.064095624 -0.043026969 0.44253823
-0.063685015 -0.043013323 0.44241056
-0.063266136 -0.042993899 0.44222331
-0.062866837 -0.042987622 0.44217119
-0.062466178 -0.042980328 0.44210857
-0.062068116 -0.042974744 0.44206345
-0.061661713 -0.042963274 0.44195774
-0.061286207 -0.042973325 0.44207332
-0.060900941 -0.04297661 0.44211927
-0.060549457 -0.043003939 0.44241244
-0.1202074 -0.044324879 0.45778364
-0.11978936 -0.044320367 0.45775777
-0.11937832 -0.044318419 0.45775837
-0.11890529 -0.04429337 0.45752028
-0.1184843 -0.044287596 0.45748127
-0.1180208 -0.044265844 0.45727709
-0.11762214 -0.04426834 0.45732343
-0.11718076 -0.044254728 0.45720321
-0.11671153 -0.044230457 0.45697293
-0.11628871 -0.04422367 0.45692319
-0.11583474 -0.044204947 0.45675007
-0.11537566 -0.044184145 0.45655537
-0.11494262 -0.044173196 0.45646247
-0.11452776 -0.04416918 0.45644119
