# .PCD v0.7 - Point Cloud Data file format
VERSION 0.7
FIELDS x y z
SIZE 4 4 4
TYPE F F F
COUNT 1 1 1
WIDTH 1338
HEIGHT 1
VIEWPOINT 0 0 0 1 0 0 0
POINTS 1338
DATA ascii
0.026610173 0.0010878366 0.42698503
0.026982125 0.0010876881 0.42691934
0.027351441 0.0010874387 0.42681399
0.027724249 0.0010873334 0.42676511
0.028091826 0.0010870284 0.42663777
0.028456109 0.0010866057 0.42646411
0.02882986 0.001086551 0.42643481
0.029202327 0.0010864501 0.42638731
0.029562699 0.0010859073 0.4261663
0.029939145 0.0010859615 0.42617941
0.030305967 0.0010856695 0.42605665
0.030681927 0.0010857082 0.42606351
0.031036125 0.0010849851 0.42577139
0.031400107 0.0010846173 0.42561859
0.031767979 0.0010843913 0.42552131
0.03213717 0.0010842147 0.42544338
0.032502238 0.0010839051 0.42531314
0.032872476 0.0010837729 0.42525244
0.033246089 0.0010837539 0.42523608
0.033612918 0.0010835166 0.42513394
0.033972569 0.0010830559 0.42494404
0.034336686 0.0010827461 0.42481327
0.034705356 0.0010825848 0.42474079
0.035070669 0.0010823238 0.42462894
0.035443578 0.0010823001 0.4246102
0.035813373 0.0010821829 0.42455468
0.036168348 0.001081625 0.42432618
0.036542583 0.001081649 0.42432579
0.036910262 0.0010814803 0.4242498
0.037272274 0.0010811504 0.42411047
0.037631616 0.0010807506 0.42394367
0.037994392 0.0010804565 0.4238182
0.038362969 0.0010803314 0.42375898
0.03872076 0.0010799082 0.42358267
0.039092369 0.0010798746 0.42355913
0.039451804 0.0010795089 0.42340523
0.039826974 0.0010795762 0.42342114
0.040178135 0.001078998 0.42318368
0.040558036 0.0010791952 0.42325032
0.040946316 0.0010796096 0.42340204
0.041305251 0.00107925 0.42325011
0.041698765 0.0010797923 0.42345178
0.04207791 0.0010799562 0.42350498
0.042464614 0.0010803096 0.42363241
0.042832568 0.0010801842 0.423572
0.043193776 0.0010798923 0.42344615
0.043543719 0.0010793264 0.4232128
0.043917928 0.0010793663 0.42321694
0.045733768 0.0010782565 0.42272288
0.046054564 0.0010770547 0.42223966
0.046404663 0.001076552 0.42203045
0.046745416 0.0010758421 0.42174
0.047084842 0.0010751134 0.42144206
0.0474292 0.0010745077 0.42119226
0.047802135 0.0010745539 0.42119795
0.048137784 0.0010737679 0.42087731
0.048509482 0.0010737919 0.42087409
0.048861995 0.0010733942 0.4207055
0.049232632 0.0010733976 0.42069408
0.049598794 0.0010733042 0.42064461
0.049955443 0.0010730082 0.42051563
0.050321363 0.0010729139 0.42046568
0.050670594 0.0010724681 0.42027783
0.051047165 0.0010726034 0.42031762
0.05138059 0.0010718366 0.42000386
0.051753156 0.0010718914 0.42001203
0.052101199 0.0010714417 0.41982228
0.052471243 0.0010714472 0.41981092
0.052838266 0.0010713916 0.41977552
0.053184368 0.0010709156 0.4195753
0.053550933 0.0010708554 0.41953793
0.053927671 0.0010709981 0.41958004
0.054295082 0.0010709552 0.41954923
0.054684982 0.0010713533 0.41969118
0.055052157 0.001071304 0.41965771
0.055437621 0.001071609 0.41976297
0.0075421422 0.0014817298 0.43246487
0.0079197949 0.0014812361 0.43231836
0.0082994513 0.0014811453 0.43228927
0.008678928 0.001481032 0.43225357
0.0090572732 0.0014807431 0.43216652
0.009434972 0.0014803761 0.43205661
0.0098101133 0.0014796517 0.43184224
0.010188163 0.0014794036 0.43176684
0.010567287 0.001479324 0.43174052
0.010941756 0.0014786208 0.43153206
0.011320283 0.0014784946 0.43149194
0.011697602 0.0014782242 0.43140963
0.012073346 0.001477778 0.4312759
0.012448395 0.0014772763 0.43112594
0.012825695 0.0014770636 0.43106025
0.013201111 0.0014766526 0.43093649
0.013578192 0.0014764456 0.43087223
0.013954012 0.0014761162 0.43077219
0.014327693 0.0014755843 0.43061295
0.01470482 0.0014754254 0.43056241
0.015077885 0.0014748775 0.43039829
0.015449068 0.0014741765 0.4301894
0.015826691 0.0014741092 0.43016538
0.016203374 0.0014739593 0.4301171
0.016581124 0.0014739115 0.4300985
0.016955094 0.0014735373 0.42998469
0.017326819 0.0014729885 0.42981973
0.017699858 0.0014725723 0.42969346
0.018071646 0.001472072 0.42954248
0.018449165 0.0014720494 0.42953083
0.018819483 0.0014714646 0.42935508
0.019193552 0.0014711905 0.42926985
0.019564914 0.0014707237 0.42912826
0.019943804 0.0014708295 0.42915374
0.02031577 0.0014704305 0.42903179
0.020684913 0.0014698454 0.42885551
0.021059535 0.0014696638 0.42879683
0.021430464 0.0014692354 0.42866603
0.021800613 0.0014687692 0.42852417
0.022174951 0.0014685966 0.42846781
0.022550115 0.0014684835 0.42842874
0.022916961 0.0014678412 0.42823526
0.023287481 0.0014674516 0.42811531
0.023658168 0.0014670845 0.42800188
0.024038943 0.001467345 0.42807144
0.024398342 0.0014663129 0.42776382
0.024773598 0.0014662504 0.42773902
0.025151683 0.0014663549 0.42776284
0.025506817 0.0014651382 0.4274011
0.025887098 0.0014653804 0.42746487
0.026253911 0.0014648642 0.42730731
0.026624417 0.0014645658 0.42721319
0.026986536 0.0014638208 0.42698878
0.027359612 0.0014636825 0.42694122
0.027735367 0.0014636895 0.42693591
0.028103109 0.001463279 0.42680877
0.028468277 0.0014627471 0.42664614
0.028837288 0.0014624243 0.42654437
0.029204637 0.0014620265 0.42642069
0.029577721 0.0014619223 0.42638251
0.02994989 0.0014617761 0.42633203
0.030320106 0.0014615395 0.42625511
0.030684853 0.0014610483 0.4261038
0.031041365 0.0014601817 0.42584294
0.031416759 0.0014602136 0.42584398
0.031786609 0.0014599899 0.42577049
0.032150608 0.0014595058 0.42562094
0.032519441 0.0014592502 0.42553794
0.032887742 0.0014589768 0.42544961
0.033261091 0.001458931 0.42542762
0.033624843 0.00145847 0.42528445
0.033989247 0.001458047 0.42515227
0.034353934 0.0014576457 0.42502633
0.03472187 0.0014573892 0.42494258
0.035089765 0.0014571365 0.42485979
0.035463504 0.0014571296 0.42484865
0.03581601 0.0014562593 0.42458561
0.036181074 0.0014559126 0.42447516
0.036553863 0.0014558806 0.42445642
0.036914583 0.0014553736 0.42429909
0.037281424 0.0014551156 0.4242143
0.03765469 0.0014551112 0.42420328
0.038023934 0.001454953 0.4241474
0.038380869 0.0014543316 0.42395636
0.038735181 0.0014536238 0.42374009
0.039110303 0.0014537029 0.42375314
0.039470736 0.0014532401 0.42360806
0.03983302 0.0014528533 0.42348513
0.040196445 0.0014525149 0.42337623
0.040569503 0.0014525278 0.42336962
0.040943637 0.0014525788 0.423374
0.041313294 0.0014524716 0.42333218
0.04168513 0.001452442 0.42331296
0.042062592 0.0014526076 0.42335045
0.042448871 0.0014530722 0.42347506
0.04282121 0.0014530555 0.42345929
0.043196376 0.0014531346 0.4234713
0.043562237 0.0014529019 0.42339244
0.043920662 0.0014524272 0.42324299
0.044308793 0.0014529347 0.42337963
0.04537838 0.0014513759 0.42289114
0.045726892 0.0014506187 0.42265901
0.046051715 0.0014491288 0.42221323
0.046386227 0.0014479652 0.42186245
0.046750341 0.0014477365 0.42178404
0.047109038 0.0014473456 0.42165828
0.047445245 0.001446275 0.42133442
0.047822062 0.0014464495 0.42137319
0.048173252 0.0014458521 0.42118707
0.048545621 0.0014458948 0.42118728
0.048889637 0.001445099 0.42094317
0.049250074 0.0014447969 0.4208428
0.049603272 0.0014442886 0.42068228
0.049971879 0.0014442332 0.42065361
0.050336566 0.0014440664 0.4205924
0.050704274 0.0014439879 0.42055687
0.051059194 0.0014435493 0.42041633
0.051420987 0.0014433099 0.42033377
0.051773194 0.0014428068 0.42017433
0.052122816 0.0014422396 0.41999611
0.052489821 0.001442158 0.41995925
0.052842807 0.001441695 0.41981125
0.053214632 0.001441749 0.41981375
0.053565521 0.0014412393 0.41965196
0.053940352 0.0014413761 0.41967839
0.054307912 0.0014413182 0.41964802
0.054684971 0.0014415116 0.41969073
0.055043317 0.0014412124 0.41959
0.05543768 0.0014418543 0.41976306
0.055824429 0.0014422907 0.41987634
0.056231029 0.0014432314 0.42013624
0.0067954068 0.0018661063 0.43335202
0.0071666394 0.0018635488 0.43275586
0.0075448747 0.0018629781 0.43262103
0.0079235686 0.0018625701 0.43252388
0.0083018485 0.0018621064 0.4324137
0.0086814957 0.0018619765 0.43238091
0.0090598445 0.0018615911 0.43228877
0.0094402917 0.0018616503 0.43229967
0.0098151257 0.0018606408 0.43206242
0.010191357 0.0018599617 0.43190172
0.010571724 0.0018600588 0.43192127
0.010945965 0.001859109 0.43169755
0.011324913 0.0018589954 0.43166792
0.011702861 0.0018587305 0.43160304
0.012079093 0.0018582182 0.43148071
0.012455214 0.0018577205 0.43136165
0.01283031 0.001857104 0.43121487
0.013203993 0.0018563243 0.43103012
0.013581591 0.0018561229 0.43097958
0.013959071 0.001855917 0.43092787
0.01433349 0.001855326 0.43078667
0.014712856 0.0018553889 0.43079725
0.015087034 0.0018548111 0.43065894
0.015460677 0.0018541974 0.43051222
0.015831435 0.0018532756 0.43029383
0.016203316 0.0018525252 0.43011513
0.016581863 0.0018525537 0.43011728
0.016958732 0.0018523977 0.43007645
0.017334525 0.0018521334 0.43001038
0.017705871 0.0018514158 0.42983902
0.018080411 0.001851055 0.42975035
0.018454576 0.0018506714 0.42965639
0.018828761 0.0018503051 0.42956626
0.019197641 0.0018494425 0.42936084
0.019576246 0.0018495321 0.42937639
0.019948395 0.0018490197 0.42925212
0.020321514 0.0018486144 0.42915264
0.020693853 0.0018481547 0.4290404
0.02106729 0.0018478077 0.42895421
0.021440592 0.0018474613 0.42886817
0.021808524 0.0018466722 0.4286792
0.022183238 0.0018464745 0.42862746
0.022553282 0.0018459015 0.42848846
0.022926733 0.0018456214 0.42841741
0.023296721 0.0018450761 0.42828473
0.02366849 0.0018446872 0.4281882
0.024038907 0.0018442066 0.42807037
0.024413042 0.0018440218 0.42802107
0.024778828 0.0018432217 0.42782888
0.025149474 0.0018428018 0.42772481
0.025525356 0.0018427724 0.42771134
0.025894091 0.001842235 0.42757985
0.026263917 0.0018417898 0.42746973
0.026635313 0.0018414658 0.42738762
0.027009105 0.0018413143 0.42734542
0.027376598 0.0018407435 0.42720583
0.027741717 0.0018400305 0.42703322
0.028106902 0.001839341 0.42686594
0.028488526 0.0018397316 0.4269492
0.028850051 0.0018388309 0.42673272
0.029219059 0.0018384242 0.4266308
0.029580159 0.0018375366 0.4264172
0.029960139 0.0018378298 0.42647752
0.030326905 0.0018373148 0.42635021
0.030701358 0.0018372727 0.42633256
0.031069586 0.0018368635 0.42622966
0.03143182 0.0018361143 0.42604774
0.031793829 0.0018353696 0.42586678
0.032156434 0.0018346761 0.42569765
0.032531504 0.0018347019 0.4256953
0.03290271 0.0018345119 0.42564285
0.033267729 0.0018339851 0.42551211
0.03363426 0.0018335523 0.42540315
0.034005173 0.0018333654 0.42535114
0.034368448 0.0018327751 0.42520544
0.034740679 0.0018326706 0.42517239
0.035101302 0.0018319623 0.42499912
0.035474759 0.0018319316 0.42498296
0.035838529 0.0018314066 0.42485213
0.036203064 0.0018309315 0.42473274
0.036558397 0.0018300052 0.4245086
0.036931638 0.0018299854 0.42449465
0.037297953 0.0018296262 0.42440194
0.037673492 0.0018297222 0.42441466
0.038033992 0.0018290932 0.42425919
0.038399782 0.0018287282 0.42416486
0.038753375 0.0018277953 0.42393872
0.039119381 0.0018274598 0.42385107
0.039490648 0.0018273744 0.42382136
0.039845109 0.0018265203 0.42361322
0.040219154 0.0018265716 0.42361501
0.040583197 0.0018261718 0.4235121
0.040949058 0.0018258605 0.42342967
0.041315578 0.001825584 0.42335519
0.041684542 0.0018254194 0.42330661
0.042062107 0.0018256311 0.42334518
0.042428534 0.0018253601 0.42327172
0.042800967 0.0018253502 0.42325872
0.043179885 0.0018256143 0.42330924
0.04355393 0.0018256699 0.42331126
0.043923572 0.0018255417 0.42327064
0.04429049 0.0018253034 0.4232043
0.04466667 0.0018254479 0.42322671
0.045030378 0.0018250842 0.42313123
0.045381654 0.001824227 0.42292124
0.045688763 0.001821623 0.42230615
0.04603745 0.0018207051 0.42208201
0.046395406 0.0018201662 0.42194551
0.046751093 0.0018195473 0.42179051
0.04711584 0.001819288 0.42171872
0.047466084 0.0018184772 0.42151907
0.047838569 0.0018185246 0.42151824
0.048196234 0.0018180126 0.42138764
0.048560955 0.0018177722 0.42131993
0.048910968 0.0018169892 0.42112643
0.049281526 0.0018169757 0.42111114
0.049639687 0.0018165088 0.42099074
0.049992952 0.0018158709 0.42083064
0.050349075 0.0018153457 0.42069653
0.050713949 0.0018151413 0.42063671
0.051080015 0.0018149824 0.42058736
0.051448759 0.0018149203 0.42056036
0.051813379 0.0018147146 0.42050007
0.052143522 0.0018133132 0.42016253
0.052511811 0.0018132487 0.42013475
0.052863535 0.0018126171 0.41997549
0.053228177 0.0018124344 0.41992018
0.053590842 0.0018121876 0.4198499
0.053945888 0.0018116882 0.41972107
0.054322433 0.0018119126 0.41975984
0.054683335 0.0018116159 0.41967779
0.05506758 0.0018120916 0.41977456
0.055445667 0.0018123594 0.41982317
0.055822063 0.001812569 0.41985819
0.0067939772 0.0022469843 0.43326023
0.0071693603 0.0022452285 0.4329195
0.0075476728 0.0022445212 0.43278083
0.007928703 0.0022446511 0.43280345
0.0083070649 0.0022440483 0.43268475
0.0086833276 0.0022429561 0.43247157
0.0090620006 0.0022425517 0.43239096
0.0094422773 0.002242561 0.43238997
0.0098220576 0.0022424562 0.43236694
0.010193123 0.0022404434 0.43197596
0.010573699 0.002240591 0.43200138
0.010950406 0.0022399365 0.4318721
0.011326656 0.0022392359 0.43173376
0.011705024 0.0022389858 0.43168226
0.012082662 0.0022386159 0.4316076
0.012459551 0.0022381344 0.43151125
0.0128368 0.0022377439 0.43143237
0.013210503 0.0022367756 0.43124208
0.013591002 0.0022369795 0.43127766
0.01396572 0.0022362471 0.43113258
0.014337036 0.0022350231 0.43089268
0.014718249 0.0022353649 0.43095455
0.015092841 0.0022347097 0.43082416
0.015469592 0.0022343982 0.43075988
0.01584499 0.0022339111 0.43066168
0.016218029 0.0022331215 0.43050516
0.016593214 0.0022326573 0.43041113
0.016964626 0.0022317171 0.43022534
0.017338732 0.0022311646 0.43011421
0.017716996 0.0022311597 0.43010855
0.0180883 0.0022302966 0.42993733
0.018462114 0.002229772 0.4298313
0.018835336 0.0022291986 0.42971575
0.019213486 0.0022292195 0.42971468
0.019589677 0.0022290165 0.42967042
0.019953124 0.0022273988 0.42935333
0.020330453 0.0022273622 0.4293409
0.02069971 0.0022264584 0.42916125
0.021073071 0.0022260214 0.42907146
0.021448608 0.0022258249 0.42902797
0.02181755 0.0022249627 0.4288561
0.022188732 0.0022243548 0.42873311
0.022565743 0.0022243413 0.42872465
0.022933872 0.0022234675 0.42855027
0.023310307 0.0022234139 0.42853394
0.023676401 0.0022223918 0.42833078
0.024052905 0.0022223636 0.42831913
0.024429658 0.0022223592 0.42831188
0.024792964 0.0022211496 0.42807242
0.025166525 0.0022208816 0.42801428
0.025532022 0.0022199207 0.42782247
0.025902489 0.0022194129 0.42771801
0.026275955 0.0022191736 0.42766514
0.026645591 0.0022186222 0.42755201
0.027021009 0.002218561 0.42753327
0.02738875 0.0022178795 0.42739493
0.027757911 0.00221733 0.42728195
0.02812239 0.0022164262 0.42710063
0.028500978 0.0022166441 0.42713529
0.028867243 0.00221591 0.42698649
0.029241636 0.0022158108 0.42695993
0.029589768 0.0022137496 0.42655525
0.029977148 0.0022146394 0.4267191
0.030335054 0.0022133568 0.42646426
0.030705534 0.002213012 0.42639002
0.031077534 0.0022127838 0.4263382
0.031446405 0.0022123412 0.42624491
0.031818185 0.0022121104 0.42619246
0.032175943 0.0022109225 0.42595541
0.032551955 0.0022110012 0.42596242
0.032907333 0.0022096932 0.4257021
0.033284273 0.0022098457 0.42572311
0.033653721 0.0022095037 0.42564875
0.034018744 0.0022088815 0.42552036
0.034389675 0.0022086522 0.42546755
0.034747597 0.0022076017 0.42525646
0.035123698 0.0022077165 0.42526978
0.0354819 0.0022067153 0.42506802
0.035850037 0.0022063467 0.42498803
0.036220122 0.0022061046 0.42493236
0.036575284 0.0022049674 0.42470419
0.036939014 0.0022043653 0.42457896
0.03732371 0.0022050135 0.42469451
0.037675422 0.0022037195 0.42443591
0.038048662 0.0022036983 0.42442232
0.038404655 0.0022026878 0.42421818
0.038778264 0.0022026976 0.42421046
0.039130382 0.0022014985 0.42396978
0.03951234 0.0022019849 0.42405364
0.039866645 0.0022009355 0.42384169
0.040232856 0.0022005569 0.42375886
0.040608209 0.0022006808 0.4237726
0.040967464 0.0021999381 0.42361948
0.041329443 0.0021993539 0.42349675
0.041701268 0.0021992994 0.42347595
0.042060066 0.0021985651 0.42332417
0.042429741 0.0021984067 0.42328328
0.042794898 0.0021980198 0.42319822
0.043166421 0.0021979634 0.42317677
0.04353774 0.002197898 0.4231534
0.043911073 0.0021979343 0.42314962
0.044281751 0.0021978386 0.42312032
0.044657268 0.0021979825 0.4231371
0.045006279 0.0021968305 0.42290428
0.045343898 0.0021951459 0.42256889
0.045689419 0.0021938682 0.42231172
0.04605639 0.0021936328 0.42225516
0.046419889 0.002193237 0.42216766
0.046763401 0.0021919112 0.42190102
0.047133669 0.0021918504 0.42187783
0.047494467 0.0021913538 0.42177063
0.047855437 0.0021908728 0.42166641
0.048216894 0.0021904213 0.42156777
0.048571572 0.0021896712 0.42141157
0.048930515 0.0021891233 0.42129424
0.049289055 0.0021885659 0.42117503
0.049653031 0.0021882562 0.42110339
0.050008021 0.0021875587 0.420957
0.050373252 0.0021873158 0.42089808
0.050719399 0.0021862541 0.42068145
0.051108208 0.0021870332 0.42081904
0.051449936 0.002185801 0.42056951
0.051818974 0.0021857386 0.42054498
0.052181266 0.0021853948 0.42046621
0.052540604 0.0021849328 0.42036465
0.052897133 0.0021843617 0.42024201
0.053253122 0.0021837759 0.42011651
0.053599026 0.002182788 0.41991353
0.053967524 0.0021827274 0.41988891
0.054333504 0.0021825663 0.4198449
0.05470242 0.0021825247 0.4198238
0.055068586 0.0021823749 0.41978174
0.055454351 0.0021829987 0.41988844
0.055822141 0.0021829114 0.41985828
0.05621117 0.0021836502 0.41998693
0.056590155 0.0021839924 0.42003918
0.0067933621 0.0026280163 0.43322024
0.0071732341 0.0026276198 0.43315268
0.0075522568 0.0026269676 0.43304291
0.0079321265 0.0026266587 0.4329896
0.0083101299 0.0026257881 0.43284366
0.008687824 0.0026249008 0.43269482
0.0090666236 0.0026244076 0.43261084
0.0094460724 0.0026241343 0.43256307
0.0098251076 0.0026237718 0.43250048
0.010201159 0.0026226691 0.4323158
0.010574143 0.0026208854 0.43201879
0.01095263 0.002620542 0.43195912
0.011329743 0.0026199038 0.43185073
0.011707959 0.0026195543 0.43178982
0.012087907 0.0026196016 0.43179429
0.012461552 0.0026183217 0.43157986
0.012840664 0.0026182323 0.43156159
0.013215384 0.0026172781 0.43140072
0.013592932 0.0026169219 0.43133828
0.013969633 0.002616426 0.43125275
0.014349414 0.0026165179 0.43126401
0.014720564 0.0026150721 0.43102169
0.015096276 0.0026144891 0.43092152
0.015472555 0.0026140304 0.43084177
0.015851721 0.0026140695 0.43084395
0.016220173 0.0026123815 0.43056139
0.016600132 0.0026125812 0.43058991
0.016973972 0.0026118306 0.4304617
0.017348472 0.0026112124 0.43035522
0.017722966 0.0026106194 0.43025279
0.018093759 0.0026095177 0.43006641
0.018468043 0.0026089542 0.42996868
0.018850598 0.0026095582 0.43006331
0.019217916 0.0026080708 0.42981312
0.019590056 0.0026072827 0.42967808
0.019963074 0.0026066387 0.42956674
0.020342669 0.002606862 0.42959824
0.020712949 0.0026059051 0.42943516
0.021084657 0.0026051588 0.42930672
0.021457972 0.0026046338 0.42921463
0.02182686 0.0026035993 0.42903849
0.022199381 0.0026030256 0.42893821
0.022573495 0.002602655 0.4288713
0.022949787 0.0026025437 0.42884704
0.023315936 0.0026013041 0.42863682
0.023681527 0.0026000431 0.42842287
0.024062069 0.0026004375 0.4284817
0.024430597 0.0025995409 0.42832774
0.024793668 0.0025980996 0.42808393
0.025172172 0.0025982952 0.42810971
0.025544895 0.0025978971 0.42803755
0.025911873 0.0025969346 0.42787239
0.026289007 0.002597003 0.42787695
0.026651179 0.0025956123 0.42764109
0.027028304 0.0025956961 0.42764801
0.027397133 0.0025949928 0.42752513
0.027766412 0.0025943499 0.42741224
0.028135093 0.0025936689 0.42729294
0.028504144 0.0025930402 0.42718214
0.028871559 0.0025922807 0.42704973
0.029243499 0.002591942 0.42698655
0.029609848 0.0025911226 0.42684409
0.029973887 0.002590124 0.42667207
0.030346464 0.0025898793 0.42662409
0.030723194 0.0025899904 0.42663467
0.031084357 0.0025888023 0.42643118
0.031453222 0.0025882761 0.42633665
0.031832602 0.0025886181 0.42638499
0.032187611 0.0025869932 0.42610928
0.032554798 0.0025863734 0.42599905
0.032918092 0.0025854616 0.42584068
0.033302113 0.0025861803 0.42595074
0.033657286 0.0025846679 0.42569324
0.034027025 0.0025842946 0.42562327
0.034393951 0.0025837186 0.42551985
0.034758758 0.0025829978 0.42539248
0.035134267 0.0025830786 0.4253971
0.035495333 0.0025821074 0.42522839
0.035858523 0.0025813095 0.42508808
0.036229644 0.0025810932 0.42504349
0.036597181 0.0025806285 0.42495784
0.03695986 0.0025798345 0.42481795
0.037332557 0.0025797484 0.42479458
0.037691828 0.0025787454 0.42462015
0.038065769 0.0025787563 0.42461255
0.038427453 0.0025779444 0.42446938
0.038796674 0.0025776494 0.42441127
0.039155003 0.0025766429 0.42423594
0.039510023 0.0025754399 0.42402813
0.039884415 0.0025755106 0.42403001
0.040250394 0.0025750417 0.42394292
0.040617302 0.0025746408 0.42386696
0.040980339 0.0025740038 0.42375201
0.041344147 0.0025734263 0.42364681
0.04170993 0.0025729809 0.42356333
0.042060625 0.0025716212 0.4233292
0.042436257 0.0025717968 0.42334771
0.042798761 0.00257118 0.4232358
0.043162838 0.0025706685 0.42314106
0.043535247 0.0025706573 0.42312863
0.04390236 0.0025703365 0.4230651
0.04427848 0.0025705439 0.42308849
0.044635758 0.0025696633 0.42293271
0.045003269 0.0025693814 0.4228754
0.045347262 0.0025677728 0.42259967
0.045704413 0.0025669297 0.42244977
0.04604695 0.0025652852 0.42216802
0.046419062 0.0025653027 0.42215961
0.046797208 0.0025656498 0.42220545
0.047145616 0.0025643744 0.42198417
0.047521867 0.0025646214 0.42201334
0.047877662 0.0025637695 0.42186162
0.048219331 0.0025621804 0.42158848
0.048589546 0.0025621203 0.42156693
0.048951898 0.00256165 0.42147776
0.049303714 0.0025606398 0.4212997
0.049671862 0.0025604866 0.42126253
0.050036561 0.0025601592 0.42119667
0.050387476 0.0025591364 0.42101631
0.0507426 0.002558341 0.42087328
0.051114377 0.0025583908 0.42086923
0.051469192 0.0025575971 0.42072636
0.051835846 0.002557399 0.42068133
0.052204791 0.0025573159 0.42065519
0.052564315 0.0025567757 0.4205538
0.052908365 0.0025554958 0.42033061
0.053281248 0.0025556167 0.4203378
0.053625364 0.0025543659 0.42011929
0.053975243 0.0025534045 0.41994837
0.054365702 0.0025543636 0.42009315
0.054711435 0.0025532222 0.4198924
0.055082299 0.0025532611 0.41988572
0.055455707 0.0025534166 0.41989815
0.055836003 0.0025538856 0.41996199
0.056203943 0.0025537864 0.41993237
0.05659879 0.0025549037 0.42010269
0.0064138384 0.0030099223 0.43331805
0.0067955637 0.0030102262 0.43335971
0.0071748062 0.0030094567 0.43324673
0.0075551737 0.0030092124 0.43320933
0.0079355249 0.0030089852 0.43317425
0.0083123669 0.0030075093 0.43295929
0.0086943936 0.0030079563 0.43302113
0.0090702465 0.0030063195 0.43278286
0.009450905 0.0030063428 0.43278354
0.0098294467 0.0030057172 0.43269068
0.010213386 0.0030067274 0.43283319
0.011714458 0.0030012252 0.43202865
0.012086847 0.0029993518 0.4317556
0.012467699 0.002999628 0.43179196
0.012844396 0.0029989181 0.43168622
0.013221982 0.0029984503 0.43161529
0.013598095 0.0029976838 0.43150127
0.013973391 0.0029967839 0.43136796
0.014352074 0.0029966387 0.43134317
0.014725658 0.0029954638 0.43117014
0.015101808 0.0029948566 0.43107867
0.015478455 0.0029943755 0.4310053
0.015851282 0.002993196 0.43083125
0.016230918 0.0029933276 0.43084592
0.016603038 0.0029920978 0.43066451
0.016978314 0.0029914796 0.43057105
0.017353863 0.0029909352 0.43048817
0.017736917 0.0029916808 0.43059075
0.018104222 0.0029897932 0.43031436
0.018474497 0.0029884642 0.43011823
0.018854605 0.0029887466 0.43015397
0.019221151 0.0029869108 0.4298847
0.019598063 0.0029867257 0.42985296
0.019971699 0.0029860574 0.4297516
0.020347357 0.0029857107 0.42969647
0.020723617 0.0029854639 0.42965558
0.021089165 0.0029837103 0.42939776
0.021464262 0.0029833454 0.42933971
0.021833329 0.0029821694 0.42916486
0.022204792 0.0029813556 0.42904204
0.022580732 0.0029811598 0.4290081
0.022958843 0.0029812525 0.42901555
0.023330517 0.0029805198 0.42890412
0.023691701 0.0029784918 0.42860624
0.024069972 0.002978642 0.42862171
0.024436433 0.0029773484 0.42842934
0.024809642 0.0029769037 0.42835903
0.025178358 0.0029759414 0.42821419
0.025547074 0.0029750078 0.42807338
0.025926098 0.0029752841 0.42810658
0.02629183 0.002974049 0.42792219
0.026669644 0.0029741959 0.42793661
0.027034294 0.0029728916 0.42774209
0.027401498 0.0029718999 0.42759252
0.027775647 0.0029716783 0.42755362
0.02814774 0.0029712454 0.4274843
0.028508939 0.0029696894 0.42725328
0.028881621 0.0029693544 0.42719781
0.029256226 0.0029692235 0.42717165
0.029622849 0.0029682955 0.42703077
0.029995905 0.002968028 0.42698476
0.030354317 0.002966336 0.42673376
0.030730434 0.0029663942 0.42673451
0.031093331 0.0029651907 0.42655358
0.031464957 0.0029648382 0.42649505
0.031834833 0.0029643313 0.42641422
0.032200351 0.0029634349 0.42627728
0.03256477 0.0029624589 0.4261288
0.032926768 0.002961288 0.4259522
0.033304017 0.0029614996 0.4259744
0.033672377 0.002960925 0.42588341
0.034036286 0.0029599757 0.42573845
0.034409046 0.0029598086 0.42570594
0.034777913 0.0029593138 0.42562619
0.035141144 0.0029583555 0.42547968
0.035507094 0.0029576439 0.42536858
0.035870679 0.0029567517 0.42523149
0.036248863 0.0029570693 0.42526823
0.036609743 0.0029559836 0.4251031
0.036978681 0.0029555636 0.4250336
0.037343353 0.0029548146 0.42491671
0.03771475 0.0029546074 0.42487764
0.038084015 0.002954239 0.42481539
0.038435262 0.0029524937 0.424555
0.038803272 0.0029520572 0.42448276
0.03917199 0.0029516823 0.42441928
0.039530598 0.0029505603 0.42424831
0.03990186 0.0029503948 0.42421478
0.040264379 0.0029495922 0.42408958
0.040627621 0.0029488569 0.42397395
0.040994294 0.0029483815 0.42389563
0.04135976 0.0029478287 0.42380613
0.04173163 0.0029477382 0.42378294
0.042081531 0.0029461114 0.42353892
0.042450085 0.002945808 0.42348495
0.042812288 0.0029450727 0.4233689
0.043176416 0.0029444816 0.42327347
0.043542795 0.0029440527 0.42320129
0.043912243 0.0029438371 0.42315969
0.044281822 0.0029436341 0.42311978
0.044649813 0.002943329 0.42306522
0.045010768 0.00294257 0.42294526
0.045349352 0.0029403726 0.42261848
0.045717388 0.0029401048 0.42256901
0.0460671 0.0029386727 0.42235211
0.04643999 0.0029387304 0.42234924
0.046810538 0.0029386405 0.42232507
0.04717847 0.0029383888 0.4222776
0.04753625 0.0029375141 0.42214045
0.047886938 0.0029362177 0.42194268
0.048245229 0.002935404 0.42181423
0.048611131 0.0029350626 0.42175353
0.048980046 0.0029349071 0.42171949
0.049330041 0.0029336286 0.42152399
0.049681004 0.0029324265 0.42133939
0.050063074 0.0029330645 0.42141917
0.050405826 0.002931407 0.42116901
0.050779652 0.0029315674 0.42117995
0.051137712 0.0029308221 0.42106071
0.051485714 0.0029295154 0.42086074
0.051847924 0.00292903 0.42077869
0.052226435 0.0029294661 0.42082894
0.05257728 0.0029283548 0.42065683
0.052935354 0.0029276593 0.42054442
0.053297672 0.0029272062 0.42046672
0.053657282 0.0029266123 0.4203687
0.054001939 0.0029252165 0.42015544
0.054364469 0.0029248011 0.42008296
0.054732211 0.0029246702 0.42005125
0.055091791 0.0029241072 0.4199574
0.055468466 0.0029244539 0.41999412
0.055837512 0.0029243962 0.41997269
0.056219216 0.0029249978 0.42004582
0.056588959 0.0029249734 0.42002907
0.0060429457 0.0033969451 0.43404779
0.0064196759 0.0033943283 0.43371144
0.0067992718 0.0033934347 0.43359518
0.007179291 0.0033928361 0.4335165
0.0075577847 0.0033916135 0.43335804
0.0079382528 0.0033913516 0.43332216
0.0083179511 0.0033907995 0.43324924
0.0086970255 0.0033900524 0.43315125
0.0090777911 0.0033900002 0.43314195
0.0094618574 0.0033911346 0.43328419
0.0098487418 0.0033931513 0.43353909
0.012092253 0.0033808427 0.43194783
0.013224876 0.0033790551 0.4317089
0.013602345 0.0033785074 0.43163529
0.013978069 0.0033775682 0.43151149
0.014354792 0.0033769135 0.43142402
0.014735935 0.0033773056 0.43147019
0.015112247 0.0033765987 0.43137583
0.015483971 0.0033749256 0.43115798
0.015859473 0.0033741375 0.43105307
0.016236436 0.0033736888 0.43099144
0.01661144 0.0033728634 0.43088165
0.016987212 0.0033722266 0.43079588
0.017360499 0.0033711356 0.4306519
0.017733995 0.0033701307 0.43051895
0.018111603 0.0033699335 0.43048894
0.018484864 0.0033689516 0.43035874
0.018863669 0.0033689993 0.4303599
0.01923357 0.0033674859 0.43016165
0.019604698 0.0033662422 0.42999768
0.019980546 0.0033658405 0.42994121
0.020353764 0.0033650186 0.42983097
0.020731358 0.0033649371 0.4298152
0.021104433 0.0033641383 0.4297078
0.021476679 0.0033632382 0.42958727
0.021848515 0.0033623052 0.42946255
0.022217805 0.0033610193 0.42929262
0.022591447 0.003360424 0.42921084
0.022962591 0.0033594829 0.42908475
0.023339227 0.0033593627 0.42906347
0.02370776 0.003358098 0.42889592
0.024082625 0.0033577564 0.42884618
0.024451658 0.0033566244 0.42869544
0.024819804 0.0033554072 0.42853373
0.025195673 0.0033552547 0.42850786
0.02556845 0.0033547012 0.42843074
0.025934206 0.003353256 0.42823961
0.026301982 0.0033521096 0.42808661
0.026676871 0.0033518896 0.4280518
0.027047146 0.0033511037 0.42794463
0.027420672 0.0033507366 0.4278909
0.027788537 0.0033496977 0.42775124
0.028164115 0.0033496032 0.42773217
0.028517509 0.0033469086 0.42738095
0.02888748 0.0033462036 0.42728373
0.029257283 0.0033454977 0.42718631
0.029626785 0.0033447759 0.42708674
0.030008398 0.0033454224 0.42716184
0.030356402 0.0033423519 0.42676228
0.03073981 0.0033432078 0.42686391
0.031112345 0.0033428741 0.4268136
0.031484395 0.0033424976 0.42675772
0.031846497 0.0033410862 0.42656964
0.032221392 0.0033410338 0.42655504
0.032588944 0.0033402306 0.42644435
0.032938004 0.0033375716 0.4260968
0.033305135 0.003336783 0.42598793
0.033673335 0.0033361185 0.42589477
0.034043562 0.0033356659 0.42582867
0.034420144 0.0033358405 0.42584249
0.034785621 0.0033349462 0.42571977
0.035147827 0.0033337607 0.42555985
0.035524037 0.0033339146 0.42557076
0.035886794 0.0033328158 0.42542171
0.036256727 0.0033323993 0.4253597
0.036625914 0.0033319236 0.42529008
0.036989316 0.0033309369 0.42515507
0.03735837 0.0033304736 0.42508683
0.037721764 0.0033295201 0.42495593
0.038096584 0.0033295844 0.42495483
0.03846366 0.0033289767 0.42486793
0.038816847 0.0033271902 0.42463049
0.039184641 0.0033266784 0.42455563
0.039540485 0.0033251711 0.42435366
0.039918311 0.0033255231 0.42438892
0.040276986 0.0033242882 0.42422158
0.04064738 0.0033240342 0.42417935
0.041008454 0.00332303 0.4240413
0.041381352 0.0033229932 0.42402658
0.041748788 0.0033225226 0.42395645
0.042095687 0.0033204404 0.42368063
0.04245599 0.0033194432 0.42354313
0.042829309 0.0033194721 0.42353648
0.043180611 0.0033178085 0.42331386
0.043555513 0.003317971 0.42332414
0.043926716 0.003317852 0.42329839
0.044281438 0.0033165007 0.42311531
0.044660345 0.003316968 0.42316422
0.045018248 0.0033158811 0.42301473
0.045377865 0.0033149363 0.42288339
0.045728195 0.0033133349 0.42266816
0.046095565 0.0033129836 0.42261234
0.046452519 0.0033118953 0.42246243
0.046814416 0.0033111745 0.42235929
0.04719051 0.0033114611 0.42238459
0.047551643 0.0033107016 0.42227641
0.047906652 0.0033095311 0.42211565
0.048268769 0.0033088657 0.4220193
0.048635505 0.0033085251 0.42196429
0.048995659 0.0033077446 0.42185315
0.049342718 0.0033060992 0.42163157
0.049709603 0.003305797 0.42158121
0.050079726 0.0033057129 0.42155862
0.050429832 0.0033043181 0.42136881
0.050795786 0.0033039756 0.42131308
0.051159367 0.0033034836 0.42123827
0.051521104 0.003302881 0.42114925
0.051884349 0.0033023837 0.42107359
0.052235119 0.0033011043 0.42089817
0.052590847 0.0033001543 0.42076468
0.05295277 0.0032996039 0.42068201
0.0533223 0.0032995322 0.42066032
0.053678945 0.0032986696 0.42053768
0.054029059 0.00329742 0.42036572
0.054392088 0.0032969704 0.42029563
0.054747131 0.0032960463 0.42016494
0.055108789 0.0032955301 0.42008623
0.055484064 0.0032958298 0.42011148
0.055846047 0.0032953413 0.42003614
0.056228746 0.0032960738 0.42011634
0.056603484 0.0032963331 0.42013618
0.056988969 0.0032972107 0.42023471
0.0060423817 0.0037785524 0.43400612
0.006422387 0.0037775883 0.43389344
0.0068039768 0.0037776125 0.4338941
0.0071826172 0.0037760835 0.4337163
0.0075612222 0.00377469 0.43355402
0.0079399133 0.003773472 0.43341178
0.0083210617 0.0037734793 0.4334102
0.0087016467 0.0037732415 0.43338037
0.0090838736 0.003773706 0.43343109
0.0094676483 0.00377475 0.4335483
0.013600364 0.0037578468 0.43157148
0.013984399 0.00375905 0.43170592
0.014361895 0.0037584789 0.43163651
0.014738902 0.0037578125 0.43155605
0.015118123 0.0037577299 0.43154258
0.015494765 0.003757026 0.43145761
0.015870128 0.0037560535 0.43134171
0.016241662 0.0037542407 0.43112931
0.016618814 0.0037537795 0.43107197
0.016991863 0.0037524332 0.43091291
0.017370531 0.0037523592 0.43089986
0.017737731 0.0037498639 0.43060869
0.018115073 0.0037495722 0.43057048
0.018494103 0.0037496348 0.43057287
0.018866545 0.0037483862 0.43042463
0.01924229 0.0037478297 0.43035576
0.019613182 0.003746368 0.43018284
0.019988293 0.0037457515 0.43010694
0.02036204 0.0037449081 0.43000486
0.020736348 0.0037441957 0.42991778
0.021110063 0.0037434045 0.42982149
0.021489697 0.0037436718 0.42984673
0.021859555 0.0037422569 0.42967865
0.022224689 0.0037400948 0.42942476
0.022601711 0.0037399721 0.42940494
0.022973424 0.0037389891 0.42928624
0.023344945 0.0037380077 0.42916769
0.023720339 0.0037376673 0.4291226
0.024095586 0.0037373151 0.42907608
0.024458174 0.0037350403 0.42880878
0.024824636 0.003733418 0.42861623
0.025197491 0.0037327909 0.42853791
0.025573598 0.0037326571 0.42851612
0.025947852 0.0037322603 0.42846406
0.026317656 0.003731244 0.42834082
0.026685061 0.0037299215 0.4281823
0.027060425 0.0037297332 0.4281539
0.027429579 0.003728705 0.42802906
0.027805008 0.0037285469 0.42800394
0.028184688 0.0037289551 0.42804378
0.028561305 0.0037289525 0.42803642
0.035162296 0.0037101298 0.42573416
0.035527509 0.0037091365 0.42561153
0.035892773 0.0037081686 0.42549172
0.036264088 0.0037078401 0.42544523
0.036633942 0.0037073705 0.42538241
0.037001368 0.0037066678 0.42529279
0.037377398 0.0037068317 0.42530248
0.037741452 0.0037058166 0.42517686
0.038109865 0.003705245 0.42510206
0.038470689 0.0037039544 0.42494467
0.038841441 0.0037036352 0.42489865
0.039200064 0.0037021767 0.42472187
0.039564602 0.0037012994 0.42461163
0.03993281 0.0037007781 0.42454222
0.040296912 0.0036998899 0.42443061
0.040660728 0.0036989923 0.42431781
0.041024473 0.0036981045 0.42420608
0.041397929 0.0036980999 0.42419562
0.041765019 0.0036975322 0.42412046
0.042132087 0.0036969723 0.42404613
0.042481389 0.0036948775 0.42379564
0.042848412 0.0036943469 0.42372456
0.043207437 0.003693142 0.42357597
0.043576386 0.0036927985 0.42352617
0.043931972 0.0036913385 0.42334822
0.044308793 0.0036916723 0.42337587
0.044670299 0.003690735 0.42325771
0.045043215 0.0036907487 0.42324853
0.045392502 0.0036888411 0.42301899
0.045746677 0.0036873594 0.42283812
0.046109673 0.0036866064 0.42274082
0.046471611 0.003685782 0.42263523
0.046837866 0.0036853103 0.42257005
0.047204033 0.0036848392 0.42250478
0.047574978 0.0036847454 0.42248276
0.047939334 0.003684147 0.4224028
0.048297383 0.0036830772 0.42226866
0.048653763 0.003681897 0.42212185
0.049002338 0.0036801489 0.42190981
0.049365666 0.0036795267 0.42182684
0.049737263 0.0036795253 0.42181498
0.050097421 0.0036786846 0.42170674
0.050462529 0.0036782166 0.4216412
0.050818525 0.0036770965 0.42150083
0.051178478 0.0036762767 0.4213948
0.05154863 0.0036761961 0.42137349
0.051899631 0.0036747614 0.42119679
0.052259158 0.0036739456 0.42109102
0.052613184 0.0036727577 0.42094254
0.052974049 0.003672061 0.42085025
0.053340379 0.0036717493 0.42080206
0.053688984 0.0036702314 0.42061549
0.054058161 0.0036701306 0.42059129
0.054416828 0.0036693225 0.420486
0.054774102 0.0036684314 0.42037112
0.055136047 0.0036678643 0.42029324
0.055498593 0.0036673434 0.42022064
0.055862021 0.0036668882 0.4201555
0.056233611 0.0036669709 0.42015186
0.056614295 0.0036676421 0.42021558
0.057013471 0.0036694941 0.42041454
0.057376049 0.0036689828 0.42034262
0.0056676585 0.0041655614 0.43453726
0.0060441978 0.0041617262 0.43413532
0.006424638 0.0041608727 0.43404424
0.0068059298 0.0041606347 0.43401739
0.0071861073 0.0041597774 0.43392581
0.007565259 0.0041584424 0.43378431
0.0079486128 0.0041594338 0.4338854
0.0083239442 0.0041563297 0.43355915
0.013978729 0.0041373242 0.43152988
0.01436637 0.0041396627 0.43176994
0.01474441 0.0041391863 0.43171632
0.015123257 0.0041389535 0.43168807
0.015496821 0.0041373223 0.43151382
0.015874533 0.0041368497 0.43146038
0.016252458 0.0041364538 0.43141478
0.016619738 0.0041334284 0.43109491
0.0170017 0.0041341074 0.43116128
0.017376356 0.0041330201 0.43104333
0.017750975 0.0041319695 0.43092915
0.018123912 0.0041305795 0.43077955
0.018502668 0.004130546 0.43077129
0.018877354 0.004129624 0.4306702
0.019246468 0.004127542 0.43044817
0.019622784 0.0041270563 0.43039241
0.020001357 0.0041270535 0.43038708
0.020368904 0.0041248188 0.43014878
0.020743901 0.004124146 0.43007332
0.021116992 0.0041231262 0.42996159
0.021493718 0.0041228384 0.42992613
0.021865625 0.0041216537 0.42979699
0.022240417 0.0041210428 0.42972767
0.022610927 0.0041196723 0.42957905
0.02298161 0.0041183773 0.4294382
0.023353839 0.0041173976 0.42933017
0.023727844 0.0041167573 0.42925742
0.024099715 0.004115772 0.42914858
0.024475329 0.0041154465 0.42910856
0.024843669 0.004113927 0.42894381
0.025210526 0.0041122106 0.42875856
0.025579855 0.0041109426 0.42861995
0.025952514 0.0041102385 0.42854008
0.026328569 0.0041100848 0.42851749
0.036635313 0.0040822402 0.4253974
0.037010707 0.0040823431 0.42539912
0.037375547 0.0040812911 0.42528048
0.037750337 0.0040813354 0.42527601
0.03811869 0.0040806904 0.4251996
0.038482405 0.0040795663 0.42507318
0.038853873 0.0040792776 0.42503372
0.039223168 0.0040787687 0.42497125
0.039576408 0.0040766159 0.42473739
0.039952818 0.0040768674 0.42475402
0.040308442 0.0040750126 0.42455113
0.040670369 0.0040738243 0.42441747
0.041041907 0.004073611 0.4243854
0.041409232 0.004072987 0.42431051
0.041783188 0.004073021 0.42430401
0.042145632 0.0040719421 0.42418155
0.042507026 0.0040707816 0.42405051
0.042870823 0.0040698689 0.42394522
0.04321716 0.0040673292 0.42367035
0.043591533 0.0040674494 0.42367247
0.043950606 0.004066152 0.42352685
0.044322807 0.0040660808 0.42350885
0.044692907 0.0040658191 0.42347103
0.045047842 0.0040641939 0.42329103
0.045401923 0.0040625194 0.42310584
0.045783389 0.0040633031 0.42317656
0.046125721 0.0040606279 0.42288703
0.046499714 0.0040607615 0.42288989
0.046856865 0.004059433 0.42274052
0.047227044 0.0040592463 0.42270985
0.047590666 0.0040585021 0.42262116
0.047943138 0.0040568276 0.4224354
0.048313435 0.0040566744 0.42240807
0.048660614 0.0040545976 0.42218035
0.049033124 0.0040546469 0.42217398
0.049393967 0.0040537389 0.42206776
0.04975139 0.004052565 0.42193383
0.050112613 0.0040517165 0.42183369
0.050473187 0.0040508281 0.42172933
0.050835352 0.0040500793 0.4216395
0.051194176 0.0040490776 0.42152315
0.051545307 0.004047486 0.42134541
0.051923707 0.0040480429 0.42139125
0.05228512 0.0040472774 0.42129931
0.052637924 0.0040458613 0.4211396
0.052987248 0.0040441984 0.42095417
0.053360283 0.0040443572 0.42095822
0.053717349 0.0040433113 0.42083687
0.054075513 0.0040423614 0.42072538
0.054429058 0.0040410822 0.42057958
0.054792654 0.0040405612 0.42051259
0.05517168 0.0040411777 0.42056397
0.055518679 0.0040394557 0.42037186
0.055881128 0.0040388736 0.42029828
0.056242011 0.0040381867 0.42021376
0.056608189 0.0040378855 0.42016935
0.057007253 0.0040399199 0.42036784
0.057370119 0.0040393798 0.42029831
0.057766616 0.0040411986 0.4204742
0.058135457 0.0040410715 0.42044759
0.0056659086 0.0045465464 0.43440166
0.0060464004 0.004545419 0.43429211
0.0064282115 0.0045453585 0.43428433
0.0068096151 0.004545032 0.43425107
0.0071896422 0.0045438698 0.43413791
0.0075699561 0.004542998 0.43405235
0.0079527888 0.0045436481 0.43411213
0.0083334241 0.0045430399 0.4340516
0.00873031 0.0045509571 0.43480551
0.013974071 0.0045156167 0.43138489
0.014364392 0.0045190528 0.43170932
0.014748613 0.0045204428 0.43183818
0.01512653 0.0045198789 0.43178031
0.015504762 0.0045194346 0.43173379
0.015881188 0.0045184968 0.43164009
0.016256215 0.0045172153 0.43151337
0.016624445 0.0045141457 0.43121582
0.0170075 0.0045151492 0.43130726
0.017381268 0.0045136968 0.431164
0.017756127 0.0045125843 0.4310531
0.018130416 0.0045113764 0.43093306
0.018512499 0.0045121168 0.43099901
0.018880678 0.0045095067 0.43074489
0.019254519 0.0045083254 0.43062708
0.019629443 0.0045074383 0.43053731
0.020008966 0.0045076213 0.43054965
0.020378787 0.004505652 0.43035641
0.020751985 0.0045044874 0.43023989
0.021125725 0.0045034802 0.43013829
0.021507958 0.0045042867 0.43020988
0.021871505 0.0045012203 0.42991146
0.022253195 0.0045019276 0.42997342
0.022627786 0.0045012012 0.42989826
0.022996016 0.004499252 0.42970634
0.023364088 0.0044973358 0.42951745
0.02373543 0.0044961004 0.42939353
0.024106195 0.004494797 0.42926294
0.024483567 0.0044947453 0.42925188
0.024858799 0.004494309 0.42920402
0.025232553 0.0044936216 0.4291321
0.025611138 0.0044938037 0.42914304
0.025995547 0.0044949865 0.42924955
0.026375409 0.0044953609 0.42927876
0.026767807 0.0044978308 0.42950797
0.03775299 0.0044562956 0.42530486
0.038119845 0.0044554123 0.42521143
0.038495108 0.0044555208 0.4252125
0.038867977 0.0044553513 0.42518699
0.039232623 0.0044542518 0.42507267
0.039585453 0.0044518444 0.42483342
0.039961245 0.0044520409 0.42484257
0.040325776 0.0044509904 0.42473263
0.040683981 0.0044492679 0.42455852
0.041053049 0.0044487533 0.42449963
0.041426048 0.00444867 0.42448181
0.041784432 0.0044470336 0.42431563
0.042153422 0.0044465447 0.42425895
0.042522315 0.0044460534 0.424202
0.042888906 0.0044453326 0.42412299
0.043230359 0.0044420413 0.42379871
0.043620005 0.0044437172 0.42394817
0.043973405 0.0044417018 0.42374548
0.044331584 0.0044402005 0.4235917
0.044707127 0.0044404478 0.42360473
0.045071468 0.0044395882 0.42351201
0.04544061 0.0044392119 0.42346537
0.045789488 0.0044368771 0.42323187
0.04614101 0.0044348361 0.4230262
0.046507031 0.0044342089 0.42295542
0.046883494 0.00443458 0.42297977
0.047244996 0.0044335406 0.4228695
0.047605559 0.0044324314 0.42275241
0.047962345 0.0044309893 0.42260361
0.048328642 0.0044304417 0.42254001
0.048701297 0.0044304812 0.42253235
0.049051721 0.0044285129 0.42233309
0.049416818 0.0044278884 0.42226195
0.04976704 0.0044259513 0.42206559
0.050125968 0.0044248113 0.4219451
0.050500982 0.0044250973 0.42196056
0.050869782 0.0044248393 0.42192405
0.051210158 0.0044221305 0.42165378
0.051573012 0.0044213878 0.4215709
0.051943973 0.0044213454 0.42155474
0.052296169 0.0044197179 0.42138737
0.052662473 0.0044192979 0.42133501
0.053016778 0.0044178828 0.42118785
0.053373761 0.0044167093 0.42106354
0.053728893 0.0044154003 0.42092624
0.054103855 0.0044157282 0.42094493
0.05444973 0.0044136932 0.42073834
0.054813735 0.0044131461 0.42067343
0.05516953 0.0044119488 0.42054653
0.055536404 0.004411649 0.42050511
0.055890974 0.0044103814 0.42037132
0.05627016 0.0044110604 0.42042306
0.056636415 0.0044107237 0.42037788
0.057007946 0.0044107996 0.42037198
0.057390336 0.004411709 0.42044541
0.05777717 0.0044129463 0.42055002
0.0052918992 0.0049362611 0.43505812
0.0056684525 0.0049310294 0.4345952
0.0060489569 0.004929678 0.4344742
0.0064307698 0.0049294895 0.43445566
0.0068123005 0.0049291183 0.43442082
0.0071896371 0.0049259132 0.43413621
0.0075743492 0.0049278289 0.43430281
0.0079575619 0.0049286317 0.4343712
0.0083432766 0.0049308399 0.43456343
0.014370077 0.0049009519 0.43187892
0.014753836 0.0049022553 0.43198988
0.015130051 0.0049010487 0.43187958
0.015509961 0.0049010692 0.43187732
0.015887758 0.0049004364 0.43181741
0.016262503 0.0048989141 0.43167904
0.016644277 0.0048995307 0.43172905
0.01701553 0.0048970915 0.43150964
0.017392227 0.0048962911 0.43143466
0.017766701 0.0048949127 0.4313086
0.018134641 0.0048918291 0.43103221
0.018514505 0.0048920228 0.43104452
0.018892562 0.0048917406 0.43101484
0.019264761 0.0048899818 0.43085492
0.019642012 0.0048895497 0.43081179
0.020009719 0.0048868023 0.43056464
0.020386886 0.0048864251 0.43052623
0.020764593 0.0048861876 0.43050003
0.021130228 0.0048831697 0.43022877
0.021506546 0.0048826826 0.43018046
0.021884564 0.0048825922 0.43016693
0.022255046 0.0048808525 0.43000805
0.022627298 0.0048795519 0.42988774
0.022999544 0.0048782928 0.42977107
0.023376441 0.0048780451 0.42974338
0.023751127 0.0048773512 0.42967632
0.024115486 0.0048745922 0.42942718
0.024498053 0.0048755412 0.42950469
0.038868751 0.00483004 0.42519432
0.039237939 0.0048294063 0.42512912
0.039606225 0.0048286743 0.42505521
0.03997463 0.0048279706 0.42498371
0.040344205 0.0048274202 0.42492563
0.040712558 0.0048267352 0.42485559
0.041076742 0.0048255725 0.42474347
0.041437842 0.0048240717 0.42460153
0.041806232 0.0048234393 0.4245359
0.042176686 0.0048230537 0.42449194
0.042541955 0.0048220879 0.42439678
0.042892233 0.0048194537 0.42415479
0.043254878 0.0048182434 0.42403802
0.043617107 0.004817008 0.4239189
0.04398286 0.0048161787 0.42383555
0.044357501 0.0048163291 0.42383826
0.044731248 0.0048163794 0.42383215
0.04508356 0.0048141419 0.42362458
0.045460876 0.0048145885 0.4236531
0.045820612 0.0048131812 0.42351848
0.046165574 0.0048102569 0.42325032
0.046519905 0.0048083486 0.42307144
0.046906453 0.0048097735 0.42318577
0.047258794 0.0048076967 0.4229919
0.047628794 0.0048074345 0.42295766
0.047982827 0.0048055775 0.42278299
0.048344005 0.0048044589 0.42267329
0.048702773 0.0048031202 0.42254406
0.049069345 0.0048025651 0.42248374
0.049437266 0.0048021497 0.42243564
0.049786557 0.0047999443 0.42222998
0.050155394 0.0047996431 0.42219174
0.050517827 0.0047987364 0.42210025
0.05087243 0.0047971057 0.42194492
0.051235225 0.0047962661 0.42185909
0.051592052 0.0047948826 0.42172542
0.051961105 0.0047946484 0.4216927
0.052323509 0.0047938074 0.42160657
0.052681837 0.0047926083 0.42148888
0.053042945 0.0047916765 0.42139462
0.053402238 0.0047905953 0.42128712
0.053755421 0.0047889841 0.42113301
0.054117564 0.0047881887 0.42105052
0.054461256 0.0047857817 0.42082629
0.054821741 0.0047848746 0.42073381
0.055197693 0.0047853193 0.42076018
0.055563681 0.0047849012 0.42071053
0.055923071 0.0047839228 0.42061165
0.056283504 0.0047830474 0.42052171
0.056654844 0.0047831042 0.4205136
0.057020698 0.004782699 0.42046493
0.057399809 0.004783405 0.42051375
0.057773061 0.0047836159 0.42051908
0.058139376 0.0047832541 0.42047393
0.058520846 0.0047841361 0.42053804
0.058907978 0.0047854665 0.42064148
0.0052912706 0.005318475 0.43500474
0.0056697517 0.0053146877 0.43469316
0.0060523078 0.0053149564 0.43471321
0.0064327721 0.0053134649 0.43458933
0.0068137632 0.0053125517 0.43451256
0.0071952948 0.005312134 0.43447626
0.0075789578 0.0053132535 0.43456551
0.0079617836 0.0053137047 0.43460011
0.0083505176 0.0053178775 0.434939
0.014388146 0.0052877022 0.43242061
0.014759108 0.0052843532 0.43214285
0.015136496 0.0052834158 0.43206224
0.015516447 0.0052833962 0.43205658
0.01589659 0.0052834414 0.43205616
0.016266182 0.0052800602 0.43177539
0.016644945 0.0052797422 0.43174502
0.017020438 0.005278423 0.43163276
0.017401239 0.0052787722 0.43165687
0.017772533 0.0052762851 0.43144885
0.018146826 0.0052747722 0.43132049
0.018519267 0.005272795 0.43115407
0.018898377 0.0052727577 0.43114614
0.019275088 0.0052720648 0.43108457
0.0196435 0.0052691726 0.43084314
0.020018088 0.0052680164 0.43074343
0.020395176 0.005267547 0.43069994
0.020768821 0.0052662231 0.4305864
0.021144856 0.0052655409 0.4305253
0.021520156 0.0052647037 0.43045139
0.021884382 0.0052612321 0.43016207
0.022260278 0.0052606375 0.43010783
0.022637291 0.0052603222 0.43007633
0.023015067 0.0052601905 0.43005982
0.023386974 0.0052587446 0.42993575
0.023771361 0.0052601062 0.43004107
0.024153674 0.0052609723 0.43010589
0.039985947 0.0052038818 0.4251028
0.040359519 0.00520379 0.42508572
0.040720101 0.005202041 0.42493314
0.041086715 0.0052010869 0.42484543
0.041449979 0.0051997295 0.42472467
0.041832194 0.005200753 0.42479834
0.042189345 0.0051986701 0.42461818
0.042561237 0.0051984233 0.42458797
0.042916644 0.0051961858 0.42439502
0.043264456 0.0051930752 0.42413071
0.043644875 0.0051938975 0.42418757
0.044006806 0.0051925252 0.42406508
0.044376265 0.0051920563 0.42401633
0.04474261 0.0051912344 0.42393863
0.045104049 0.0051898616 0.42381588
