# .PCD v0.7 - Point Cloud Data file format
VERSION 0.7
FIELDS x y z
SIZE 4 4 4
TYPE F F F
COUNT 1 1 1
WIDTH 1379
HEIGHT 1
VIEWPOINT 0 0 0 1 0 0 0
POINTS 1379
DATA ascii
0.021995161 0.05034418 0.37315643
0.022322495 0.050340306 0.37312257
0.022633364 0.050299961 0.37281823
0.022959182 0.050293509 0.37276512
0.023283478 0.050283946 0.37268889
0.023609964 0.05027933 0.37264919
0.023926517 0.050253965 0.37245569
0.024255 0.050254002 0.37245041
0.024569428 0.05022531 0.37223211
0.024893899 0.050217625 0.37216946
0.025223689 0.05022075 0.37218684
0.025540633 0.050198521 0.37201625
0.025862331 0.050186101 0.37191829
0.026185598 0.050176986 0.37184477
0.026509376 0.050169066 0.37178004
0.026837721 0.050169878 0.37177992
0.027161378 0.05016201 0.37171549
0.027478587 0.050142564 0.3715651
0.027796162 0.050124235 0.37142298
0.028126497 0.050129075 0.37145245
0.028459381 0.050138291 0.37151432
0.02879943 0.050159778 0.371667
0.058244631 0.049003355 0.36222097
0.058581755 0.049017411 0.36231273
0.058905009 0.04901978 0.36231807
0.059201803 0.049000207 0.36216116
0.059508067 0.048988648 0.36206347
0.059805527 0.048970006 0.36191335
0.060116373 0.048962459 0.36184523
0.060432166 0.048959002 0.36180726
0.060734108 0.048944421 0.361687
0.061038647 0.048932076 0.36158323
0.06136309 0.048935726 0.36159763
0.061664674 0.048921205 0.3614777
0.06197935 0.048917171 0.3614352
0.062270083 0.048894372 0.36125404
0.062587783 0.048892871 0.36123016
0.06288413 0.048874795 0.36108378
0.063187622 0.048862424 0.3609795
0.06350667 0.048862144 0.36096454
0.063813433 0.048852466 0.36088005
0.06411849 0.048841584 0.36078665
0.064439587 0.048842967 0.36078379
0.064700037 0.048798591 0.36044291
0.065010212 0.048791975 0.36038086
0.065307021 0.048775438 0.36024553
0.065629683 0.048778269 0.36025321
0.065940745 0.048772503 0.36019728
0.066237897 0.048756558 0.36006618
0.066557907 0.048757501 0.36005971
0.066851608 0.048739251 0.35991153
0.067178734 0.048745435 0.35994369
0.067476168 0.048730113 0.35981703
0.067785569 0.048723537 0.35975489
0.068065882 0.048696216 0.35953951
0.068361789 0.048680242 0.35940793
0.068654671 0.048662286 0.35926163
0.068991713 0.048675645 0.35934651
0.06927079 0.048648179 0.35912991
0.069602266 0.048657585 0.35918552
0.069887623 0.04863482 0.35900357
0.070199907 0.048630904 0.35896075
0.070503622 0.048621126 0.35887453
0.070802934 0.0486084 0.35876662
0.071108989 0.048600405 0.35869351
0.071434408 0.048605654 0.35871816
0.07174436 0.048600383 0.35866508
0.072045796 0.048589408 0.35856989
0.072370946 0.04859446 0.35859293
0.072723381 0.048617702 0.35875013
0.014179045 0.050964352 0.37539175
0.014505232 0.050947681 0.37526548
0.014839708 0.050960235 0.37535432
0.015170448 0.05095968 0.37534654
0.015497356 0.050946549 0.37524611
0.015819352 0.050918154 0.37503317
0.016145572 0.050904252 0.37492684
0.01647448 0.050899193 0.37488568
0.016803162 0.050893657 0.37484089
0.017131515 0.050887357 0.3747904
0.017459396 0.050879914 0.37473142
0.017778093 0.050846484 0.37448099
0.018102549 0.050830435 0.37435853
0.018431308 0.05082684 0.37432763
0.018754009 0.050806947 0.37417674
0.019078275 0.050791916 0.37406152
0.019406971 0.050788976 0.3740353
0.019732732 0.05077859 0.37395421
0.020050561 0.050748471 0.37372765
0.020374971 0.050735705 0.37362891
0.020700842 0.05072692 0.37355939
0.021033986 0.050735962 0.37362108
0.021352796 0.050710686 0.37342992
0.021675691 0.050695725 0.37331474
0.022003794 0.050693203 0.37329108
0.022325374 0.050675962 0.3731589
0.022649597 0.050665118 0.37307385
0.022968328 0.050642487 0.37290186
0.02328798 0.050622486 0.37274924
0.023625547 0.050641444 0.37288338
0.023942918 0.050617196 0.37269932
0.024262536 0.050598279 0.37255448
0.024583494 0.050582618 0.37243354
0.024905285 0.050569076 0.3723281
0.025234966 0.050571695 0.37234157
0.025551485 0.0505482 0.37216276
0.025879152 0.050547075 0.3721486
0.026191114 0.050515689 0.37191153
0.026521653 0.050520465 0.37194064
0.026844459 0.050510582 0.37186176
0.027163632 0.050494168 0.37173477
0.027487351 0.050486501 0.37167209
0.027809232 0.050475683 0.37158611
0.028137283 0.050476182 0.3715834
0.028467938 0.05048129 0.37161458
0.058595233 0.049349315 0.36238593
0.058910523 0.049344961 0.36234176
0.059233241 0.049346834 0.36234331
0.059552871 0.049346138 0.36232594
0.059862103 0.049336877 0.36224559
0.060159814 0.049318261 0.36209655
0.060450211 0.049293883 0.36190516
0.060757514 0.049283478 0.36181629
0.061087012 0.049291085 0.36185962
0.061379436 0.04926886 0.36168388
0.061683625 0.049256254 0.3615787
0.061986703 0.049242903 0.36146799
0.062297169 0.049235519 0.36140108
0.062598318 0.04922089 0.36128095
0.062909737 0.049214453 0.36122084
0.063206725 0.049196824 0.36107862
0.063526303 0.049196884 0.3610661
0.063846022 0.049197048 0.36105436
0.064134188 0.049173016 0.36086497
0.064444497 0.049166113 0.36080128
0.064741403 0.049149111 0.36066335
0.065048791 0.049140189 0.36058474
0.065336689 0.049116712 0.36039928
0.06565842 0.049118761 0.36040103
0.065957762 0.049104124 0.36028036
0.06626489 0.049095403 0.360203
0.066561386 0.049078915 0.36006868
0.066869535 0.049071144 0.3599982
0.067196243 0.049076993 0.36002764
0.067503124 0.04906838 0.35995093
0.0678192 0.049066495 0.35992351
0.068087198 0.049030017 0.3596423
0.068389699 0.049018603 0.35954493
0.068701021 0.049013589 0.35949442
0.06901674 0.049011741 0.35946709
0.06932544 0.049004942 0.35940346
0.069631822 0.048996583 0.35932827
0.069943421 0.048991952 0.35928044
0.070237495 0.048975147 0.35914326
0.07053972 0.048964143 0.35904858
0.070819415 0.048937671 0.35884047
0.071140729 0.048940066 0.35884395
0.071445718 0.04893126 0.3587653
0.071781792 0.048943724 0.35884252
0.072068214 0.048922382 0.35867181
0.072402097 0.048933301 0.35873765
0.013865018 0.051357899 0.37584075
0.014194138 0.051349897 0.37577873
0.014512318 0.051303573 0.37543625
0.014848989 0.051323235 0.3755765
0.01517366 0.051301461 0.37541348
0.015501288 0.0512904 0.37532884
0.015829872 0.051282905 0.37527016
0.016157266 0.051271934 0.375186
0.016481733 0.051252306 0.37503839
0.016812731 0.051253345 0.37504202
0.017137295 0.051235117 0.37490454
0.017465094 0.051227063 0.37484145
0.01778576 0.051198777 0.37463024
0.018112531 0.051188774 0.37455276
0.018441064 0.051184021 0.3745136
0.018763481 0.05116275 0.37435359
0.019089395 0.051151589 0.37426743
0.01941615 0.05114302 0.37420017
0.01973892 0.05112442 0.37405941
0.020063797 0.051111791 0.37396231
0.020379951 0.051077712 0.37370822
0.02071042 0.051080018 0.37372029
0.02103905 0.051077794 0.37369907
0.021358026 0.051052555 0.37350947
0.021692216 0.051063892 0.3735874
0.022012331 0.051042262 0.37342402
0.022342142 0.051043414 0.37342727
0.022656454 0.051009644 0.37317497
0.022984959 0.051008329 0.37316003
0.023304624 0.050987717 0.37300384
0.023633616 0.05098778 0.37299892
0.023962339 0.050987292 0.3729898
0.024273425 0.050949793 0.37270993
0.024599399 0.05094412 0.37266278
0.024917327 0.050922152 0.37249637
0.025242778 0.05091593 0.37244511
0.025564965 0.050903376 0.37234741
0.025880747 0.050878551 0.37215987
0.026207283 0.050875213 0.37212953
0.02653257 0.050869565 0.37208214
0.026855754 0.050860066 0.37200657
0.027184263 0.050860766 0.37200552
0.027497986 0.050834116 0.37180433
0.027821876 0.050826665 0.37174353
0.028163627 0.050851636 0.37191981
0.028473239 0.050818667 0.37167224
0.058646385 0.049713288 0.362692
0.058934446 0.04968572 0.36247867
0.059244566 0.049676929 0.36240235
0.059555274 0.04966874 0.36233029
0.059869763 0.049663767 0.36228171
0.060159575 0.04963848 0.3620849
0.060474064 0.049633715 0.36203775
0.060787022 0.049627759 0.36198181
0.061126277 0.049643219 0.36208203
0.061413608 0.04961656 0.36187506
0.061703764 0.049592458 0.36168662
0.062040381 0.049605753 0.3617709
0.062333435 0.049584255 0.36160138
0.062632784 0.04956796 0.36146975
0.062950499 0.04956628 0.36144474
0.0632618 0.049559608 0.36138317
0.063551277 0.049535979 0.36119801
0.06384559 0.049516343 0.36104184
0.064156979 0.049510084 0.36098319
0.064477094 0.049510587 0.36097378
0.064777456 0.049495988 0.36085421
0.065078199 0.049481824 0.36073783
0.065385826 0.049472995 0.36066028
0.065675832 0.049450997 0.36048666
0.065994456 0.049450647 0.3604708
0.066285357 0.049429629 0.36030427
0.066581182 0.04941247 0.3601658
0.066902466 0.049414281 0.36016557
0.067215703 0.049410157 0.360122
0.067526251 0.049404103 0.36006436
0.067827523 0.049391344 0.35995781
0.068130687 0.049380086 0.35986212
0.068416797 0.049356624 0.35967752
0.068736464 0.049357478 0.35967004
0.069046915 0.049351741 0.35961443
0.069364212 0.049350914 0.35959464
0.069669589 0.049341667 0.3595134
0.069979183 0.049335469 0.35945433
0.070268117 0.04931483 0.35929003
0.070557311 0.049294557 0.35912836
0.070868328 0.049289651 0.35907859
0.071178466 0.049284164 0.35902455
0.071475677 0.049269825 0.358906
0.071801648 0.049275354 0.35893214
0.072106935 0.049266689 0.35885483
0.072441235 0.049277849 0.35892189
0.072801024 0.049306173 0.35911387
0.013872142 0.051715795 0.37602112
0.014193068 0.051677287 0.3757377
0.014521581 0.05166753 0.37566322
0.014852654 0.051667109 0.37565657
0.015177814 0.05164659 0.37550372
0.015508733 0.051646121 0.3754966
0.015834248 0.051628061 0.37536141
0.016159307 0.051609267 0.37522095
0.016492281 0.051616002 0.37526596
0.016816307 0.051595025 0.3751094
0.017145183 0.051589444 0.37506479
0.017469598 0.051570904 0.37492585
0.017797019 0.05156175 0.3748551
0.018122993 0.051548827 0.37475684
0.018445117 0.051525608 0.37458369
0.018770948 0.051513381 0.37449032
0.019099744 0.051509567 0.37445813
0.019428367 0.051505428 0.37442347
0.019751089 0.051486034 0.37427786
0.020077055 0.051475599 0.37419733
0.020395249 0.051445901 0.37397662
0.020723028 0.051440936 0.37393573
0.021050127 0.051434468 0.37388378
0.021371543 0.05141452 0.37373382
0.021703871 0.051421031 0.37377614
0.022035409 0.051425502 0.37380353
0.022345752 0.051381107 0.37347564
0.022664795 0.05135772 0.37330037
0.022989796 0.051348306 0.37322664
0.023321444 0.05135379 0.37326118
0.023641799 0.051334601 0.37311625
0.023968313 0.051329128 0.37307096
0.024283379 0.05129962 0.37285092
0.024608709 0.051292296 0.37279204
0.024938786 0.051294919 0.37280539
0.025263054 0.051285695 0.37273255
0.025582105 0.051266234 0.3725853
0.025902301 0.051249549 0.3724581
0.026228696 0.05124538 0.37242183
0.026544312 0.051220518 0.37223512
0.02686739 0.051210478 0.37215605
0.0271897 0.05119925 0.37206826
0.027516538 0.051196706 0.37204352
0.027850019 0.051206436 0.37210795
0.028188564 0.051225137 0.37223744
0.028520877 0.051232211 0.37228245
0.05869573 0.050076287 0.3629868
0.058969393 0.050036088 0.36268327
0.059274115 0.050022535 0.36257282
0.059596218 0.050023716 0.36256909
0.059885848 0.049997773 0.36236873
0.060199149 0.04999176 0.36231279
0.06052158 0.049993359 0.36231196
0.060821302 0.049976278 0.3621757
0.061136004 0.049971618 0.36212942
0.061435916 0.049954984 0.36199629
0.061741497 0.049943101 0.36189759
0.062057391 0.049939647 0.36185989
0.062363144 0.049928106 0.36176354
0.062660247 0.049909789 0.36161807
0.062976807 0.049907085 0.36158568
0.063280366 0.049894158 0.36147913
0.063581876 0.049879745 0.36136177
0.063896932 0.049876053 0.36132208
0.064194046 0.049858462 0.36118165
0.064492762 0.049842287 0.36105138
0.064808019 0.049838994 0.36101443
0.065126486 0.049838182 0.36099538
0.065429062 0.049825281 0.36088872
0.065725125 0.049807563 0.36074719
0.06601496 0.04978532 0.36057281
0.066313222 0.049769621 0.36044577
0.066625215 0.049764324 0.360394
0.066947386 0.049766652 0.36039743
0.067256533 0.049759306 0.36033079
0.067561939 0.049749289 0.36024472
0.067858741 0.04973305 0.36011356
0.068161465 0.049721293 0.3600148
0.06845405 0.049702279 0.35986343
0.068763532 0.049695656 0.3598018
0.069076709 0.04969174 0.35975972
0.069386363 0.049685344 0.35969961
0.069687769 0.049673125 0.35959733
0.069978036 0.04965312 0.35943863
0.070297532 0.04965394 0.35943061
0.070587866 0.049634244 0.35927406
0.070887387 0.049621154 0.35916534
0.071203209 0.049619544 0.35913962
0.071515143 0.049615249 0.35909441
0.071824826 0.049609441 0.3590382
0.072127514 0.049598865 0.35894752
0.072452754 0.049603827 0.35896918
0.072812758 0.049632445 0.35916197
0.073140562 0.049638957 0.35919479
0.013873378 0.052051924 0.37604177
0.014202323 0.052042454 0.37596992
0.014528207 0.052022465 0.37582192
0.014859482 0.052022226 0.37581658
0.01518722 0.052009881 0.37572378
0.015512149 0.051988654 0.37556669
0.015840499 0.051979534 0.37549701
0.016169328 0.05197233 0.37544107
0.016498307 0.051965885 0.37539059
0.016829105 0.051965311 0.37538242
0.017151846 0.051940355 0.37519807
0.017481424 0.05193666 0.37516719
0.017808005 0.051924355 0.37507412
0.018132173 0.051905591 0.37493429
0.018458426 0.051893368 0.37484163
0.018773574 0.0518509 0.37453046
0.019107256 0.051860202 0.37459314
0.019433703 0.051849883 0.37451404
0.019760931 0.051841956 0.37445214
0.020087251 0.051831946 0.37437519
0.020407448 0.051806722 0.37418818
0.020733686 0.051797383 0.37411591
0.021058321 0.051784392 0.37401721
0.021378344 0.05176064 0.37384066
0.021710711 0.051767036 0.37388185
0.0220329 0.051749345 0.37374893
0.022353362 0.051728174 0.37359086
0.022677045 0.05171496 0.37349021
0.023009596 0.05172205 0.37353611
0.023330856 0.05170393 0.37339985
0.023649298 0.051680144 0.37322265
0.023983065 0.051690049 0.37328866
0.024300108 0.051664125 0.3730959
0.024622375 0.051649857 0.37298718
0.024949327 0.051645651 0.37295115
0.025268627 0.051625926 0.37280291
0.025590627 0.051612154 0.37269756
0.025901752 0.051577076 0.37243837
0.026237525 0.051591337 0.37253541
0.026556335 0.051572312 0.37239197
0.026875857 0.051555101 0.37226158
0.027208544 0.051563259 0.37231436
0.027529707 0.051549651 0.37220985
0.027860668 0.051554497 0.37223849
0.028202722 0.051579505 0.37241271
0.028541703 0.051598385 0.37254256
0.058745425 0.050440125 0.36328375
0.058974355 0.050361231 0.36270341
0.059301902 0.050366953 0.36273238
0.059638344 0.050380133 0.36281502
0.059937797 0.050362092 0.36267275
0.060236204 0.050343361 0.36252555
0.060577311 0.050360329 0.36263528
0.060877133 0.05034297 0.36249784
0.061162807 0.050314162 0.3622779
0.061458394 0.050293766 0.36211845
0.061783142 0.05029732 0.36213142
0.062071659 0.050271496 0.36193281
0.062388156 0.050268482 0.36189839
0.062694415 0.050257288 0.36180505
0.063009247 0.050253049 0.36176172
0.063331053 0.050254378 0.36175841
0.063612022 0.050223459 0.36152291
0.063929416 0.050221462 0.36149561
0.064226076 0.050203271 0.3613517
0.064541124 0.050199565 0.36131194
0.064851157 0.050192028 0.36124459
0.065145276 0.050172295 0.36108941
0.06545347 0.050163545 0.36101323
0.065764986 0.050157413 0.36095586
0.066060357 0.050139081 0.36081067
0.066367604 0.050129905 0.3607313
0.066680714 0.050125223 0.36068422
0.066985674 0.050114483 0.36059347
0.067265742 0.050085302 0.3603701
0.067590795 0.05008975 0.36038858
0.067895912 0.050079446 0.36030084
0.068200126 0.050068568 0.36020899
0.068509147 0.050061319 0.36014313
0.068820842 0.050056066 0.36009166
0.06911175 0.050035816 0.35993224
0.069399491 0.050013475 0.35975775
0.069716036 0.050011992 0.35973328
0.070027247 0.050006721 0.35968146
0.070319541 0.049988054 0.35953325
0.070638396 0.049988341 0.35952136
0.070912704 0.049957249 0.35928372
0.071230136 0.049956672 0.35926554
0.071528599 0.049942862 0.35915214
0.071853593 0.049947612 0.35917217
0.072180033 0.049953323 0.35919905
0.072482154 0.049942225 0.35910505
0.072813876 0.049951535 0.35915768
0.014212038 0.052409761 0.37621427
0.014535012 0.05237833 0.37598512
0.014870051 0.05239081 0.37607113
0.01519671 0.052373864 0.37594581
0.015524792 0.052362442 0.37586007
0.015849793 0.05234132 0.37570465
0.016177649 0.0523303 0.37562165
0.016509157 0.052331299 0.37562487
0.016833438 0.052309789 0.37546647
0.017161768 0.052301452 0.3754026
0.017484903 0.0522779 0.37522936
0.017810607 0.052262764 0.37511653
0.018142942 0.052267272 0.3751446
0.018463455 0.052238174 0.37493137
0.018792255 0.052233133 0.37489077
0.019110251 0.052198753 0.37463954
0.019439023 0.052194472 0.37460425
0.019763989 0.05218029 0.37449783
0.020095769 0.052184273 0.3745217
0.020416733 0.052160483 0.3743462
0.020741018 0.052145801 0.37423602
0.021070627 0.052144751 0.37422356
0.021393541 0.052127425 0.37409428
0.02171736 0.052112792 0.37398422
0.022040812 0.052097734 0.373871
0.022368833 0.052093755 0.37383732
0.022692066 0.052078903 0.3737255
0.023021866 0.052079331 0.37372324
0.02333652 0.052045967 0.37347847
0.023663517 0.052040674 0.37343502
0.023987951 0.052029971 0.37335274
0.024314931 0.052024998 0.37331149
0.024635088 0.05200576 0.37316778
0.024960682 0.051998354 0.37310895
0.025282027 0.051982403 0.37298867
0.025603972 0.051968072 0.37288004
0.02592882 0.051959924 0.37281567
0.02624744 0.051939659 0.3726643
0.026567832 0.051923361 0.37254128
0.026893292 0.05191724 0.3724913
0.027223168 0.051919684 0.37250265
0.027549129 0.051914703 0.37246066
0.02787615 0.051911801 0.37243357
0.028202381 0.051907517 0.37239644
0.028549286 0.051940944 0.37262982
0.059031677 0.050731435 0.36304551
0.0593361 0.050717164 0.36293116
0.059643365 0.050705455 0.36283514
0.05995582 0.050698273 0.36277139
0.060265861 0.050689124 0.36269361
0.06059096 0.050692677 0.3627066
0.060878281 0.050664753 0.36249432
0.061194528 0.050661065 0.36245543
0.061481468 0.050633274 0.36224404
0.061819389 0.050647553 0.36233357
0.062111337 0.050624199 0.36215383
0.062399182 0.050597765 0.36195204
0.062722728 0.050600402 0.36195812
0.063024037 0.050585166 0.36183634
0.063344359 0.050585262 0.36182418
0.063638538 0.050564587 0.3616634
0.063949026 0.05055701 0.36159626
0.064251155 0.050542932 0.36148253
0.064563714 0.050537162 0.36142826
0.064854197 0.050514251 0.36125132
0.065174237 0.050514478 0.36123973
0.065468237 0.050494615 0.36108449
0.065785326 0.050492663 0.36105734
0.066095091 0.050485138 0.36099023
0.066391371 0.050467435 0.3608503
0.066687196 0.050449561 0.36070913
0.06700135 0.05044565 0.36066777
0.067310102 0.050437734 0.3605977
0.067617886 0.050429169 0.36052293
0.067934044 0.050426893 0.36049309
0.068224303 0.050405506 0.36032662
0.068554759 0.050413884 0.36037284
0.068841495 0.050390176 0.36018968
0.069139913 0.050375205 0.36006895
0.069457784 0.050374478 0.36004993
0.069756523 0.050359942 0.35993221
0.070051357 0.050342735 0.35979536
0.07034722 0.050326411 0.3596648
0.070652023 0.050316613 0.35958079
0.070950732 0.050302576 0.35946649
0.071267612 0.050301488 0.35944468
0.071576491 0.050294794 0.35938272
0.071903035 0.050300512 0.35940945
0.072186001 0.050275825 0.35921887
0.072515152 0.050283387 0.35925868
0.072861858 0.050302994 0.35938448
0.073209137 0.050322834 0.35951191
0.014215207 0.052753214 0.3762852
0.014542473 0.052736886 0.37616521
0.014874601 0.052738525 0.37617332
0.015199427 0.052714773 0.37600023
0.015531432 0.052716393 0.37600806
0.015863275 0.052717414 0.37601149
0.016187061 0.052692156 0.37582749
0.016510325 0.052666247 0.37563875
0.016841397 0.052665774 0.37563139
0.01716394 0.052639168 0.37543753
0.017495686 0.052641243 0.37544817
0.017821737 0.052626442 0.37533838
0.018147485 0.052611291 0.37522605
0.018485161 0.052630637 0.37535965
0.018802248 0.052591715 0.37507764
0.019133089 0.052591942 0.3750748
0.01945121 0.0525578 0.37482673
0.019772548 0.05253334 0.37464765
0.020097189 0.052518316 0.3745358
0.020431014 0.052527387 0.3745957
0.020750919 0.052500945 0.37440234
0.021078058 0.052493352 0.37434331
0.021401489 0.052476902 0.374221
0.021728748 0.052470192 0.37416813
0.02205584 0.052463278 0.37411374
0.022383694 0.052458368 0.37407348
0.022699531 0.052425832 0.37383628
0.023023432 0.052412592 0.37373653
0.023349863 0.052405391 0.37367988
0.023674717 0.052394912 0.37359971
0.023995541 0.052375924 0.37345877
0.024326222 0.052378662 0.37347275
0.024645695 0.052357528 0.37331641
0.024974002 0.052355472 0.37329602
0.025292492 0.05233315 0.3731311
0.025618255 0.052326255 0.37307608
0.025935089 0.05230153 0.3728939
0.026255794 0.052285131 0.37277102
0.026581557 0.052279085 0.37272185
0.026901986 0.05226282 0.37259981
0.027233465 0.052268155 0.37263167
0.027552178 0.05224916 0.37249002
0.02789076 0.052267842 0.37261689
0.028247524 0.052319769 0.37298068
0.028575981 0.05231867 0.37296641
0.028903805 0.052316442 0.37294403
0.059063226 0.051079966 0.36322901
0.059359279 0.051058255 0.36306241
0.059653606 0.051035304 0.36288697
0.059987735 0.051046468 0.36295402
0.060278822 0.051021069 0.36276111
0.060600411 0.051021636 0.36275271
0.060911834 0.051013671 0.36268365
0.061234538 0.051015198 0.36268198
0.061504263 0.050972797 0.36236799
0.06184119 0.050986238 0.36245093
0.06214964 0.050976187 0.36236683
0.062455997 0.050964527 0.36227125
0.062747791 0.050941169 0.36209244
0.063039348 0.050917849 0.36191389
0.063357666 0.050916281 0.36188987
0.06367933 0.050917398 0.36188489
0.063984834 0.050905649 0.36178842
0.064267747 0.050876122 0.36156562
0.064584769 0.050873768 0.36153582
0.064896986 0.050867673 0.3614794
0.06521479 0.050865978 0.36145425
0.065494895 0.050835051 0.36122128
0.065796904 0.050821349 0.36111069
0.066114873 0.050820038 0.3610881
0.066430211 0.05081673 0.36105126
0.066734567 0.050805088 0.36095518
0.067042664 0.05079639 0.36087999
0.067337185 0.050777551 0.36073264
0.067649223 0.050772022 0.36067984
0.067945652 0.05075489 0.36054459
0.06825339 0.050746325 0.36047015
0.068574622 0.050747827 0.36046717
0.068860807 0.050723497 0.36028066
0.069177978 0.050722118 0.36025712
0.069476649 0.050707236 0.36013767
0.069781326 0.050696861 0.36005014
0.070071541 0.050676126 0.359889
0.070385151 0.050672404 0.35984871
0.070685208 0.050659023 0.35973969
0.070991963 0.050650537 0.35966539
0.071302399 0.050644729 0.35961014
0.07161691 0.050641865 0.35957572
0.071910687 0.050624423 0.35943773
0.072225139 0.050621625 0.35940373
0.072548181 0.050624855 0.3594124
0.072877496 0.050632406 0.35945174
0.014226357 0.053126611 0.3765673
0.014549965 0.053095892 0.37634605
0.01488218 0.053097248 0.37635204
0.015210675 0.053085558 0.37626556
0.015540537 0.053079043 0.37621564
0.015867094 0.053061742 0.37608919
0.016198171 0.053059958 0.37607267
0.016518787 0.053024665 0.37581858
0.016849658 0.053023018 0.37580287
0.017173516 0.052999806 0.37563428
0.017508678 0.053011697 0.37571439
0.017828759 0.052978318 0.37547362
0.018149052 0.052946772 0.37524578
0.018482497 0.052954052 0.37529299
0.018811096 0.052947428 0.37524164
0.019139716 0.052941091 0.37519222
0.019459585 0.05291117 0.37497565
0.019789027 0.052907839 0.37494743
0.020117234 0.052901391 0.37489697
0.020435888 0.052870411 0.37467271
0.020768536 0.052876048 0.37470782
0.021082142 0.052833792 0.37440348
0.02141721 0.052845802 0.37448359
0.021733018 0.052810632 0.37422934
0.02206311 0.05281071 0.37422478
0.022389216 0.052801382 0.37415349
0.022712067 0.05278476 0.3740305
0.023033792 0.052766036 0.37389252
0.023370324 0.052781276 0.37399516
0.023678984 0.052734025 0.37365487
0.024011934 0.052741416 0.37370178
0.024322107 0.052699268 0.37339753
0.024662931 0.052723754 0.37356541
0.02498878 0.052716002 0.37350479
0.025307281 0.052693173 0.37333721
0.025619868 0.052658752 0.37308753
0.025942026 0.052644633 0.37298161
0.026279297 0.052661154 0.37309265
0.026596855 0.052638248 0.37292436
0.026924422 0.052635472 0.37289855
0.027248269 0.052625574 0.37282228
0.027579661 0.052630313 0.37284964
0.027901774 0.052617442 0.3727521
0.028244086 0.052642517 0.37292337
0.028586153 0.052666556 0.37308726
0.059374835 0.051393002 0.36314699
0.059687931 0.051385991 0.36308524
0.060006373 0.051383629 0.36305624
0.060310524 0.051369131 0.36294141
0.060611282 0.051351894 0.36280727
0.060920183 0.051341709 0.36272287
0.061252456 0.051351234 0.36277762
0.06155625 0.051336899 0.36266378
0.061863169 0.051325306 0.3625693
0.062162388 0.051307477 0.36243069
0.062488817 0.051312175 0.36245117
0.062790483 0.051296592 0.36232838
0.063085854 0.051276058 0.36217049
0.063388266 0.051261414 0.36205423
0.063709266 0.05126188 0.3620446
0.064004391 0.051241629 0.36188865
0.064295687 0.051218521 0.36171246
0.06462086 0.051222492 0.36172748
0.064922422 0.051207818 0.36161074
0.065246113 0.051210646 0.36161757
0.065526932 0.051179953 0.3613877
0.065814577 0.051154878 0.36119738
0.06613934 0.051158752 0.36121145
0.066445462 0.051148232 0.36112386
0.066764109 0.051147413 0.3611047
0.067065254 0.051133256 0.36099136
0.067362145 0.051116005 0.36085612
0.067652099 0.051093683 0.36068499
0.067969613 0.051092282 0.36066157
0.06827952 0.051085193 0.36059797
0.068593293 0.051081061 0.36055514
0.068896241 0.051068943 0.3604559
0.069204941 0.051061179 0.36038738
0.069489062 0.051035434 0.36019188
0.069791742 0.051023491 0.36009377
0.070108011 0.05102155 0.36006624
0.070439123 0.051030371 0.3601146
0.070724443 0.051006097 0.35992929
0.071047172 0.051008891 0.35993502
0.071337901 0.050988793 0.35977918
0.071651533 0.050985169 0.35973954
0.071952432 0.050972555 0.3596364
0.072263181 0.050967008 0.35958308
0.072585225 0.050969433 0.35958597
0.072902389 0.050968423 0.35956457
0.073230676 0.050975163 0.35959783
0.073581323 0.050997347 0.35973996
0.073870949 0.050977226 0.35958365
0.014226468 0.053459045 0.37655714
0.014555327 0.053447414 0.37647167
0.014884303 0.053436719 0.37639275
0.015218897 0.053446211 0.37645596
0.015546427 0.05343103 0.37634528
0.015872434 0.053411353 0.37620288
0.016205819 0.053416803 0.37623739
0.016525479 0.053377692 0.37595797
0.016856654 0.053376585 0.37594616
0.01718713 0.053373352 0.37591931
0.017514627 0.053361159 0.37582931
0.017834568 0.053326827 0.37558329
0.018166944 0.053330254 0.37560311
0.01849024 0.053307369 0.37543759
0.018817706 0.05329711 0.37536091
0.019144887 0.053286407 0.37528104
0.019476712 0.053288773 0.37529314
0.019796992 0.053259991 0.3750858
0.02012212 0.053244993 0.3749755
0.020448124 0.053232759 0.37488455
0.020772837 0.053217597 0.37477297
0.02110297 0.053216588 0.37476096
0.021424646 0.053194609 0.37460119
0.021752656 0.053188775 0.37455511
0.022073727 0.053166412 0.37439251
0.022396279 0.053148229 0.37425926
0.022721238 0.053136189 0.37416929
0.023052413 0.053138822 0.37418252
0.023367608 0.05310506 0.37393942
0.023696203 0.053102277 0.37391436
0.024022531 0.053094551 0.37385446
0.024351183 0.053092103 0.37383166
0.024670117 0.053068817 0.37366205
0.024994869 0.05305849 0.37358367
0.02531518 0.053039134 0.37344158
0.025643036 0.053035878 0.37341282
0.025972759 0.053036515 0.37341139
0.026286757 0.053005416 0.3731865
0.026611783 0.05299706 0.37312162
0.026932616 0.05298065 0.373
0.027259117 0.052975662 0.37295869
0.027588809 0.052976914 0.37296128
0.027928652 0.052997395 0.37309915
0.028254887 0.052991886 0.373054
0.028609976 0.053039994 0.3733862
0.05940057 0.05173678 0.36329377
0.059719648 0.051734783 0.36326751
0.060034614 0.051729266 0.36321649
0.060354654 0.051728163 0.36319637
0.060646504 0.051703025 0.36300752
0.060938347 0.051678158 0.36282048
0.061271708 0.051688574 0.36288106
0.061583459 0.05168074 0.36281353
0.061905969 0.051681977 0.3628096
0.062203001 0.051662039 0.36265698
0.06248555 0.051630337 0.36242172
0.062795766 0.051621705 0.36234838
0.063122869 0.051626962 0.36237249
0.063399598 0.051591184 0.36210853
0.06372904 0.051598433 0.36214656
0.064014465 0.051570158 0.36193514
0.064325184 0.05156244 0.36186799
0.064638264 0.051556692 0.36181459
0.064956233 0.051554859 0.36178866
0.065258451 0.051540621 0.36167559
0.065566331 0.051530957 0.36159465
0.065870598 0.051518571 0.36149448
0.06616699 0.051500171 0.36135212
0.066475704 0.051491503 0.36127797
0.066787057 0.051484939 0.36121854
0.067095622 0.051476296 0.36114451
0.067402095 0.051466145 0.36105984
0.067702942 0.051451817 0.36094579
0.067998357 0.051433515 0.36080387
0.068320476 0.051435478 0.36080405
0.068636216 0.051432651 0.36077058
0.068932191 0.051415104 0.36063379
0.069250539 0.051414333 0.36061466
0.069553465 0.051402163 0.36051556
0.069853619 0.051388074 0.36040288
0.070147023 0.051369164 0.36025643
0.07045693 0.051362466 0.36019552
0.070755467 0.051347561 0.36007708
0.071072876 0.051346429 0.36005515
0.071373001 0.051332887 0.3599461
0.071680672 0.051324856 0.35987574
0.071979322 0.051310472 0.35976073
0.072291076 0.051305503 0.3597118
0.072609395 0.051305238 0.35969567
0.072914436 0.051295612 0.35961396
0.073265277 0.051318154 0.35975772
0.073596112 0.051326558 0.35980228
0.01456172 0.053802986 0.3766239
0.014890827 0.053792175 0.37654465
0.015226296 0.053804312 0.37662596
0.015555891 0.053795625 0.37656137
0.015882086 0.05377578 0.37641868
0.016208135 0.053756256 0.37627816
0.016532719 0.053732768 0.37610981
0.016861351 0.053723089 0.37603804
0.017191315 0.053717956 0.37599802
0.017516168 0.05369734 0.37584957
0.017845364 0.053690556 0.37579784
0.018169736 0.053669773 0.37564811
0.018501248 0.053670436 0.37564841
0.018826665 0.053653713 0.37552693
0.019153712 0.053642131 0.37544137
0.019475812 0.053617321 0.37526318
0.01980803 0.053620722 0.37528238
0.020128474 0.053592667 0.37508133
0.020462343 0.053600691 0.37513271
0.02078189 0.053571533 0.3749238
0.021111036 0.053567652 0.37489173
0.021438191 0.053558908 0.37482557
0.021755695 0.053526685 0.37459505
0.022075543 0.053501103 0.37441093
0.022407848 0.053506028 0.37444019
0.022733901 0.053496085 0.37436539
0.023060761 0.053488303 0.37430564
0.023383152 0.053470518 0.37417585
0.02370612 0.053454537 0.37405854
0.024030985 0.053443208 0.37397376
0.024356252 0.053433068 0.37389722
0.024679633 0.053419113 0.37379396
0.025005348 0.053410515 0.37372807
0.025333416 0.053407099 0.37369838
0.025650159 0.053380199 0.37350434
0.025982451 0.053385925 0.37353852
0.026299663 0.053360924 0.37335756
0.026620626 0.053344052 0.3732335
0.026945623 0.053335566 0.37316802
0.027271893 0.053329777 0.37312138
0.027604081 0.053335559 0.37315562
0.027930612 0.05333041 0.37311327
0.028259303 0.053329457 0.37310022
0.028620029 0.053388286 0.37350535
0.059464335 0.05211417 0.36367309
0.059742641 0.052076321 0.36339673
0.060050845 0.052064795 0.36330405
0.060370676 0.052063432 0.36328217
0.060677275 0.052050725 0.36318108
0.061005019 0.05205619 0.36320677
0.061285634 0.0520216 0.36295295
0.061596818 0.052013185 0.36288166
0.061909508 0.052006114 0.36281976
0.062221196 0.051998284 0.36275247
0.062543392 0.051999267 0.36274666
0.062851079 0.051988248 0.36265701
0.063127868 0.051951893 0.36239067
0.063441664 0.051946223 0.36233824
0.063752189 0.051937941 0.36226761
0.064066835 0.05193308 0.36222073
0.064362414 0.051912893 0.36206695
0.064672932 0.051904902 0.3619982
0.065001287 0.051911216 0.36202917
0.065295815 0.051890589 0.3618722
0.065601446 0.051878959 0.3617779
0.065909743 0.051869534 0.36169893
0.066216551 0.051859029 0.36161241
0.066481248 0.051815797 0.36129767
0.066803418 0.05181757 0.36129665
0.067112871 0.051809501 0.36122701
0.067419142 0.051799078 0.36114085
0.067746796 0.05180509 0.36116928
0.06801749 0.051767696 0.36089504
0.068349294 0.051776949 0.36094597
0.068654276 0.051765885 0.36085519
0.068972848 0.051765129 0.36083624
0.069270603 0.051748827 0.36070892
0.06958884 0.0517479 0.36068863
0.069870763 0.051720113 0.36048114
0.070184633 0.051716108 0.36043939
0.07048244 0.051700346 0.36031568
0.070788078 0.05169047 0.36023289
0.07108856 0.051676925 0.36012447
0.071401916 0.051672809 0.36008179
0.071721882 0.051673494 0.36007249
0.072023526 0.051661041 0.35997158
0.072325505 0.051648926 0.35987303
0.072638176 0.051644519 0.35982811
0.072933629 0.051627975 0.35969856
0.073287047 0.051652417 0.35985458
0.073633127 0.051671498 0.35997316
0.014565723 0.054149959 0.37671423
0.01490094 0.054160964 0.37678722
0.015228149 0.054143012 0.37665865
0.015557844 0.054134481 0.37659559
0.015887899 0.054127529 0.3765434
0.016218686 0.054123305 0.37651017
0.016545987 0.054107845 0.37639865
0.016869392 0.054080505 0.37620446
0.017197508 0.054069031 0.37612054
0.017528957 0.054068267 0.37611112
0.017854013 0.054048181 0.37596717
0.018181156 0.054035027 0.37587136
0.018511776 0.05403249 0.37584937
0.018837456 0.054015882 0.37572944
0.019161815 0.053996123 0.37558749
0.019488472 0.053983394 0.37549439
0.019811811 0.053962059 0.37534136
0.020143801 0.053964593 0.37535432
0.020471698 0.053956263 0.37529159
0.020790013 0.053923335 0.37505773
0.021120705 0.053923044 0.37505084
0.021444665 0.053905845 0.37492624
0.021770097 0.053892802 0.37483051
0.022087667 0.053860985 0.37460408
0.022421148 0.053868324 0.37464997
0.022739246 0.053839032 0.37444097
0.023068348 0.053836245 0.37441635
0.023397066 0.053832669 0.37438607
0.023722567 0.053821892 0.3743057
0.024042465 0.053798866 0.37414005
0.024374662 0.053803612 0.3741675
0.024684895 0.053760398 0.37386134
0.025010975 0.053752374 0.37379983
0.025339406 0.05374955 0.37377441
0.025663489 0.0537377 0.37368619
0.0259916 0.053734466 0.37365779
0.026299553 0.053690162 0.37334377
0.026627801 0.053687882 0.37332186
0.026959732 0.053692985 0.37335125
0.027271613 0.053658515 0.37310541
0.027606199 0.053669009 0.3731721
0.027948866 0.053694773 0.37334496
0.028282572 0.053702928 0.37339529
0.028621161 0.053720057 0.37350798
0.028968062 0.053752221 0.37372506
0.059497997 0.052465692 0.36386818
0.059759997 0.052413151 0.36349154
0.060089525 0.052420083 0.36352736
0.060389545 0.052401338 0.36338499
0.060722861 0.052411526 0.36344323
0.060986876 0.052362103 0.3630881
0.061296482 0.052352138 0.36300653
0.061619662 0.052353818 0.36300558
0.061929308 0.052344032 0.36292514
0.062252104 0.05234541 0.36292207
0.062552348 0.052327901 0.36278799
0.062864125 0.052320171 0.36272168
0.063163646 0.052302375 0.36258548
0.06348066 0.052299168 0.36255044
0.063795097 0.052293878 0.36250085
0.064077653 0.052262638 0.3622714
0.064410448 0.052272484 0.36232665
0.064710043 0.052255418 0.36219534
0.064995773 0.052227382 0.36198795
0.065315448 0.052226756 0.36197048
0.065624803 0.052217934 0.36189619
0.06593731 0.052211694 0.36183968
0.066214018 0.052177303 0.36158809
0.066560358 0.052197848 0.36171716
0.066839822 0.052166 0.36148313
0.067146361 0.052155487 0.36139688
0.067466825 0.052155841 0.36138585
0.067786433 0.052155532 0.36137021
0.068066686 0.052125093 0.36114576
0.068382643 0.052122138 0.36111173
0.068683214 0.052107543 0.36099699
0.068973005 0.052084945 0.36082676
0.069291331 0.052083999 0.36080649
0.069602504 0.052077718 0.36074919
0.069914907 0.052072402 0.36069861
0.070204511 0.052050244 0.36053121
0.070502706 0.052034613 0.36040908
0.070797488 0.05201662 0.3602705
0.071123637 0.052021731 0.36029193
0.071433187 0.052014709 0.36022928
0.071739182 0.052005168 0.36014917
0.072061419 0.05200744 0.36015075
0.072355703 0.0519896 0.3600131
0.072686374 0.051997956 0.36005673
0.073004574 0.051997349 0.36003828
0.014577416 0.054525867 0.37700331
0.014904683 0.054506898 0.37686855
0.015239027 0.054514073 0.37691453
0.015564516 0.054489937 0.37674388
0.015893752 0.054479647 0.37666899
0.016223654 0.054472025 0.3766124
0.016557477 0.054477602 0.376647
0.016877504 0.054438461 0.37637237
0.017205484 0.054425985 0.37628204
0.017542522 0.054442085 0.37638924
0.017864637 0.054412145 0.37617797
0.018192889 0.05440164 0.37610105
0.018519185 0.054385766 0.37598696
0.018845219 0.054369692 0.37587142
0.019168042 0.054345068 0.37569672
0.019494964 0.054332715 0.37560675
0.019820161 0.054316029 0.37548682
0.02014365 0.054295298 0.37533876
0.020476351 0.05429966 0.37536415
0.020809382 0.054304745 0.37539449
0.021122418 0.054258309 0.37506863
0.021452839 0.054257274 0.37505648
0.021783456 0.05425676 0.37504792
0.022103831 0.054231126 0.37486559
0.02243384 0.054229535 0.37484947
0.022757089 0.054211896 0.37472227
0.02307806 0.054189399 0.37456149
0.023400942 0.054171968 0.37443563
0.023729648 0.054168317 0.37440497
0.024055295 0.054157868 0.37432724
0.024382245 0.0541506 0.37427145
0.024694564 0.054111473 0.37399536
0.025022261 0.054106623 0.37395614
0.025354605 0.054111816 0.3739863
0.025672618 0.054086689 0.37380677
0.025999332 0.054080285 0.37375662
0.026318502 0.054058552 0.37360045
0.026642909 0.054047987 0.37352139
0.026967123 0.054037284 0.37344131
0.027295452 0.054034986 0.37341928
0.027621426 0.054028135 0.3733657
0.027957281 0.054040551 0.37344518
0.028289396 0.054045521 0.3734732
0.059514422 0.052802294 0.36395782
0.059801195 0.052771214 0.36373135
0.060102876 0.052753549 0.36359733
0.060423754 0.052752841 0.36358008
0.060720433 0.052731112 0.36341792
0.061030921 0.052721545 0.36333957
0.061340336 0.052711159 0.3632555
0.061665501 0.05271434 0.36326489
0.061951671 0.052684329 0.36304551
0.062261175 0.052674375 0.36296427
0.062567107 0.052661505 0.36286288
0.062865682 0.052642617 0.36272001
0.063203052 0.05265623 0.36280102
0.063501805 0.052637704 0.36266053
0.063814588 0.052630935 0.36260101
0.064129107 0.052625645 0.36255166
0.064419843 0.052601006 0.36236894
0.064737134 0.052598171 0.3623364
0.065044284 0.05258717 0.36224756
0.06534458 0.052570771 0.36212146
0.065652855 0.052560914 0.36204037
0.065947898 0.052540611 0.36188734
0.066258721 0.052533008 0.36182171
0.066559151 0.052517291 0.36170015
0.066858441 0.052500822 0.36157337
0.067185767 0.052506417 0.36159852
0.067494556 0.05249754 0.36152393
0.067812197 0.052495603 0.3614971
0.068113051 0.052480746 0.36138129
0.068405375 0.052459497 0.36122134
0.06872151 0.052456606 0.36118788
0.069029748 0.052447755 0.36111322
0.069331564 0.05243412 0.3610056
0.069630824 0.052418683 0.36088559
0.069938459 0.052409671 0.36080974
0.07022658 0.052386183 0.36063421
0.070524536 0.052370213 0.36051035
0.070832826 0.052362017 0.36044005
0.071153656 0.052363127 0.36043373
0.071442865 0.052341066 0.36026779
0.071776345 0.052351486 0.36032546
0.072063662 0.052328292 0.36015174
0.072377585 0.052324541 0.36011174
0.072711013 0.052334849 0.36016855
0.073017612 0.052325856 0.36009237
0.073349766 0.052335173 0.3601422
0.073685035 0.052346617 0.36020663
0.014585311 0.054888025 0.37719417
0.014913856 0.054872986 0.37708721
0.0152484 0.054880183 0.37713301
0.015570102 0.05484185 0.37686586
0.015906146 0.054854572 0.37694949
0.016230967 0.054828856 0.37676892
0.016563313 0.054829087 0.37676656
0.016889874 0.054810539 0.3766351
0.017215092 0.054788426 0.37647906
0.017545259 0.05478261 0.37643492
0.017866742 0.054750383 0.37620929
0.018199699 0.054753855 0.37622887
0.018528774 0.054745734 0.37616873
0.018852238 0.054721609 0.3759985
0.019178521 0.054706361 0.37588924
0.019507544 0.054699302 0.37583622
0.019838894 0.054698911 0.37582889
0.020163234 0.054679513 0.37569091
0.020487433 0.054660365 0.37555459
0.02081359 0.054646961 0.37545767
0.021137988 0.054629445 0.37533242
0.021464046 0.054616675 0.37523976
0.021789772 0.054603469 0.37514398
0.022111824 0.054581586 0.37498853
0.022444436 0.054586038 0.37501392
0.022762397 0.054555234 0.37479708
0.023093369 0.054556046 0.37479737
0.02341859 0.05454345 0.37470546
0.023742205 0.054527506 0.37459052
0.024067175 0.054515075 0.37449959
0.024393702 0.054506455 0.37443486
0.024718203 0.054493602 0.37434092
0.025045209 0.054486532 0.37428662
0.025361637 0.054456938 0.37407759
0.025681214 0.05443478 0.37391952
0.026018942 0.05445116 0.37402615
0.026336208 0.054424852 0.37383947
0.026663426 0.054419495 0.37379664
0.026981939 0.054396726 0.37363416
0.027305581 0.054384723 0.37354553
0.027628182 0.054370951 0.37344471
0.027972732 0.054400194 0.37363929
0.028300373 0.054396257 0.37360585
0.02864486 0.054424405 0.37379277
0.028991157 0.054455321 0.37399858
0.059591275 0.053193007 0.3644169
0.059832927 0.053121306 0.36391348
0.060164917 0.053130154 0.36396179
0.060458839 0.053105462 0.36378029
0.060754675 0.053082712 0.36361206
0.061054479 0.053063642 0.363469
0.061377626 0.053064961 0.36346555
0.061709542 0.053073797 0.36351356
0.061974842 0.053025555 0.36317053
0.062301904 0.053030375 0.36319092
0.062602021 0.05301233 0.36305466
0.062924787 0.053013552 0.36305028
0.063235022 0.053004254 0.36297381
0.063535899 0.052987248 0.36284456
0.063866541 0.052995112 0.36288553
0.064158157 0.052970681 0.36270526
0.064446531 0.052943818 0.36250839
0.064775012 0.05295001 0.36253774
0.065043449 0.052907303 0.36223227
0.065373704 0.052915055 0.3622722
0.065658443 0.052886054 0.36206055
0.065994337 0.052898351 0.36213154
0.066307493 0.052892391 0.36207747
0.066613384 0.052880716 0.36198425
0.06690409 0.052857164 0.36180967
0.06723319 0.052864026 0.36184323
0.067508675 0.052828848 0.36158904
0.067821234 0.052822895 0.3615348
0.068117201 0.052804131 0.36139286
0.068433456 0.052801188 0.36135915
0.068733715 0.052785993 0.36124152
0.069052726 0.052785281 0.36122298
0.069361813 0.052777015 0.36115271
0.06968572 0.052780055 0.36115977
0.069969542 0.052752834 0.36095971
0.070293307 0.052755848 0.36096647
0.070583217 0.052733537 0.36079994
0.070886388 0.052721299 0.36070228
0.071179472 0.052701689 0.36055413
0.071497627 0.052700739 0.36053362
0.071804099 0.052691232 0.3604545
0.072122514 0.052690521 0.36043558
0.072414503 0.052670605 0.36028516
0.072736673 0.052672707 0.36028537
0.073040597 0.052661642 0.36019549
0.073365651 0.052665848 0.36020997
0.07371366 0.052686412 0.3603363
0.014589095 0.055234961 0.37727854
0.014923176 0.055240009 0.37730944
0.015252731 0.055228449 0.3772268
0.015583742 0.055222541 0.37718272
0.015908964 0.055196781 0.37700295
0.016235929 0.055178013 0.3768709
0.016566405 0.055171672 0.37682369
0.016891558 0.055148222 0.37665948
0.017225234 0.055152953 0.37668774
0.017554201 0.055142716 0.37661365
0.017883461 0.05513376 0.37654826
0.018210918 0.055119671 0.3764478
0.018533027 0.055090182 0.37624204
0.018862445 0.055083085 0.37618914
0.019193878 0.055082008 0.37617728
0.019509988 0.055037744 0.37587044
0.019842116 0.055039387 0.37587702
0.020169754 0.055028725 0.37579954
0.020498239 0.055020679 0.37573981
0.020822907 0.055002809 0.37561294
0.021148372 0.054987568 0.37550399
0.021473875 0.054972894 0.37539881
0.021804867 0.0549725 0.3753911
0.022121297 0.054935958 0.37513646
0.022456873 0.054947335 0.375209
0.022774806 0.054915849 0.37498873
0.02310545 0.054915458 0.37498081
0.023427136 0.054894097 0.37482956
0.023757624 0.054893669 0.37482119
0.024074066 0.054861233 0.37459424
0.02440306 0.054857902 0.37456593
0.024734665 0.054860447 0.37457767
0.025056548 0.054841645 0.37444359
0.025386501 0.054840762 0.37443179
0.025704121 0.054813605 0.37424055
0.026018521 0.054780353 0.37400764
0.026343064 0.054769032 0.37392434
0.02666999 0.054762866 0.37387624
0.027002793 0.054768782 0.37391052
0.027323782 0.054750878 0.3737821
0.027649073 0.054741919 0.37371472
0.027978754 0.054741759 0.37370735
0.028325221 0.054774068 0.37392151
0.028657271 0.054778066 0.37394238
0.029010173 0.054821379 0.37423158
0.059616465 0.053538162 0.36456004
0.059856031 0.053464044 0.36404306
0.060167465 0.053454567 0.36396629
0.060494948 0.053459376 0.3639867
0.060807258 0.0534508 0.36391589
0.061090712 0.053417068 0.36367384
0.061413459 0.053417884 0.36366686
0.061722856 0.053407129 0.36358112
0.062023997 0.053389385 0.36344776
0.062329166 0.053375263 0.36333901
0.062654637 0.053378593 0.36334899
0.062953681 0.053359486 0.36320618
0.063253425 0.053341165 0.3630687
0.06357877 0.053344499 0.36307859
0.063880749 0.053328305 0.36295548
0.064195417 0.053322807 0.36290514
0.064484179 0.053295955 0.3627094
0.064786874 0.05328083 0.36259344
0.065122768 0.053293012 0.3626633
0.065423526 0.053276476 0.36253762
0.065700941 0.053241182 0.3622843
0.06601768 0.053237926 0.36224899
0.066311203 0.053216089 0.36208713
0.066650443 0.05323096 0.36217505
0.066946968 0.053211745 0.36203095
0.06723161 0.053183313 0.36182413
0.067526266 0.053163037 0.36167273
0.067866504 0.053178653 0.36176553
0.068164811 0.053161435 0.36163485
0.068487667 0.053163432 0.36163485
0.068777867 0.053140182 0.3614631
0.069075935 0.053123195 0.36133391
0.069378927 0.053110126 0.36123133
0.06970349 0.053113628 0.36124137
0.069987595 0.053086404 0.36104238
0.070297517 0.053078912 0.36097762
0.070584752 0.053054448 0.36079741
0.07092075 0.05306669 0.3608667
0.071218461 0.053050295 0.36074123
0.071536571 0.053049169 0.36071959
0.07182502 0.05302617 0.36054912
0.072141863 0.053024232 0.36052188
0.072446913 0.05301369 0.36043605
0.072765484 0.05301309 0.36041781
0.073077947 0.053008061 0.36036938
0.073423073 0.053026661 0.36048156
0.073742904 0.053026918 0.36046898
0.014264277 0.055598442 0.37747756
0.014593943 0.055586129 0.37739041
0.01492459 0.055578012 0.3773317
0.015260266 0.055588569 0.37739971
0.015589118 0.055574343 0.37729937
0.015921509 0.055573061 0.37728694
0.016251555 0.055563811 0.37722024
0.016571028 0.055519518 0.37691557
0.016902955 0.055517867 0.3769004
0.017229069 0.055497546 0.37675837
0.017560329 0.055494267 0.37673193
0.017887302 0.055477805 0.376616
0.018220421 0.055480655 0.37663105
0.018543098 0.055452183 0.3764334
0.018872596 0.055444743 0.37637851
0.019198371 0.055426817 0.37625232
0.01952396 0.05540897 0.37612659
0.019850718 0.055394977 0.37602702
0.02017808 0.055383101 0.37594172
0.020507263 0.055376533 0.37589234
0.020833971 0.055363588 0.37579963
0.021158434 0.055345174 0.37566978
0.021486431 0.055336434 0.37560546
0.021805132 0.055304371 0.37538284
0.02213507 0.055301353 0.37535724
0.022466771 0.055302761 0.37536162
0.022790695 0.055285256 0.37523761
0.023109687 0.055256464 0.37503687
0.023431744 0.055235699 0.3748906
0.023758221 0.055225797 0.37481794
0.024088658 0.055225242 0.3748087
0.024410617 0.055205524 0.37466928
0.024733141 0.055187594 0.374542
0.025063958 0.055188395 0.37454173
0.025388058 0.055174582 0.37444219
0.025711868 0.0551605 0.3743408
0.026035842 0.055147119 0.37424409
0.026361296 0.055137161 0.37417057
0.026680881 0.055115342 0.37401646
0.027008723 0.055110894 0.37398016
0.027338969 0.05511139 0.37397739
0.027661061 0.055095647 0.37386432
0.027993489 0.055100605 0.37389168
0.028320406 0.055094738 0.37384552
0.028665701 0.055124346 0.37403998
0.059633486 0.053876206 0.36465308
0.059894126 0.053820498 0.3642638
0.060193572 0.053800069 0.36411324
0.060533881 0.053816181 0.36420995
0.060839556 0.053801496 0.36409819
0.061144564 0.05378639 0.36398351
0.061435062 0.053758729 0.36378387
0.06173785 0.053742062 0.36365858
0.062031604 0.053717744 0.36348143
0.062353183 0.053717647 0.36346817
0.062662251 0.053706829 0.36338228
0.062973522 0.053697992 0.36330977
0.063285448 0.053689808 0.36324164
0.06360767 0.0536904 0.36323282
0.063913539 0.05367725 0.36313099
0.064221203 0.053665735 0.36304012
0.064498678 0.053629227 0.36278024
0.064829543 0.053637251 0.36282149
0.065125234 0.053616241 0.36266631
0.065442584 0.053613171 0.36263248
0.065740824 0.053594567 0.36249346
0.066052489 0.053587031 0.36242929
0.066360816 0.053576872 0.36234733
0.066669263 0.053566907 0.36226663
0.066969484 0.053550448 0.36214203
0.067277953 0.053540725 0.36206287
0.067574151 0.053521369 0.36191854
0.067884371 0.053513248 0.36185017
0.068200432 0.053509783 0.36181325
0.068526231 0.053513967 0.36182791
0.068825372 0.053497374 0.36170214
0.069103211 0.053464461 0.36146596
0.069439724 0.053477045 0.36153737
0.069749147 0.053468741 0.36146745
0.070026651 0.053436156 0.36123335
0.070331275 0.053424466 0.36114049
0.070641294 0.05341696 0.36107594
0.070926733 0.053391017 0.36088663
0.071240254 0.05338636 0.36084118
0.071548373 0.053377699 0.36076868
0.071857706 0.053370032 0.36070278
0.072173372 0.053367112 0.36066896
0.072487421 0.053363025 0.3606272
0.0727669 0.053333633 0.36041442
0.073114149 0.053353958 0.36053753
0.073435374 0.053355191 0.3605316
0.073789306 0.053380076 0.36068547
0.014602697 0.055952474 0.37760317
0.014930669 0.055933543 0.37747183
0.01526289 0.055931006 0.37745109
0.015595668 0.055930581 0.37744442
0.015926499 0.055923335 0.37739176
0.016257742 0.055917796 0.37735051
0.016580872 0.055885132 0.37712613
0.016911197 0.055877529 0.37707084
0.017243197 0.05587564 0.37705401
0.017571274 0.055861358 0.37695348
0.0178922 0.055825289 0.37670591
0.018224033 0.055823945 0.37669253
0.018553503 0.05581554 0.37663147
0.018881844 0.055804089 0.37654978
0.019205749 0.055780154 0.37638381
0.019527933 0.055752121 0.37619007
0.019856062 0.055741705 0.37611517
0.020188164 0.055742603 0.37611654
0.020511575 0.055719867 0.37595838
0.020841969 0.055716515 0.37593094
0.02116755 0.055700608 0.3758187
0.021498928 0.055700198 0.37581101
