# .PCD v0.7 - Point Cloud Data file format
VERSION 0.7
FIELDS x y z
SIZE 4 4 4
TYPE F F F
COUNT 1 1 1
WIDTH 1378
HEIGHT 1
VIEWPOINT 0 0 0 1 0 0 0
POINTS 1378
DATA ascii
0.033418901 0.024723947 0.41325897
0.033772554 0.024716437 0.41312551
0.034122914 0.024706701 0.41295481
0.034477219 0.024699995 0.41283467
0.034839202 0.024698878 0.41280782
0.035191212 0.024690777 0.41266426
0.035544809 0.024683949 0.41254184
0.035904832 0.024681676 0.41249552
0.036262382 0.024677766 0.41242173
0.036621243 0.024674814 0.41236389
0.036972165 0.024666626 0.41221845
0.037324365 0.024659442 0.41208974
0.037683919 0.024657205 0.41204363
0.038039103 0.024652179 0.41195083
0.038393401 0.024646681 0.41185006
0.038725231 0.024626995 0.41151217
0.03908572 0.024625732 0.41148204
0.039441932 0.024621822 0.41140759
0.039800175 0.024619238 0.41135526
0.040161617 0.024618661 0.41133636
0.040498242 0.024603019 0.41106567
0.040859077 0.024602233 0.41104314
0.041208047 0.024594378 0.41090244
0.041563086 0.024590252 0.41082394
0.0419195 0.024587 0.41076002
0.042271573 0.024581281 0.41065478
0.042615779 0.024571121 0.41047531
0.042981252 0.024573293 0.41050175
0.04332903 0.024565395 0.41035992
0.04367454 0.024556352 0.4101989
0.044037372 0.024557121 0.41020167
0.044389907 0.024552178 0.41010898
0.044740248 0.024546113 0.40999746
0.045105755 0.024548395 0.41002536
0.045485847 0.02455852 0.41018409
0.076823048 0.024069883 0.40081713
0.077130273 0.024055194 0.40055642
0.077467076 0.024049828 0.40045086
0.077832818 0.024053445 0.4004949
0.078174733 0.024049707 0.40041637
0.078517064 0.024046123 0.40034044
0.078887224 0.024051061 0.40040621
0.079167396 0.02402864 0.40001655
0.079516657 0.024027292 0.39997762
0.079841726 0.024018684 0.39981776
0.080177777 0.024013437 0.39971387
0.080523945 0.024011256 0.39966092
0.080875739 0.024010761 0.39963603
0.081176519 0.023995189 0.39936015
0.08153145 0.023995696 0.39935175
0.081882037 0.023994921 0.39932203
0.082258739 0.024001772 0.39941916
0.082553267 0.023984691 0.39911798
0.082889669 0.023979871 0.39902079
0.083227091 0.023975382 0.39892909
0.083554909 0.023968183 0.39879218
0.083906554 0.023967844 0.39876944
0.084241658 0.023962805 0.39866844
0.084556632 0.023952102 0.39847317
0.084882207 0.023944484 0.39832917
0.085251443 0.023949193 0.39839014
0.085574575 0.023940962 0.39823589
0.085901223 0.023933779 0.39809901
0.08625979 0.023935512 0.39811039
0.086582348 0.023927281 0.39795595
0.086934768 0.023927337 0.39793932
0.087256826 0.023919068 0.3977842
0.087605812 0.023918215 0.3977524
0.087931484 0.023911029 0.39761522
0.088295594 0.023914317 0.39765212
0.088611871 0.023904668 0.39747393
0.088906921 0.023889396 0.39720219
0.089261629 0.023890207 0.39719781
0.089598447 0.023886248 0.39711407
0.089933313 0.023881797 0.39702213
0.090316698 0.023890216 0.39714411
0.090694912 0.023897205 0.39724225
0.031625107 0.025108555 0.41362876
0.031993371 0.025111735 0.41367358
0.03234956 0.025105471 0.4135628
0.032704201 0.025098162 0.41343471
0.033076454 0.025104377 0.41352937
0.033435121 0.025100259 0.4134537
0.033792235 0.025095075 0.41336042
0.034142375 0.025084881 0.41318446
0.034501765 0.025081623 0.41312277
0.034866855 0.025082532 0.4131296
0.035213437 0.025070248 0.41291904
0.03556845 0.025064155 0.41281042
0.035915565 0.02505268 0.41261303
0.036277246 0.025051484 0.41258493
0.036629707 0.025044018 0.41245344
0.036992133 0.025043437 0.41243529
0.037342634 0.025034875 0.41228563
0.037701186 0.025031822 0.41222662
0.038051736 0.025023565 0.41208184
0.038410772 0.025020992 0.41203058
0.038765553 0.025015725 0.41193488
0.039118934 0.025009656 0.41182593
0.039462019 0.024997177 0.41161132
0.039820168 0.024994383 0.41155612
0.040170345 0.024986679 0.41142005
0.04053342 0.024987062 0.41141704
0.040871453 0.024972139 0.41116193
0.041227963 0.024968669 0.41109526
0.041579708 0.024962397 0.41098252
0.041931383 0.024956195 0.41087076
0.042297687 0.024958726 0.41090277
0.042630102 0.02494139 0.41060761
0.042995073 0.024943229 0.41062805
0.043343976 0.024935799 0.41049579
0.043710172 0.024938354 0.41052788
0.044057973 0.024930457 0.41038784
0.044398803 0.024918782 0.41018552
0.044750385 0.024913276 0.41008469
0.0451339 0.024925493 0.41027555
0.045522381 0.024940236 0.41050789
0.045897841 0.024947671 0.41061985
0.076891027 0.024446001 0.40116671
0.077138998 0.024412246 0.40059668
0.07749702 0.02441347 0.40060058
0.077849448 0.024412928 0.40057546
0.078200512 0.024411961 0.40054333
0.078550033 0.024410527 0.40050349
0.078897104 0.024408344 0.40045133
0.079202086 0.024393223 0.40018681
0.079545647 0.024390062 0.40011847
0.079881094 0.024384452 0.40000993
0.080236703 0.02438502 0.40000263
0.080542535 0.024370519 0.39974815
0.08090765 0.024374008 0.39978871
0.081250302 0.02437073 0.39971817
0.081578359 0.024363117 0.39957654
0.081898622 0.024353253 0.39939791
0.082248151 0.024352141 0.3993628
0.082569934 0.024342854 0.39919358
0.082910985 0.024339305 0.39911845
0.083239511 0.024332127 0.39898369
0.083600178 0.024334362 0.39900327
0.083916321 0.024323674 0.39881089
0.084231064 0.024312671 0.3986133
0.084614456 0.024321495 0.39874074
0.084922448 0.024308659 0.39851305
0.085278854 0.024309732 0.39851335
0.085603513 0.024301782 0.39836568
0.085936822 0.024296343 0.3982591
0.086283401 0.024294687 0.39821449
0.086627245 0.024292275 0.39815745
0.086970709 0.024289778 0.39809898
0.087255031 0.024270849 0.39777115
0.08764828 0.024282249 0.39794034
0.087982997 0.024277408 0.39784333
0.088306248 0.024269454 0.39769524
0.088631757 0.024262182 0.39755833
0.08895877 0.024255376 0.39742899
0.089289159 0.024249543 0.39731553
0.089662865 0.024255469 0.39739475
0.089996733 0.024250619 0.39729729
0.090343073 0.024249151 0.39725524
0.090731837 0.024259038 0.39739919
0.091031037 0.024245 0.39715108
0.031640116 0.025485072 0.41381907
0.032005277 0.025485689 0.41382152
0.032367107 0.025483675 0.41378123
0.03272783 0.025480838 0.41372749
0.033081226 0.025472423 0.41358307
0.033452023 0.025477443 0.41365677
0.033803951 0.025468137 0.41349778
0.034160942 0.025462808 0.41340324
0.034517974 0.025457619 0.41331092
0.034874566 0.025452215 0.41321507
0.035223678 0.025441522 0.41303328
0.035586689 0.025440983 0.4130162
0.03592797 0.025425075 0.41274959
0.036289141 0.025423421 0.4127143
0.036653057 0.025423706 0.41271043
0.036995228 0.02540905 0.41246393
0.037360534 0.025410414 0.41247737
0.037705161 0.025397822 0.41226426
0.038069353 0.025398517 0.41226676
0.03842232 0.025391789 0.41214862
0.038770396 0.02538198 0.41198051
0.039133493 0.025382098 0.41197333
0.039490044 0.025378006 0.41189784
0.039850108 0.025376225 0.41185975
0.040192235 0.025363157 0.41163841
0.040551152 0.025360823 0.41159117
0.040897179 0.025350543 0.41141492
0.041249692 0.025344422 0.41130614
0.041598011 0.02533586 0.41115767
0.041957706 0.02533431 0.41112289
0.042322684 0.025335949 0.41113979
0.0426585 0.025320251 0.41087529
0.043006759 0.025312144 0.41073391
0.043361127 0.025307735 0.41065246
0.04371785 0.025304761 0.4105942
0.044068236 0.025298199 0.4104777
0.044425257 0.02529552 0.41042414
0.044788621 0.02529647 0.41042933
0.045154531 0.02529883 0.41045734
0.045543641 0.025314044 0.41069385
0.045911487 0.025317296 0.41073617
0.07693582 0.024815271 0.40139529
0.077211633 0.024789898 0.40096876
0.077529676 0.024778254 0.40076426
0.077897131 0.024782434 0.40081564
0.07823322 0.024776647 0.40070578
0.078586288 0.024776261 0.40068319
0.078910857 0.024766935 0.40051603
0.079258569 0.024764923 0.40046704
0.079594389 0.024759231 0.40035856
0.079923049 0.024751367 0.40021488
0.080271751 0.02474976 0.40017226
0.080607921 0.024744315 0.4000676
0.080926396 0.02473351 0.39987621
0.081274271 0.024731744 0.39983097
0.081617348 0.024728542 0.39976239
0.081954166 0.024723478 0.39966372
0.082282603 0.024715943 0.39952499
0.082636684 0.024716141 0.39951125
0.082953908 0.02470536 0.39932004
0.083277822 0.024696652 0.39916226
0.083662063 0.024705833 0.39929357
0.083961755 0.024690077 0.3990218
0.084286414 0.024681764 0.39887026
0.084629364 0.024678852 0.39880601
0.084972464 0.024676006 0.39874277
0.085298799 0.02466834 0.39860153
0.085674427 0.02467493 0.3986907
0.085976377 0.024660336 0.39843747
0.086324871 0.024659153 0.39840087
0.086645089 0.024649937 0.39823449
0.08699365 0.024648827 0.39819899
0.087321602 0.024641912 0.39806971
0.087661743 0.024638476 0.39799654
0.088008069 0.024636799 0.39795178
0.088329971 0.024628324 0.39779717
0.088664442 0.024623409 0.39770001
0.088997148 0.024618044 0.39759552
0.089343652 0.024616523 0.39755309
0.089685097 0.024613623 0.39748839
0.090013996 0.024607318 0.39736858
0.090381101 0.024611469 0.39741763
0.090745389 0.02461482 0.3974537
0.031675812 0.025878835 0.41427982
0.03201526 0.025858367 0.41394457
0.03238944 0.025866091 0.41406062
0.032731451 0.02584824 0.41376719
0.033099249 0.02585092 0.41380233
0.033462998 0.025850413 0.41378641
0.033811592 0.025838342 0.41358525
0.034170594 0.025834387 0.41351399
0.034532789 0.025832908 0.41348225
0.034891751 0.025829071 0.41341266
0.035248663 0.025823811 0.41332024
0.035589777 0.025807194 0.41304603
0.035952173 0.025806192 0.41302162
0.036308277 0.025800746 0.41292599
0.036660291 0.025792522 0.41278589
0.037013143 0.025785048 0.41265768
0.03737532 0.025784152 0.41263467
0.037718032 0.025769969 0.41239899
0.038082913 0.025771061 0.41240767
0.038435888 0.025764152 0.41228822
0.038793176 0.025760237 0.41221657
0.039145179 0.025752923 0.41209048
0.039503537 0.025749875 0.41203266
0.039859701 0.02574547 0.41195297
0.040219262 0.025743317 0.41190928
0.040558342 0.025728213 0.41165826
0.040922206 0.025728958 0.41166076
0.041268703 0.025718866 0.41148984
0.041628979 0.025717461 0.41145784
0.041971777 0.025705379 0.41125485
0.042339068 0.02570837 0.41129309
0.04268834 0.025700469 0.41115686
0.043031413 0.025688993 0.41096351
0.04337091 0.025675599 0.41073924
0.043737717 0.025678452 0.41077498
0.044087563 0.025671389 0.41065189
0.0444443 0.025668418 0.41059425
0.044792566 0.025660641 0.41045967
0.045165487 0.025666999 0.4105511
0.045550473 0.02568006 0.41074967
0.045915492 0.025681745 0.41076621
0.07694608 0.025173651 0.40144357
0.07725729 0.02515943 0.40120062
0.077577509 0.025148252 0.40100625
0.077936865 0.025149811 0.40101489
0.078280777 0.025146395 0.40094411
0.078600608 0.025135309 0.40075102
0.078955106 0.025135355 0.40073541
0.079285651 0.025127809 0.4005987
0.079642095 0.025128506 0.40059331
0.079952635 0.025114775 0.40035787
0.080300145 0.02511273 0.4003087
0.080621727 0.025102625 0.40013099
0.080974676 0.025102332 0.40010965
0.081301093 0.025093857 0.39995784
0.081640035 0.025089299 0.39986843
0.081993997 0.025089381 0.39985287
0.082325287 0.025082553 0.39972714
0.082638741 0.025070367 0.39951608
0.082996085 0.02507155 0.39951795
0.083316833 0.025061714 0.39934418
0.083697535 0.02506992 0.39945778
0.084010273 0.025057783 0.39924732
0.084334388 0.025049128 0.39909223
0.084679581 0.025046777 0.39903757
0.085011773 0.025040619 0.39892218
0.085324809 0.025028888 0.39871803
0.085696034 0.025034258 0.39878619
0.086020596 0.025026008 0.39863735
0.086350866 0.025019476 0.39851588
0.086679421 0.025012501 0.39838725
0.087027036 0.025011066 0.39834684
0.087348588 0.02500218 0.39818773
0.087686621 0.024998059 0.39810449
0.088053279 0.025002103 0.39815119
0.088374846 0.024993364 0.39799428
0.088682905 0.024980888 0.39777783
0.089046605 0.024984121 0.39781153
0.089364231 0.024974452 0.39763969
0.089709625 0.024972592 0.39759216
0.090066947 0.02497405 0.39759743
0.090390317 0.024966124 0.39745322
0.090766288 0.024972724 0.39754027
0.031681292 0.02624839 0.41434532
0.032027908 0.026233446 0.41410193
0.032401659 0.02624082 0.41421068
0.032756742 0.026233071 0.41408071
0.033121124 0.026232865 0.41406968
0.033468619 0.026219433 0.41384983
0.033820879 0.026209975 0.41369262
0.034191553 0.026214844 0.4137615
0.034534398 0.026198495 0.41349542
0.03490027 0.026199777 0.41350749
0.035265531 0.026200579 0.4135119
0.03561284 0.026188156 0.41330758
0.035976071 0.02618758 0.41329014
0.036323521 0.026175642 0.41309327
0.03667165 0.026164426 0.41290775
0.037031922 0.026162004 0.41286096
0.037388556 0.026157092 0.41277477
0.037744485 0.02615178 0.41268218
0.038093276 0.02614167 0.41251388
0.038455155 0.026140649 0.41248885
0.038805258 0.026131716 0.41233897
0.03916372 0.026128529 0.41227961
0.039510828 0.026117891 0.41210267
0.039873824 0.026117858 0.41209295
0.040228672 0.026112532 0.41199967
0.040577147 0.026103202 0.41184315
0.040927734 0.026095385 0.41171041
0.04128715 0.026093287 0.41166782
0.041643623 0.026089376 0.4115966
0.042000715 0.026085921 0.41153243
0.042346776 0.02607573 0.41136199
0.04270051 0.026070401 0.41126814
0.043056183 0.026066329 0.41119409
0.043401062 0.026055848 0.41101885
0.043753747 0.026050186 0.41091958
0.044102598 0.026042359 0.410786
0.044460367 0.026039876 0.4107368
0.044808574 0.026031883 0.41060045
0.045179252 0.026036961 0.41067031
0.045555253 0.026045008 0.41078687
0.045928728 0.026051488 0.41087869
0.04632587 0.026071195 0.41117895
0.076991484 0.025543787 0.40167513
0.077273875 0.025519777 0.40128148
0.07762672 0.025519144 0.40125534
0.077963069 0.025513122 0.40114444
0.078311592 0.025511118 0.40109664
0.078634299 0.025500765 0.40091753
0.078992359 0.025501914 0.40091926
0.079313055 0.025491044 0.40073189
0.079662904 0.025489599 0.40069273
0.079981163 0.025478104 0.40049547
0.080329619 0.02547629 0.40045038
0.080632322 0.025460036 0.40017831
0.081024677 0.025472116 0.40035149
0.081351094 0.025463451 0.40019858
0.081671216 0.025452901 0.40001592
0.082014456 0.025449611 0.39994743
0.082365699 0.025448825 0.39991817
0.082695678 0.025441499 0.39978617
0.083041228 0.025439013 0.39973009
0.08334855 0.025424883 0.39949104
0.083692633 0.025422037 0.39942926
0.084044449 0.025421556 0.39940456
0.084381752 0.025416706 0.39931118
0.08472497 0.025413673 0.39924631
0.085070938 0.025411485 0.39919466
0.085373648 0.025396449 0.39894116
0.085712239 0.025392164 0.39885646
0.086070493 0.025393715 0.39886343
0.086418137 0.025392137 0.3988212
0.086755991 0.025387706 0.39873409
0.087094814 0.025383597 0.39865196
0.087378807 0.025363602 0.39832038
0.087748744 0.025368612 0.39838144
0.08806207 0.025357289 0.39818591
0.088398948 0.025352804 0.39809778
0.088735782 0.025348341 0.39800993
0.089078791 0.025345676 0.39795026
0.089418881 0.025342204 0.39787784
0.089743294 0.025334328 0.39773634
0.090102002 0.025336161 0.39774716
0.090409212 0.025323555 0.39753124
0.090820692 0.02534014 0.39777356
0.032045238 0.026612708 0.41431978
0.032411661 0.026613999 0.41433227
0.032771375 0.026609816 0.41425946
0.033124983 0.026600825 0.41411173
0.033485256 0.026597317 0.4140493
0.033841517 0.026590738 0.41393894
0.034200035 0.026586048 0.41385797
0.034557693 0.026580799 0.4137682
0.034917846 0.026577557 0.41370955
0.035271659 0.026569607 0.41357762
0.035623066 0.02656002 0.41342011
0.035989031 0.026561378 0.4134329
0.036338001 0.026550286 0.41325179
0.036687575 0.026539855 0.4130809
0.037047885 0.026537318 0.41303283
0.037397791 0.026527448 0.41287056
0.037755139 0.026522996 0.4127925
0.038126424 0.026528329 0.41286671
0.038470447 0.02651477 0.4126468
0.038825125 0.026508737 0.41254398
0.039171528 0.026497221 0.41235572
0.039539356 0.026500277 0.41239417
0.039886266 0.026489381 0.41221541
0.040256292 0.026493898 0.41227645
0.040595751 0.026478395 0.4120259
0.040948421 0.026471708 0.41191244
0.041296013 0.026461884 0.41175008
0.041669726 0.026468823 0.41184855
0.042008366 0.026453556 0.41160133
0.042368669 0.026452078 0.41156867
0.042735718 0.026454797 0.41160119
0.043068953 0.026436716 0.41131005
0.043420136 0.026429862 0.41119349
0.043766398 0.026420148 0.41103241
0.044134036 0.026423393 0.41107285
0.044475608 0.026411109 0.4108716
0.044828389 0.026405619 0.41077599
0.045202643 0.026412772 0.41087699
0.045582272 0.02642292 0.41102451
0.045952804 0.026427681 0.41108814
0.046341911 0.02644296 0.41131535
0.076994754 0.02590017 0.40168679
0.077300251 0.025883557 0.40141305
0.07766223 0.025885921 0.40143356
0.077989541 0.025876762 0.40127531
0.078339249 0.025875086 0.40123299
0.078662172 0.025864612 0.40105429
0.079026788 0.025867881 0.40108863
0.079329558 0.025850968 0.40080997
0.079703152 0.025857186 0.40088987
0.080030464 0.025848394 0.40073702
0.080373511 0.025844742 0.40066385
0.080713861 0.02584026 0.40057769
0.081039704 0.025831191 0.40042043
0.081371337 0.02582404 0.40029287
0.081704333 0.025817377 0.40017283
0.082069106 0.025820777 0.40020865
0.082392983 0.025811331 0.40004537
0.082733206 0.025807066 0.39996234
0.083058558 0.02579822 0.39980823
0.083393559 0.025792429 0.39970151
0.083761342 0.025796788 0.39975193
0.084081136 0.025786389 0.39957368
0.084408648 0.025778435 0.39943326
0.08472991 0.025768647 0.39926437
0.085071012 0.025764948 0.39918983
0.085432015 0.025767282 0.39920866
0.08574748 0.025755923 0.39901528
0.086090758 0.025752971 0.39895219
0.08642225 0.025746532 0.398835
0.086778894 0.02574761 0.3988342
0.087116696 0.025743114 0.39874697
0.087399177 0.025722368 0.39840806
0.087761298 0.025725139 0.39843333
0.088130504 0.025729949 0.39849013
0.088436313 0.025716292 0.39826089
0.088762417 0.025708621 0.39812434
0.089121215 0.025710439 0.39813468
0.089444779 0.025702117 0.39798793
0.089780584 0.025697371 0.39789653
0.090132535 0.025697259 0.39787686
0.090454981 0.025688769 0.39772743
0.090847909 0.025700284 0.39788768
0.032055359 0.02698629 0.41444427
0.032430846 0.026995052 0.41457123
0.032782622 0.026984101 0.41439536
0.033142596 0.026980061 0.41432557
0.03350402 0.02697728 0.41427502
0.033858545 0.02696906 0.41414091
0.034211177 0.026959527 0.4139865
0.034571473 0.026956167 0.41392684
0.034927282 0.026949421 0.41381511
0.035286978 0.026945777 0.41375095
0.035640653 0.026937656 0.41361794
0.036005404 0.026937988 0.41361472
0.036355041 0.026927119 0.41343936
0.036704548 0.026916366 0.41326573
0.037071101 0.026918206 0.41328543
0.037414528 0.026903382 0.41304913
0.037772961 0.026899524 0.41298121
0.038130835 0.02689535 0.41290826
0.03848381 0.026887828 0.41278392
0.038833566 0.026878219 0.41262743
0.03919046 0.026873685 0.41254884
0.039545428 0.026867926 0.4124513
0.039910305 0.026868945 0.41245773
0.040267464 0.026864789 0.41238472
0.040615439 0.026854642 0.41221958
0.040966906 0.026846956 0.41209227
0.041325387 0.026843963 0.41203684
0.041671008 0.026832746 0.4118551
0.042023059 0.026825821 0.4117392
0.042388935 0.026827766 0.41175938
0.042743977 0.026822882 0.41167465
0.043079033 0.026805641 0.4114002
0.043438848 0.026803968 0.41136459
0.043796577 0.026801042 0.41130972
0.044145256 0.026792675 0.41117126
0.044502527 0.026789613 0.41111416
0.044857208 0.026785057 0.41103402
0.0452221 0.026786622 0.41104776
0.045577157 0.026782379 0.41097233
0.045975436 0.026803404 0.41128451
0.046332803 0.026800431 0.41122842
0.046724007 0.026816932 0.41147101
0.047075249 0.026810413 0.41136035
0.077037267 0.026269963 0.40190312
0.077344328 0.026253587 0.40163648
0.077660009 0.026240272 0.40141666
0.078004092 0.026236631 0.40134472
0.078368567 0.026239853 0.40137774
0.078693524 0.02622987 0.40120873
0.079030395 0.026223931 0.40110153
0.07933905 0.026208725 0.4008525
0.079742827 0.026224935 0.40108398
0.080078043 0.026218556 0.40096989
0.080405056 0.026209561 0.40081573
0.080728024 0.026199332 0.40064263
0.081069909 0.026195301 0.40056434
0.081440821 0.026200645 0.40062931
0.081739917 0.026182938 0.40034178
0.082093582 0.026182791 0.40032271
0.082394101 0.026165761 0.40004548
0.082757093 0.026168641 0.40007252
0.083091654 0.026162535 0.39996222
0.083447732 0.026163232 0.39995584
0.083771959 0.026153976 0.39979726
0.084118828 0.02615184 0.39974749
0.084443934 0.026142985 0.39959493
0.084775805 0.026136288 0.39947537
0.085111052 0.02613068 0.3993724
0.085451975 0.026126858 0.39929667
0.08579772 0.026124537 0.3992438
0.086126313 0.026117029 0.39911166
0.086441509 0.02610554 0.39891863
0.086799987 0.026107159 0.3989259
0.087137446 0.02610247 0.3988367
0.087487362 0.026101535 0.39880484
0.087835051 0.026099946 0.39876291
0.088158444 0.026091181 0.39861131
0.088475324 0.026080564 0.39843139
0.08881893 0.026077878 0.39837259
0.089163251 0.026075423 0.39831725
0.089487851 0.026067242 0.39817443
0.089837193 0.026066307 0.39814222
0.090166368 0.026059547 0.39802101
0.090516374 0.026058836 0.39799219
0.090892509 0.026065631 0.39807788
0.032072898 0.02736643 0.41466463
0.032426219 0.027356444 0.41450566
0.032795649 0.027360115 0.41455361
0.033159591 0.027359178 0.41453165
0.033518169 0.027353881 0.41444358
0.033871744 0.027344663 0.41429597
0.034225684 0.027335931 0.41415569
0.034590229 0.027335767 0.41414511
0.034937251 0.027321897 0.41392687
0.035303947 0.027323542 0.41394356
0.035658237 0.027315648 0.41381568
0.036007348 0.027303986 0.41363063
0.036370609 0.027303182 0.41361004
0.036721405 0.027293131 0.41344926
0.037090153 0.027296485 0.41349149
0.03744299 0.02728818 0.41335699
0.037796155 0.027280271 0.41322848
0.038142037 0.027267307 0.41302329
0.03850371 0.027265772 0.41299111
0.038854081 0.02725633 0.41283917
0.039206706 0.027248636 0.41271359
0.039565254 0.027245158 0.41265184
0.039924841 0.027242456 0.41260171
0.040276058 0.027234141 0.4124665
0.0406285 0.027226793 0.41234592
0.040980715 0.027219426 0.41222492
0.041343689 0.027219271 0.41221312
0.041686051 0.027205665 0.41199753
0.042050734 0.027206739 0.41200417
0.042397525 0.027196318 0.41183665
0.042756926 0.027194092 0.41179317
0.043107152 0.027186114 0.41166255
0.043451976 0.027174896 0.41148275
0.043805245 0.027169095 0.41138497
0.044167668 0.027169026 0.41137385
0.04451913 0.027162267 0.41126138
0.044869553 0.02715499 0.41114098
0.045226797 0.027151924 0.41108432
0.045611802 0.027165435 0.41127858
0.04598077 0.027169263 0.41132608
0.04635277 0.027174808 0.41139954
0.046762593 0.027202267 0.41180462
0.047084302 0.027178442 0.41143331
0.047447115 0.02717853 0.41142392
0.077065699 0.02663528 0.40204594
0.077390701 0.02662481 0.40187177
0.077727921 0.026618619 0.40176216
0.078034952 0.026602192 0.40149802
0.078397259 0.026604673 0.40151918
0.078721315 0.026594207 0.4013449
0.079063028 0.026589775 0.40126166
0.079399616 0.026583664 0.40115303
0.079745606 0.026580749 0.40109253
0.08010418 0.026582027 0.4010953
0.080422603 0.02657003 0.40089771
0.080770575 0.026567861 0.40084836
0.081121169 0.026566569 0.40081218
0.081441976 0.026555575 0.40062958
0.081777997 0.026549619 0.40052289
0.082115754 0.026544267 0.40042534
0.082458593 0.026540603 0.40035322
0.082786418 0.026532155 0.40020883
0.083134681 0.026530303 0.40016395
0.083480157 0.026527582 0.40010583
0.0838129 0.026520852 0.39998728
0.084157266 0.026517846 0.39992478
0.084476836 0.026507081 0.39974529
0.084822863 0.026504671 0.39969173
0.085168399 0.026502132 0.39963618
0.085488528 0.026491739 0.39946213
0.085821927 0.026485529 0.39935109
0.086156525 0.026479734 0.39924634
0.086497664 0.02647599 0.39917246
0.086855009 0.026477221 0.3991735
0.087191157 0.026471999 0.39907721
0.087512881 0.026462464 0.39891586
0.087829955 0.026451601 0.39873451
0.088188484 0.026453262 0.39874184
0.088503018 0.026441766 0.39855084
0.088857055 0.026442112 0.39853829
0.08919365 0.026437288 0.39844778
0.089526944 0.026431533 0.39834315
0.089868128 0.026428137 0.39827406
0.090206653 0.026423987 0.3981936
0.090563089 0.026425103 0.39819238
0.090934806 0.02643065 0.39825791
0.032078683 0.027736807 0.41473287
0.032448348 0.027740605 0.41478202
0.032809835 0.027737398 0.41472641
0.033172753 0.027735462 0.41468969
0.033529297 0.027728295 0.41457468
0.033889584 0.027724342 0.41450769
0.034245722 0.027717119 0.41439173
0.034597751 0.027706755 0.41422871
0.03495403 0.027699973 0.41411915
0.035311658 0.027694395 0.41402751
0.035678055 0.027695728 0.41403922
0.036030762 0.027686523 0.41389322
0.036382761 0.027676959 0.4137418
0.036735874 0.02766843 0.41360578
0.037103426 0.027670829 0.41363305
0.03745145 0.027658766 0.41344404
0.03780986 0.027654525 0.41337195
0.03815531 0.02764098 0.41316065
0.038527224 0.027646681 0.41323698
0.038868953 0.027630813 0.41299084
0.039218761 0.02762093 0.41283411
0.03958375 0.027621824 0.41283837
0.039933916 0.027612453 0.41268912
0.040285863 0.027604474 0.41256058
0.04064751 0.02760322 0.41253251
0.040998451 0.027594781 0.412397
0.041360993 0.027594231 0.41237929
0.041700017 0.027578138 0.41212928
0.042066116 0.027580075 0.41214859
0.042404652 0.02756406 0.41189957
0.042775407 0.027569082 0.41196483
0.043122288 0.027558761 0.4118008
0.043477703 0.027554022 0.4117201
0.043837197 0.027551925 0.41167876
0.044181664 0.027540497 0.41149792
0.044540025 0.027537841 0.41144812
0.044888888 0.027529405 0.41131192
0.045248024 0.027527355 0.41127101
0.045616966 0.027531257 0.41131893
0.045997366 0.027541952 0.41146833
0.046354737 0.027538801 0.41141078
0.046737101 0.027550435 0.41157398
0.077094272 0.02700091 0.4021894
0.077391863 0.026980698 0.40187222
0.077750221 0.026981758 0.40187183
0.078078806 0.026972525 0.40171808
0.078441538 0.026975112 0.40174034
0.07877481 0.026967596 0.4016121
0.079086594 0.026952822 0.40137571
0.079464912 0.026960753 0.4014774
0.079794429 0.026952131 0.4013325
0.08013171 0.026946196 0.40122759
0.080490559 0.026947534 0.40123099
0.080797315 0.026931498 0.40097556
0.081139758 0.026927441 0.40089846
0.081487507 0.026925176 0.40084803
0.081811033 0.026914962 0.40067917
0.082167327 0.026915569 0.40067139
0.082497135 0.02690753 0.40053481
0.082804948 0.026892416 0.40029293
0.083152637 0.026890332 0.40024489
0.083509609 0.026891248 0.40024152
0.083829105 0.026880141 0.40005916
0.084203809 0.026886759 0.40014052
0.084532075 0.026878554 0.40000123
0.084830865 0.026861083 0.39972401
0.085195854 0.026864635 0.39975959
0.085536405 0.026860477 0.39968041
0.08586666 0.026853139 0.39955387
0.086189285 0.026843483 0.39939275
0.086521164 0.026836775 0.39927551
0.086881734 0.026838986 0.39929092
0.087193616 0.026826199 0.39908314
0.087539911 0.026824057 0.3990337
0.08786568 0.02681567 0.3988913
0.088204391 0.026811289 0.39880845
0.088556148 0.026810884 0.3987847
0.088897191 0.026807262 0.39871302
0.089216359 0.02679709 0.39854395
0.089560114 0.026794354 0.39848539
0.089908555 0.026793037 0.3984479
0.090239771 0.026786622 0.3983345
0.090570614 0.026780138 0.39822015
0.090975173 0.026795423 0.39842939
0.091345787 0.026800629 0.39848867
0.032103129 0.028123666 0.41504237
0.032453973 0.028110968 0.41484734
0.03283092 0.028120907 0.41498637
0.033188347 0.028114097 0.41487807
0.033533446 0.028097099 0.41461945
0.033898991 0.028097415 0.41461617
0.034257818 0.028092215 0.41453147
0.034622129 0.02809158 0.41451401
0.034975354 0.028082054 0.41436529
0.035336874 0.028079318 0.41431671
0.035681095 0.028063025 0.41406798
0.036041413 0.028059594 0.41400906
0.036401942 0.0280564 0.41395345
0.036761969 0.028052885 0.4138931
0.037102606 0.028034786 0.41361746
0.037467316 0.028035052 0.41361269
0.037820842 0.028027024 0.41348553
0.038182884 0.0280254 0.41345274
0.038542379 0.02802195 0.41339299
0.038891092 0.02801081 0.41321963
0.039248839 0.028006315 0.41314432
0.039601769 0.027998496 0.41301987
0.039943814 0.027983196 0.41278496
0.040311325 0.027985854 0.41281492
0.040656041 0.027972773 0.41261268
0.041023683 0.027975563 0.41264442
0.041371316 0.027964778 0.41247585
0.041727852 0.027960144 0.41239798
0.042080496 0.027953008 0.41228309
0.042440072 0.027950555 0.41223723
0.042796433 0.027946047 0.41216099
0.043130402 0.027927117 0.41187194
0.043489236 0.027924467 0.41182294
0.043842793 0.027918499 0.41172498
0.044194546 0.027911492 0.41161159
0.044561028 0.027913822 0.41163585
0.04490434 0.027901722 0.41144717
0.045256708 0.027895391 0.41134357
0.045630187 0.027902078 0.41143182
0.046005331 0.027909663 0.41153324
0.046377439 0.027915303 0.41160592
0.046729386 0.027908815 0.41149971
0.077120438 0.027365949 0.40232027
0.07743983 0.027353128 0.40211564
0.077784926 0.027349459 0.40204552
0.078113236 0.02733995 0.40188953
0.07845594 0.027335543 0.40180847
0.078810021 0.02733512 0.40178594
0.079143405 0.027327556 0.40165836
0.079487249 0.027323656 0.40158463
0.079800226 0.027309226 0.40135604
0.080165118 0.027312608 0.40138924
0.080508813 0.027308777 0.40131634
0.080829896 0.027297337 0.40113163
0.081163161 0.027290098 0.40100855
0.081517071 0.027289826 0.40098786
0.081855632 0.027284449 0.40089199
0.082197189 0.027280107 0.40081143
0.08252921 0.027272651 0.40068501
0.082874849 0.027269742 0.40062532
0.083191 0.0272572 0.40042403
0.083534345 0.027253628 0.40035459
0.08386188 0.027244955 0.40021008
0.084211953 0.027243642 0.40017366
0.084551916 0.027239086 0.40008959
0.084906586 0.027239289 0.40007532
0.085229345 0.02722929 0.39991122
0.085555561 0.027220476 0.39976445
0.085908175 0.027220096 0.39974153
0.086203158 0.027201539 0.39945155
0.086577371 0.027208028 0.39952946
0.086932205 0.027208403 0.39951739
0.087241597 0.027194604 0.3992973
0.087584801 0.027191417 0.39923289
0.087932594 0.027189674 0.39918968
0.088245727 0.027177272 0.39898989
0.0885842 0.027172739 0.39890563
0.088901222 0.027161693 0.39872569
0.089263856 0.02716461 0.39875069
0.089587726 0.027155755 0.39860284
0.089932956 0.027153419 0.39855066
0.090273 0.027149541 0.39847583
0.090608045 0.027144197 0.39837939
0.090999112 0.027155612 0.39852887
0.032470126 0.028490694 0.41504717
0.032845378 0.028499136 0.41516244
0.03319639 0.028486587 0.41497189
0.033561703 0.028486455 0.41496211
0.033910051 0.028472079 0.41474479
0.034273576 0.028470621 0.41471556
0.034626465 0.028460447 0.4145593
0.034987435 0.028457059 0.41450179
0.035344828 0.02845086 0.41440332
0.035697196 0.028440785 0.41424826
0.036058836 0.028438225 0.4142026
0.036414426 0.028430995 0.41408885
0.036771584 0.028425114 0.41399473
0.037124649 0.028416226 0.41385663
0.037488732 0.028415851 0.41384253
0.037835926 0.028402809 0.41364387
0.038196538 0.028399996 0.41359407
0.038553923 0.028394856 0.41351032
0.038913224 0.028391208 0.41344824
0.039264873 0.028382098 0.41330653
0.039620202 0.028375791 0.41320559
0.03997061 0.028366107 0.41305542
0.040321972 0.028357269 0.41291741
0.040682424 0.02835492 0.41287392
0.041037478 0.028348891 0.41277671
0.041390382 0.028341487 0.41265944
0.041746862 0.028336646 0.41257939
0.042095818 0.028326821 0.41242674
0.042456057 0.028324695 0.41238609
0.042816307 0.028322609 0.41234595
0.043163732 0.028312145 0.41218379
0.0435041 0.02829727 0.41195726
0.043866314 0.028296728 0.41193941
0.044215012 0.028287552 0.41179574
0.044574585 0.028285421 0.41175464
0.044924282 0.028277114 0.41162351
0.045277487 0.028271127 0.41152608
0.045642506 0.028272552 0.41153648
0.046018638 0.028280785 0.41164592
0.046391372 0.028286818 0.4117232
0.046761375 0.028291102 0.41177502
0.047150452 0.028306775 0.41199246
0.077130392 0.027725404 0.40236643
0.077470601 0.027719844 0.40226966
0.077821322 0.027718086 0.40222794
0.078155257 0.027710386 0.4021
0.078506254 0.027708782 0.40206045
0.078851409 0.027705137 0.40199125
0.079144061 0.027683163 0.401656
0.079513662 0.027688179 0.40171236
0.079870336 0.027688669 0.401703
0.080200076 0.027679855 0.40155861
0.080559023 0.027681159 0.4015609
0.080868572 0.027665552 0.40131789
0.081213713 0.027662205 0.40125266
0.081543073 0.027653534 0.40111014
0.081864178 0.027642151 0.40092826
0.082215726 0.027641099 0.40089619
0.082564674 0.027639186 0.40085155
0.082908206 0.027635485 0.40078095
0.083245642 0.027629791 0.40068141
0.083570287 0.027619923 0.40052125
0.083890267 0.027608596 0.40033993
0.084242798 0.027608033 0.40031466
0.084590673 0.027605958 0.40026742
0.084915861 0.027596531 0.40011346
0.085262291 0.027594047 0.40006024
0.085595936 0.02758747 0.39994755
0.085958578 0.027590254 0.39997053
0.086253695 0.027571427 0.3996802
0.086637728 0.02758106 0.39980239
0.086911775 0.027555749 0.39941797
0.087279044 0.027560078 0.39946318
0.087635286 0.027560895 0.39945748
0.087967366 0.027554147 0.39934203
0.088305637 0.02754938 0.39925525
0.088609956 0.027534105 0.39901614
0.088977993 0.027538668 0.39906451
0.089304604 0.027530426 0.39892724
0.089624532 0.027520198 0.39876121
0.089984365 0.027522253 0.39877304
0.090309173 0.027513625 0.39863005
0.090653852 0.027511088 0.39857534
0.032485656 0.028870229 0.41523889
0.032852508 0.028871244 0.41524583
0.033215139 0.028868567 0.41519955
0.033578567 0.028866632 0.4151639
0.033930566 0.028855024 0.41498905
0.034284264 0.028845087 0.41483814
0.034643345 0.028839847 0.41475469
0.034997281 0.028830474 0.41461176
0.03535581 0.028825035 0.41452533
0.035708837 0.028815273 0.41437665
0.036076292 0.028817235 0.41439649
0.036431592 0.028809538 0.41427737
0.036790546 0.028804859 0.41420156
0.037138499 0.028791741 0.41400433
0.037500039 0.028789308 0.41396073
0.037856869 0.028783344 0.41386622
0.038209513 0.028774342 0.41372797
0.038564034 0.028766906 0.41361216
0.038924586 0.028764069 0.41356239
0.039277498 0.028755687 0.41343287
0.039635565 0.0287512 0.41335922
0.039985873 0.028741216 0.41320652
0.040353883 0.028744023 0.4132376
0.04070494 0.028734813 0.41309586
0.041038599 0.028713591 0.41278136
0.041409098 0.028718293 0.41283947
0.041756984 0.028707366 0.41267288
0.042110905 0.028700743 0.41256803
0.042478967 0.028703781 0.41260201
0.042827711 0.028693832 0.41244921
0.04317775 0.028684909 0.41231114
0.043531403 0.028678514 0.4122093
0.043880109 0.028668992 0.41206247
0.04423866 0.028666008 0.41200948
0.044598941 0.028664181 0.41197315
0.044942308 0.028651604 0.41178215
0.045294195 0.028644616 0.41167146
0.045655873 0.028643878 0.41165054
0.04603298 0.028652757 0.41176772
0.046405111 0.028658422 0.41183865
0.046778932 0.02866504 0.41192317
0.047151685 0.028670901 0.41199675
0.076904275 0.028128732 0.40305597
0.077153206 0.028089629 0.40247962
0.077496149 0.028084952 0.40239647
0.077847935 0.028083513 0.40235972
0.078195542 0.028080579 0.40230146
0.07853502 0.028074771 0.40220195
0.078869395 0.028067198 0.40207714
0.079224318 0.028066974 0.40205756
0.079535119 0.028051186 0.40181497
0.079906732 0.028056895 0.40188029
0.080242522 0.028050032 0.40176541
0.08056426 0.028038338 0.40158132
0.080930211 0.028042061 0.40161803
0.08122284 0.028020458 0.401292
0.081564873 0.028016018 0.40121165
0.08191146 0.02801317 0.40115407
0.082257465 0.028010145 0.40109396
0.082594283 0.028004039 0.40098962
0.082924493 0.027995748 0.40085396
0.083272904 0.027993651 0.40080693
0.083621435 0.027991608 0.40076068
0.083954215 0.027984334 0.40063947
0.084270537 0.027971655 0.40044087
0.084607631 0.027965948 0.40034199
0.084953502 0.02796318 0.40028512
0.085309736 0.027963834 0.40027726
0.085621744 0.027950045 0.40006253
0.085986085 0.027953381 0.4000929
0.086267203 0.027929746 0.39973721
0.08667776 0.027948035 0.39998153
0.086977832 0.027930701 0.39971593
0.087328225 0.0279296 0.39968264
0.087674968 0.027927345 0.39963278
0.087979019 0.027911566 0.39938936
0.088326983 0.027909784 0.3993462
0.088635422 0.027895583 0.39912528
0.088990003 0.027895955 0.39911285
0.089341782 0.027895449 0.39908776
0.089676909 0.027889771 0.39898863
0.090003863 0.027881604 0.3988539
0.090356767 0.027881509 0.39883462
0.090690508 0.02787552 0.39873099
0.091094874 0.027891209 0.39893731
0.032491878 0.029241737 0.4153116
0.032863181 0.029246664 0.41537389
0.033230007 0.029247537 0.41537857
0.033589873 0.029242342 0.41529691
0.033944901 0.029233081 0.4151575
0.034301464 0.029225336 0.41503948
0.034651116 0.029211922 0.41484091
0.035021309 0.029215923 0.4148896
0.035379522 0.029209951 0.41479656
0.035727125 0.029195435 0.41458213
0.036090203 0.029193722 0.41454947
0.036447521 0.029187435 0.41445175
0.03681073 0.029185941 0.41442204
0.037153848 0.029168705 0.41416872
0.037514787 0.029165661 0.4141168
0.037866734 0.02915575 0.41396731
0.038222507 0.029148946 0.41386187
0.038583219 0.029145999 0.41381115
0.038944617 0.029143626 0.4137685
0.039296709 0.029134385 0.41362834
0.039653108 0.02912849 0.41353548
0.040003072 0.029118016 0.41337758
0.04036925 0.029119423 0.41338834
0.040710222 0.029102786 0.4131428
0.041073564 0.029102294 0.41312641
0.041428741 0.029096078 0.41302872
0.04177947 0.029086873 0.41288847
0.042135563 0.029081522 0.4128029
0.04249214 0.029076602 0.41272339
0.042846188 0.029070046 0.41262054
0.043200489 0.029063774 0.41252166
0.043547109 0.029052477 0.4123514
0.043896358 0.02904311 0.4122085
0.044261348 0.029044224 0.41221422
0.04461946 0.02904084 0.41215611
0.04497749 0.029037461 0.41209793
0.045322571 0.029025845 0.41192278
0.045670524 0.029016234 0.4117761
0.046044316 0.029023062 0.41186258
0.046422001 0.029032219 0.41198203
0.0467836 0.029031254 0.41195774
0.047176149 0.029049356 0.41220397
0.076948889 0.028501781 0.40328389
0.077180825 0.028455835 0.40261775
0.077522025 0.028450413 0.40252498
0.077872477 0.028448422 0.40248063
0.078205533 0.028440127 0.40234703
0.078547299 0.028435055 0.40225902
0.078885503 0.028428743 0.4021534
0.079238474 0.028427789 0.40212354
0.079583481 0.028423997 0.40205348
0.079922721 0.028418191 0.40195486
0.080282778 0.028419804 0.40196112
0.080602162 0.028407067 0.40176442
0.080935702 0.028399406 0.40163946
0.081287086 0.028398052 0.40160364
0.081586316 0.028378569 0.40131134
0.081982732 0.028392907 0.40149733
0.082298771 0.028379409 0.40128961
0.08263468 0.028372848 0.40118
0.082976781 0.02836846 0.40110099
0.083296679 0.028356548 0.40091559
0.083643362 0.028353821 0.40086001
0.083989501 0.028350933 0.40080211
0.084349409 0.028352695 0.40080991
0.084653497 0.028335758 0.40055332
0.085018963 0.028339423 0.40058786
0.085339308 0.028328082 0.40041026
0.085667402 0.02831939 0.40027013
0.08600577 0.028314156 0.40017876
0.086343192 0.028308654 0.40008363
0.086666301 0.028298521 0.39992297
0.087031454 0.028302148 0.39995673
0.087353356 0.028291736 0.39979202
0.087685294 0.028284643 0.39967421
0.088041574 0.028285429 0.39966765
0.088369288 0.028277067 0.39953187
0.088707455 0.028272102 0.39944398
0.089026287 0.028261041 0.39926997
0.089367308 0.028257081 0.39919621
0.089714304 0.028255038 0.39914945
0.090044901 0.028247861 0.39903018
0.090409607 0.028251404 0.39906225
0.090772718 0.02825442 0.39908689
0.091137417 0.028257905 0.39911804
0.032873187 0.029621713 0.4154934
0.033239085 0.029621681 0.41548517
0.033607304 0.029623689 0.4155055
0.033960123 0.029612225 0.41533676
0.034324799 0.029611235 0.41531491
0.034679931 0.029602122 0.41517901
0.035035472 0.029593544 0.41505057
0.035389394 0.029583786 0.41490546
0.035757273 0.029585775 0.41492507
0.036112908 0.029577697 0.41480342
0.03645394 0.029557941 0.41451791
0.036812492 0.02955264 0.41443506
0.037173457 0.029549362 0.41438049
0.03753851 0.029549364 0.41437188
0.037886649 0.02953618 0.41417825
0.038259216 0.029542109 0.41425255
0.038601469 0.029524745 0.41400018
0.0389545 0.029515864 0.41386667
0.039310023 0.029509021 0.41376171
0.039666377 0.029502926 0.41366711
0.040019155 0.029494297 0.413537
0.040385474 0.029495724 0.41354769
0.040740289 0.029488791 0.41344115
0.041097395 0.029483631 0.4133594
0.041452464 0.029477105 0.41325846
0.041802038 0.029466821 0.41310474
0.04213699 0.029446501 0.41281021
0.042517748 0.02945826 0.41296539
0.042857163 0.02944142 0.41271955
0.043222923 0.02944281 0.41272917
0.043568145 0.0294303 0.41254392
0.043941524 0.029436862 0.41262591
0.044262506 0.029408507 0.41221836
0.044637661 0.029416306 0.41231757
0.044982132 0.029403925 0.41213381
0.045335792 0.0293977 0.41203633
0.045702145 0.029399738 0.41205454
0.046055455 0.02939342 0.41195557
0.046421468 0.029395247 0.41197067
0.046793904 0.029401075 0.41204181
0.047162935 0.029404694 0.4120819
0.076650038 0.028880248 0.40359774
0.076926008 0.028849924 0.40315798
0.077224404 0.028828256 0.40283915
0.077582635 0.02882902 0.4028337
0.077917956 0.028821306 0.40270975
0.078263432 0.028817402 0.40263894
0.078592874 0.028807649 0.40248644
0.078941584 0.028805019 0.40243334
0.079274252 0.028796589 0.4022992
0.079599582 0.028785571 0.40212888
0.079953454 0.028784934 0.40210348
0.080285139 0.028776349 0.40196705
0.08063785 0.028775344 0.40193641
0.080990717 0.028774399 0.40190658
0.081295133 0.028756328 0.40163752
0.081656516 0.028758472 0.40165073
0.08199209 0.028751552 0.4015373
0.082332246 0.02874629 0.40144697
0.082657605 0.028735932 0.40128544
0.082989752 0.028728005 0.40115783
0.083368286 0.028736141 0.40125445
0.083678551 0.028720772 0.40102282
0.083994046 0.028707327 0.40081799
0.084360488 0.028711326 0.40085676
0.084695593 0.028704671 0.40074667
0.08504422 0.028702643 0.40070111
0.085362986 0.02869059 0.40051556
0.085707679 0.028687315 0.40045258
0.086031392 0.028677072 0.40029225
0.086395353 0.02868028 0.40031958
0.086700454 0.028663998 0.40007487
0.087055437 0.02866427 0.40006119
0.087375335 0.028653041 0.39988691
0.087726869 0.028652228 0.399858
0.088090628 0.028655404 0.39988464
0.088410638 0.028644379 0.3997131
0.088743486 0.028637581 0.39960054
0.089066833 0.028627787 0.3994461
0.089423291 0.02862867 0.39944062
0.089757532 0.02862246 0.3993361
0.090097703 0.028618183 0.39925855
0.090415291 0.028606793 0.39908171
0.090778559 0.02860989 0.39910689
0.032890741 0.030003877 0.41570824
0.033260372 0.030007038 0.41574427
0.033620726 0.030001841 0.41566446
0.03397879 0.029994739 0.41555813
0.034341168 0.02999155 0.41550598
0.034691084 0.029977672 0.41530561
0.035042886 0.029965686 0.41513139
0.035403669 0.029961545 0.41506585
0.035772044 0.029963858 0.41508958
0.036117002 0.029946698 0.4148435
0.036489557 0.029952541 0.41491598
0.036830738 0.029932767 0.41463354
0.037190236 0.02992812 0.41456062
0.037552275 0.029925594 0.41451693
0.037911985 0.029921273 0.41444829
0.038268622 0.029914634 0.41434756
0.038623314 0.02990661 0.41422755
0.038984079 0.029903397 0.41417408
0.03932067 0.029881874 0.41386694
0.039693676 0.029888164 0.41394496
0.040043801 0.029877268 0.41378483
0.040402971 0.029873254 0.41372001
0.040755853 0.029864708 0.41359231
0.041110501 0.029857595 0.41348436
0.04146992 0.029854042 0.41342568
0.041817773 0.029842293 0.41325346
0.042169623 0.029833578 0.41312313
0.042526729 0.029828696 0.41304582
0.042878356 0.029820086 0.41291687
0.043246057 0.029822705 0.4129433
0.043591291 0.029809918 0.41275632
0.043951485 0.029807491 0.41271269
0.044289965 0.029790495 0.41246736
0.044660769 0.029795339 0.41252428
0.045001194 0.029780002 0.41230172
0.045357373 0.029775251 0.41222569
0.045713037 0.029770246 0.41214603
0.046070468 0.029766457 0.41208315
0.046433926 0.029766586 0.41207451
0.046806876 0.029772758 0.41214934
0.047191583 0.029786251 0.4123255
0.047581971 0.029803099 0.41254801
0.076662488 0.029241988 0.4036572
0.076949567 0.02921549 0.40327543
0.077261105 0.029198479 0.40302452
0.077604897 0.029193757 0.40294325
0.077959046 0.029192956 0.40291604
0.078280039 0.02917981 0.40271837
0.078605637 0.029168483 0.40254578
0.078942299 0.029161351 0.40243104
0.079294346 0.029159939 0.40239516
0.079619281 0.029148608 0.40222242
0.07998389 0.029151844 0.40225059
0.080337696 0.029151129 0.40222418
0.08068189 0.029146953 0.40214998
0.080981188 0.029126657 0.40185335
0.081324741 0.02912239 0.4017778
0.081664488 0.029116806 0.40168402
0.082010038 0.029113328 0.40161926
0.082364149 0.029112905 0.40159661
0.082684353 0.029100552 0.40140933
0.08306253 0.029108623 0.40150371
0.083370499 0.029092127 0.40125918
0.083723433 0.029091392 0.40123203
0.084045261 0.029079901 0.40105647
0.084372059 0.029070217 0.40090582
0.084718876 0.029067487 0.40085098
0.085053414 0.029060582 0.40073857
0.085398525 0.029057333 0.40067646
0.085728958 0.029049136 0.40054613
0.086080424 0.029048102 0.40051451
0.086426355 0.029045217 0.40045735
0.086757928 0.029037558 0.40033427
0.087087192 0.029029181 0.40020129
0.087427996 0.029024705 0.40012208
0.087747961 0.02901338 0.39994836
0.088115439 0.029017787 0.39999148
0.088428713 0.029004384 0.39978904
0.088773124 0.029001258 0.39972821
0.089113161 0.028996734 0.3996481
0.089454897 0.028992798 0.39957601
0.089780755 0.028983764 0.39943367
0.090107091 0.028974954 0.39929441
0.090468898 0.028977575 0.39931256
0.090846099 0.028985091 0.39939809
0.091220126 0.028991535 0.39946887
0.032896373 0.030375423 0.41577241
0.033264276 0.030376978 0.41578591
0.033628255 0.030374959 0.41575044
0.033987988 0.030369189 0.41566354
0.034354046 0.030369135 0.41565478
0.034710716 0.030360866 0.41553357
0.035059489 0.030345934 0.41532108
0.035426963 0.030347334 0.41533196
0.035774078 0.030331435 0.41510612
0.036138475 0.030330367 0.41508314
0.036501676 0.030328328 0.41504675
0.036854047 0.03031742 0.41488898
0.037206054 0.030306429 0.41472998
0.037559569 0.030296866 0.41459045
0.037913322 0.030287677 0.41445595
0.03827621 0.030285893 0.41442269
0.038638841 0.030283937 0.41438708
0.038988102 0.030271644 0.41420987
0.03934874 0.030268326 0.41415542
0.039703254 0.030260403 0.41403791
0.040055554 0.030250946 0.41389936
0.040425684 0.030255012 0.4139457
0.040767953 0.030238332 0.41370818
0.041123535 0.030231738 0.41360858
0.041488484 0.030232089 0.41360384
0.041834898 0.030219045 0.41341582
0.042199325 0.030219115 0.41340724
0.042542934 0.030204412 0.41319638
0.042905688 0.030203434 0.41317323
0.043247737 0.030188017 0.41295248
0.043603063 0.030182051 0.41286093
0.043962687 0.030179134 0.41281107
0.044319142 0.030174104 0.41273221
0.044667128 0.030163437 0.41257617
0.045014899 0.030152798 0.41242048
0.045382708 0.030155648 0.41244915
0.045729298 0.030144462 0.41228583
0.046080526 0.030136485 0.4121663
0.046439487 0.030133652 0.41211706
0.046812501 0.030139908 0.41219208
0.04719289 0.030150782 0.41233018
0.047564171 0.030155715 0.41238689
0.047946453 0.030167492 0.41253716
0.076405481 0.029637778 0.40419531
0.076708086 0.029616645 0.40389112
0.076991998 0.029588522 0.40349165
0.077296622 0.029568586 0.4032037
0.07765688 0.029570015 0.40320706
0.077974051 0.029555101 0.40298751
0.078330807 0.029555257 0.40297344
0.078662835 0.029546119 0.4028326
0.078976505 0.029530205 0.4025993
0.079347521 0.029535778 0.40265888
0.079683043 0.029528148 0.40253848
0.079997107 0.029512674 0.402311
0.080363967 0.029516723 0.40234971
0.080683529 0.029503442 0.40215209
0.081043251 0.029504899 0.40215531
0.081380405 0.029498162 0.40204677
0.081723273 0.029493546 0.40196714
0.08204741 0.029482238 0.40179625
0.082369454 0.02947028 0.40161648
0.082712494 0.029465903 0.40153995
0.083054177 0.029461084 0.40145737
0.083401173 0.029458186 0.40140086
0.083741881 0.029453095 0.4013145
0.084060222 0.029440213 0.40112188
0.084398419 0.029434366 0.40102515
0.084769934 0.029440142 0.40108663
0.085099578 0.029431386 0.40095013
0.085408218 0.029415466 0.40071604
0.085771061 0.029418275 0.40073693
0.086097352 0.029408572 0.40058744
0.08645495 0.029409597 0.40058398
0.086789913 0.029402949 0.40047598
0.08713229 0.029398851 0.40040267
0.08746618 0.029391939 0.400291
0.087776616 0.02937723 0.40007308
0.088125855 0.029375574 0.40003294
0.088467859 0.029371532 0.39996016
0.088797458 0.029363418 0.39983198
0.089160234 0.029366296 0.39985335
0.089487851 0.029357616 0.39971742
0.089828715 0.02935333 0.39964122
0.090158962 0.029345628 0.39951843
0.090503924 0.029342756 0.39946136
0.090886243 0.02935197 0.39956883
0.091213748 0.029343477 0.39943519
0.032905325 0.030750195 0.41587836
0.033275381 0.030753667 0.41591755
0.033643041 0.030754875 0.41592607
0.034003075 0.030749163 0.41584089
0.03435684 0.030737961 0.41568139
0.034720883 0.030736098 0.4156481
0.035075642 0.030726133 0.41550526
0.03543533 0.030720651 0.41542292
0.035786808 0.030708237 0.4152467
0.036151841 0.030707587 0.41522956
0.036508549 0.03069995 0.41511783
0.036871996 0.030698067 0.41508389
0.037229758 0.030691545 0.41498709
0.03758727 0.030684941 0.41488913
0.03793586 0.03067125 0.41469526
0.038298231 0.030668853 0.41465405
0.03865581 0.030662706 0.41456205
0.039016221 0.030658893 0.41450155
0.039360352 0.030642483 0.41427064
0.039724577 0.030641872 0.41425326
0.040071733 0.030628223 0.41405955
0.040433869 0.030626165 0.41402248
0.040790375 0.030619925 0.41392875
0.041137777 0.030607011 0.41374481
0.041496351 0.030602572 0.41367534
0.041853499 0.030597165 0.4135927
0.042210355 0.030591633 0.41350827
0.04257239 0.030589925 0.41347548
0.042912371 0.030572532 0.41323063
0.043276399 0.030572418 0.41321924
0.043619048 0.030557333 0.41300541
0.043987151 0.030560175 0.41303384
0.044338234 0.030551245 0.41290307
