# .PCD v0.7 - Point Cloud Data file format
VERSION 0.7
FIELDS x y z
SIZE 4 4 4
TYPE F F F
COUNT 1 1 1
WIDTH 1341
HEIGHT 1
VIEWPOINT 0 0 0 1 0 0 0
POINTS 1341
DATA ascii
-0.045377593 0.052814797 0.42464465
-0.04499286 0.052802797 0.42455715
-0.044622965 0.052808162 0.42460915
-0.044239692 0.052797645 0.42453343
-0.043875735 0.052810207 0.42464313
-0.043525223 0.052839298 0.42488575
-0.043180548 0.052876048 0.42518985
-0.10048547 0.055498306 0.44115224
-0.10008578 0.05549331 0.44113061
-0.099686675 0.055488605 0.44111118
-0.09922687 0.055449937 0.44082174
-0.098846048 0.055455271 0.44088209
-0.098417819 0.055433955 0.44073048
-0.097982146 0.055408258 0.44054395
-0.097584546 0.055403978 0.44052762
-0.097156778 0.055382453 0.44037417
-0.096711963 0.055351004 0.44014174
-0.096306436 0.055341888 0.44008678
-0.095868692 0.055314098 0.43988332
-0.09547884 0.055313829 0.43989864
-0.095034644 0.055281948 0.43966252
-0.094586916 0.055247739 0.43940777
-0.094185866 0.055240631 0.43936852
-0.093762472 0.055220306 0.43922406
-0.093384631 0.055226747 0.43929246
-0.09295316 0.055201393 0.43910792
-0.092536382 0.055184588 0.43899134
-0.092120916 0.055168428 0.43887976
-0.091670252 0.055130966 0.43859863
-0.091255061 0.055114605 0.43848538
-0.090841696 0.055099215 0.43837979
-0.090430878 0.055085249 0.43828541
-0.090046354 0.055087242 0.43831798
-0.08960548 0.055054646 0.43807521
-0.089187376 0.055035803 0.43794191
-0.08875297 0.055006687 0.43772674
-0.08836133 0.055003949 0.4377214
-0.08793968 0.05498242 0.43756649
-0.087531045 0.054968875 0.43747503
-0.087122373 0.054955192 0.43738243
-0.086675406 0.054917127 0.43709561
-0.086308658 0.054929759 0.43721238
-0.08594393 0.054943811 0.43734029
-0.058313947 0.053722054 0.42854467
-0.057913732 0.05370168 0.42839354
-0.057524569 0.05369135 0.42832252
-0.057138115 0.05368343 0.42827058
-0.056750521 0.053674333 0.42820919
-0.056347057 0.053649995 0.42802617
-0.055945806 0.05362745 0.42785737
-0.055562355 0.05362178 0.42782313
-0.055155102 0.053592905 0.42760363
-0.054768499 0.053583838 0.42754212
-0.054379512 0.053572297 0.42746079
-0.053988747 0.053558838 0.42736405
-0.053602099 0.05354929 0.42729849
-0.053208295 0.053532418 0.42717439
-0.052805375 0.053506065 0.42697453
-0.052411806 0.053488877 0.42684779
-0.052025575 0.053478982 0.42677912
-0.051633265 0.053462651 0.42665905
-0.051231775 0.053436507 0.42646056
-0.050852224 0.053433023 0.42644283
-0.050456546 0.053412426 0.42628846
-0.05005239 0.053382471 0.42605934
-0.049677689 0.053383715 0.42607912
-0.049282659 0.053362973 0.42592335
-0.048892085 0.053346772 0.42580375
-0.048495613 0.053323835 0.42563027
-0.048112705 0.053315569 0.42557386
-0.047720339 0.053296611 0.42543206
-0.047331974 0.053281859 0.42532367
-0.046948619 0.053272557 0.42525876
-0.046565503 0.053263374 0.42519474
-0.046164162 0.053233031 0.42496169
-0.045774385 0.053215634 0.4248319
-0.045390613 0.053204991 0.42475599
-0.045013841 0.053202447 0.42474464
-0.044630893 0.053192496 0.42467406
-0.044260114 0.053197008 0.42471889
-0.043897308 0.053211257 0.4248414
-0.043528195 0.053218044 0.42490423
-0.10052199 0.055909779 0.44130254
-0.10015505 0.055923108 0.44142583
-0.099721305 0.055899106 0.44125441
-0.099304363 0.055884369 0.44115594
-0.098899782 0.055876497 0.44111168
-0.098449528 0.055842657 0.44086239
-0.098064139 0.05584548 0.4409025
-0.09761285 0.055810656 0.44064531
-0.097196348 0.055795521 0.44054344
-0.09677159 0.055775505 0.44040304
-0.096345291 0.055754434 0.44025421
-0.09592025 0.055733923 0.44010973
-0.095517181 0.055726063 0.44006515
-0.09509065 0.0557044 0.43991145
-0.094687283 0.055696182 0.43986392
-0.094247542 0.055666409 0.43964607
-0.093840383 0.055655722 0.43957886
-0.09342172 0.055638086 0.43945676
-0.093003452 0.055620536 0.43933526
-0.092561536 0.055588651 0.43910044
-0.092157274 0.055579193 0.43904275
-0.091708198 0.055542521 0.43877003
-0.09130872 0.055535708 0.43873304
-0.090894744 0.055519972 0.43862554
-0.090486117 0.055507384 0.43854287
-0.090027504 0.055463903 0.438216
-0.089654721 0.055473153 0.43830571
-0.089220949 0.055444568 0.43809646
-0.08882501 0.05543936 0.43807182
-0.088405669 0.055419426 0.43793076
-0.087978192 0.055394206 0.43774787
-0.087562054 0.05537593 0.43761975
-0.087157376 0.055364769 0.43754783
-0.086751126 0.055352509 0.43746716
-0.086349398 0.055343028 0.43740842
-0.085971422 0.055348765 0.43746984
-0.057944953 0.054109365 0.42861393
-0.057563696 0.054106578 0.42860323
-0.057160605 0.054083116 0.42842859
-0.056789186 0.054089483 0.42849025
-0.056362562 0.054043021 0.42813334
-0.055979207 0.054037701 0.4281022
-0.055592239 0.054028794 0.42804259
-0.055173758 0.05398893 0.42773768
-0.054796096 0.053988732 0.42774695
-0.054405052 0.053975258 0.42765096
-0.054003049 0.053950649 0.42746663
-0.053621415 0.053946182 0.42744184
-0.053236958 0.053938802 0.42739388
-0.052837465 0.053915963 0.42722338
-0.052433193 0.053887889 0.42701131
-0.052054029 0.0538854 0.42700192
-0.051654629 0.053861775 0.42682496
-0.051251162 0.053833537 0.42661133
-0.050886892 0.053846348 0.42672297
-0.050478879 0.053812727 0.42646649
-0.050084382 0.053793117 0.42632106
-0.049696147 0.053779989 0.42622682
-0.049315725 0.053775176 0.42619848
-0.048917204 0.053750403 0.42601186
-0.048520431 0.053727191 0.42583749
-0.048132546 0.05371353 0.42573878
-0.047736291 0.053690236 0.42556363
-0.047359202 0.053688306 0.42555773
-0.046967737 0.053669922 0.42542136
-0.04657365 0.053648211 0.42525852
-0.046195947 0.053645179 0.42524368
-0.045812037 0.053634837 0.42517081
-0.045419145 0.053613715 0.42501238
-0.045026831 0.053592931 0.4248566
-0.044640049 0.053578444 0.4247506
-0.044267491 0.053580925 0.42477909
-0.043910313 0.053602222 0.42495668
-0.043536969 0.053603988 0.4249793
-0.043172643 0.053616982 0.42509091
-0.042796105 0.053614903 0.42508295
-0.10091812 0.056304041 0.44129762
-0.1005573 0.056320854 0.44144744
-0.10020564 0.056342948 0.44163871
-0.099761911 0.05631325 0.44142392
-0.099341579 0.056296576 0.44131112
-0.098953299 0.05629801 0.44134027
-0.098496668 0.056260411 0.44106331
-0.098111682 0.056263596 0.44110608
-0.097674087 0.056236524 0.44091156
-0.097270124 0.056228671 0.44086766
-0.096811935 0.056189284 0.44057643
-0.096456498 0.056209449 0.44075218
-0.095972016 0.056154281 0.44033706
-0.095549151 0.056134865 0.44020224
-0.095133379 0.056119468 0.44009891
-0.094748192 0.056122068 0.44013661
-0.094270855 0.056069877 0.43974459
-0.093887836 0.05607358 0.43979087
-0.093458891 0.056049787 0.43962136
-0.093047209 0.056036174 0.43953174
-0.092611268 0.05600778 0.43932608
-0.092173554 0.055978078 0.43911004
-0.091784351 0.055977698 0.43912402
-0.091349974 0.055949662 0.43892094
-0.090942979 0.055938225 0.43884802
-0.090532631 0.055924613 0.43875802
-0.090112142 0.055904601 0.43861768
-0.089687705 0.055881951 0.43845659
-0.089258522 0.055856135 0.43827063
-0.088858783 0.055848606 0.43822804
-0.08842922 0.055822179 0.43803713
-0.088008828 0.055801328 0.43788993
-0.087611586 0.05579504 0.43785694
-0.087194003 0.055775687 0.43772134
-0.086787961 0.055763584 0.43764251
-0.086433902 0.055784915 0.4378261
-0.086014159 0.055763867 0.43767697
-0.057960335 0.054502558 0.42871702
-0.057591114 0.054511245 0.42879671
-0.057196382 0.054495748 0.42868602
-0.056793835 0.054472543 0.42851472
-0.056406394 0.054463618 0.42845562
-0.056002393 0.054438472 0.42826882
-0.055611104 0.054425426 0.42817718
-0.055207603 0.054400168 0.42798939
-0.054818872 0.05438922 0.42791408
-0.054416344 0.054364335 0.42772901
-0.054027628 0.054353006 0.42765054
-0.053631734 0.054334231 0.42751342
-0.053244121 0.054323658 0.42744073
-0.052851371 0.054307636 0.42732516
-0.052462455 0.054295365 0.42723894
-0.052071787 0.054281086 0.42713693
-0.051682185 0.054267723 0.42704198
-0.051294692 0.054256395 0.42696297
-0.050902497 0.054239884 0.42684317
-0.050491653 0.054203108 0.42656377
-0.050104793 0.054191723 0.42648411
-0.049714658 0.054176599 0.42637491
-0.049337119 0.054175075 0.42637271
-0.048938718 0.05415044 0.42618853
-0.048559155 0.054146435 0.42616665
-0.048157103 0.054117098 0.42594531
-0.047777422 0.054112628 0.42591962
-0.047376994 0.05408442 0.42570698
-0.046986751 0.054067466 0.42558286
-0.046595853 0.054049481 0.42545056
-0.0462166 0.054044828 0.42542312
-0.045826636 0.054027475 0.42529562
-0.04544317 0.054017551 0.42522654
-0.045041308 0.053985424 0.42498258
-0.044664234 0.053982709 0.42497009
-0.044282954 0.05397483 0.42491683
-0.043908514 0.053975221 0.42492861
-0.043544352 0.053988352 0.42504072
-0.043175921 0.053996388 0.42511252
-0.042817827 0.0540176 0.42528808
-0.10098438 0.056732599 0.4415772
-0.10061604 0.056745425 0.44169515
-0.10026658 0.056769066 0.44189718
-0.099830501 0.056743629 0.44171724
-0.099385232 0.056712762 0.44149488
-0.098981574 0.056705497 0.44145617
-0.098547719 0.056680802 0.44128174
-0.098150715 0.056677181 0.44127136
-0.097716041 0.056651704 0.4410907
-0.097292915 0.056632739 0.44096074
-0.096854247 0.056604542 0.44075876
-0.096432425 0.05658599 0.4406319
-0.096019067 0.056572288 0.44054267
-0.095607989 0.056559823 0.44046301
-0.095158219 0.056524269 0.44020352
-0.09472429 0.056497868 0.44001526
-0.094310313 0.056483209 0.43991834
-0.093918726 0.056481887 0.43992525
-0.093496963 0.056462329 0.4397901
-0.093074307 0.056442074 0.4396494
-0.092673242 0.056434792 0.43960974
-0.092217259 0.056393869 0.43930793
-0.091798142 0.056375235 0.43917972
-0.091406681 0.056373496 0.43918306
-0.090975255 0.056347009 0.43899342
-0.090562418 0.056331832 0.43889198
-0.090153635 0.056319077 0.43880925
-0.089728639 0.056296024 0.43864629
-0.089320399 0.056283344 0.43856403
-0.088887982 0.056255244 0.43836164
-0.088482641 0.056244116 0.43829134
-0.088090338 0.056241211 0.43828508
-0.087664559 0.056216806 0.43811125
-0.08725106 0.056200098 0.43799731
-0.086849563 0.056191016 0.43794271
-0.086471915 0.056197345 0.43800822
-0.086127423 0.056225386 0.43824282
-0.085797682 0.056263335 0.43855473
-0.057599228 0.054897875 0.42884639
-0.057221301 0.054898441 0.42886207
-0.056826718 0.054882929 0.42875206
-0.05643807 0.054872982 0.42868546
-0.056033824 0.054847628 0.42849848
-0.055647552 0.054839641 0.42844704
-0.055252355 0.054822702 0.42832556
-0.054849274 0.054797649 0.42814067
-0.054449789 0.054775864 0.4279812
-0.054072738 0.054776497 0.42799681
-0.053668272 0.05474918 0.42779398
-0.053259049 0.054716587 0.42754981
-0.052886318 0.054721288 0.42759699
-0.052488133 0.054699525 0.42743734
-0.052111845 0.054700438 0.4274548
-0.051713664 0.05467822 0.42729136
-0.051314447 0.054654557 0.42711663
-0.050917231 0.054632705 0.42695594
-0.050528307 0.054619487 0.42686266
-0.050140738 0.054607559 0.42677933
-0.049745191 0.054586682 0.42662603
-0.049355604 0.054572079 0.42652169
-0.048951734 0.054541342 0.42629117
-0.048560686 0.05452453 0.42616937
-0.048176926 0.054515693 0.42610988
-0.047794834 0.05450863 0.42606413
-0.047406431 0.054494198 0.42596072
-0.047011167 0.054471582 0.42579326
-0.046618592 0.054451745 0.4256475
-0.046227194 0.054432973 0.42550993
-0.045845311 0.054425195 0.42545816
-0.045461435 0.054414891 0.4253867
-0.04506107 0.054384533 0.42515829
-0.044681109 0.054378491 0.42511994
-0.044301581 0.054372877 0.42508483
-0.043928064 0.054374609 0.42510712
-0.043554597 0.054376427 0.42512998
-0.043186709 0.054385312 0.425208
-0.042824566 0.054401651 0.42534426
-0.10098415 0.057124037 0.44156596
-0.10068227 0.057174712 0.44197574
-0.10030065 0.057180315 0.44203708
-0.099896044 0.057172805 0.44199699
-0.099469952 0.05715289 0.44186097
-0.099014148 0.057115681 0.44159114
-0.098606326 0.057105958 0.44153383
-0.098173738 0.057081766 0.44136456
-0.097765237 0.057071451 0.44130245
-0.09732198 0.057040669 0.44108215
-0.09686175 0.056999654 0.44078258
-0.09649428 0.057013109 0.4409042
-0.096066058 0.056990642 0.44074792
-0.095649466 0.056974921 0.44064376
-0.09522941 0.056956988 0.44052249
-0.094781905 0.056922439 0.44027254
-0.09437225 0.056910425 0.4401969
-0.093951337 0.056891493 0.44006765
-0.09354423 0.056880794 0.44000205
-0.093145259 0.056874972 0.43997416
-0.092722312 0.056854412 0.43983212
-0.09226653 0.056813456 0.43953225
-0.091869257 0.056808334 0.43950948
-0.091446899 0.056787591 0.43936586
-0.091023862 0.056766242 0.43921754
-0.090603873 0.056746621 0.43908244
-0.090201713 0.056738056 0.43903282
-0.089765385 0.056707822 0.43881553
-0.089359559 0.056696676 0.43874583
-0.088912226 0.056658994 0.43847069
-0.088521205 0.056657013 0.43847185
-0.088103347 0.056637768 0.43833929
-0.087719962 0.056640614 0.43837765
-0.087283388 0.056608986 0.43814909
-0.086924188 0.056627482 0.43830851
-0.086517639 0.056615163 0.43822932
-0.086159594 0.056634612 0.43839595
-0.085830919 0.056673639 0.43871406
-0.057236727 0.055292301 0.42896688
-0.056855835 0.055290092 0.42896098
-0.056446243 0.055259757 0.42873672
-0.056072436 0.055264287 0.42878291
-0.055679634 0.05525003 0.42868325
-0.055265035 0.055213798 0.42841303
-0.054890178 0.055217054 0.42844906
-0.054484889 0.055189528 0.42824626
-0.054087162 0.055169325 0.4281002
-0.053705744 0.0551656 0.42808184
-0.053315092 0.055152256 0.42798886
-0.052893315 0.055106308 0.42764273
-0.052500717 0.055090312 0.42752898
-0.052113328 0.055079594 0.42745608
-0.051728278 0.055071212 0.42740127
-0.051336337 0.05505532 0.42728806
-0.050945263 0.055040125 0.42718017
-0.050545406 0.055015139 0.42699632
-0.050172389 0.055019218 0.42703789
-0.04976083 0.054980766 0.42674932
-0.04936751 0.054962043 0.42661378
-0.048991382 0.054962326 0.42662564
-0.048594479 0.054939117 0.42645511
-0.048197553 0.054915521 0.42628148
-0.047811944 0.054904558 0.42620584
-0.04741795 0.054883704 0.4260534
-0.04702916 0.05486859 0.4259454
-0.046640914 0.05485389 0.42584053
-0.04625316 0.054839514 0.4257381
-0.045867398 0.054827299 0.42565235
-0.045490388 0.054825425 0.42564681
-0.045095168 0.05480139 0.42546919
-0.044705499 0.054783762 0.42534116
-0.044323552 0.054775368 0.42528483
-0.04393854 0.054763023 0.42519766
-0.043568742 0.054769576 0.42525724
-0.043195195 0.054771509 0.42528075
-0.042833067 0.054788072 0.4254179
-0.042479981 0.054816596 0.42564783
-0.10100204 0.057525814 0.44163391
-0.10070115 0.057577439 0.44204828
-0.10034426 0.057597306 0.44221887
-0.099955797 0.057599157 0.44225103
-0.099526271 0.057577249 0.44210079
-0.099057809 0.057532568 0.44177553
-0.098647192 0.05752125 0.44170651
-0.09821488 0.057497151 0.4415392
-0.097800195 0.057483211 0.44144985
-0.09738338 0.057467919 0.44135004
-0.096967347 0.057452947 0.44125268
-0.096529514 0.057424899 0.44105482
-0.096098676 0.0574008 0.44088721
-0.095720552 0.05740812 0.44096085
-0.095276691 0.057375908 0.44073081
-0.094886787 0.057376061 0.44074929
-0.09441106 0.057324104 0.44036743
-0.093985453 0.057302278 0.44021699
-0.093584701 0.05729549 0.44018197
-0.093159072 0.057273347 0.44002894
-0.09275768 0.057265986 0.43998942
-0.09231887 0.057235364 0.43977109
-0.091924943 0.057232417 0.43976539
-0.091484502 0.05720038 0.43953604
-0.091075145 0.057187576 0.43945447
-0.090675995 0.057181101 0.43942145
-0.090253413 0.057159729 0.43927389
-0.089798711 0.057117756 0.43896788
-0.089434519 0.057133216 0.43910334
-0.088966191 0.05708202 0.43872631
-0.088567711 0.05707537 0.43869165
-0.088171378 0.057070062 0.43866721
-0.087731384 0.05703631 0.43842414
-0.087353952 0.05704312 0.43849275
-0.086951822 0.057033792 0.43843722
-0.086580567 0.057044722 0.43853742
-0.086215474 0.057059828 0.43866968
-0.056861714 0.055674892 0.42899442
-0.056482706 0.055674538 0.42900282
-0.056108903 0.05567934 0.42905083
-0.055695608 0.055644769 0.42879537
-0.055312011 0.055639576 0.42876631
-0.054886863 0.055592239 0.42841235
-0.054517537 0.055601176 0.42849195
-0.054104544 0.055565394 0.42822686
-0.053719755 0.055558279 0.42818263
-0.053327955 0.055543765 0.42808127
-0.052942012 0.055535179 0.42802554
-0.052555695 0.055526081 0.42796579
-0.052145086 0.055490993 0.42770568
-0.051747471 0.055469334 0.42754894
-0.051359192 0.055457439 0.42746738
-0.050964613 0.0554385 0.42733151
-0.050579522 0.05542969 0.42727363
-0.050178561 0.055403225 0.42707953
-0.049788743 0.055388756 0.42697784
-0.049398135 0.055373184 0.42686754
-0.049016353 0.055367336 0.42683217
-0.048607808 0.055330936 0.42656118
-0.048237801 0.055338182 0.42662659
-0.047831867 0.055303995 0.42637253
-0.047450896 0.055298369 0.42633852
-0.047067016 0.055289235 0.42627743
-0.046661358 0.055254158 0.42601627
-0.046269596 0.05523511 0.42587855
-0.045896571 0.055238295 0.4259122
-0.045491163 0.055202242 0.42564321
-0.045113251 0.055199232 0.42562893
-0.044728354 0.055187546 0.42554772
-0.044349778 0.05518353 0.42552558
-0.043963391 0.055169649 0.42542726
-0.04358688 0.055168033 0.42542344
-0.043212645 0.055169292 0.42544171
-0.042847548 0.055182341 0.42555085
-0.042482734 0.055195991 0.42566451
-0.10078645 0.058018547 0.44241235
-0.10037491 0.05800717 0.44234362
-0.10002558 0.05803179 0.44254941
-0.099544838 0.057980072 0.44217288
-0.099130861 0.057966981 0.4420909
-0.098674372 0.05792883 0.44181779
-0.098260351 0.057915412 0.44173318
-0.097854644 0.057906799 0.4416852
-0.097411983 0.057876159 0.44146916
-0.097021267 0.057876274 0.44148761
-0.096548721 0.057827368 0.4411321
-0.096178219 0.057839438 0.44124165
-0.095758006 0.057821583 0.44112286
-0.095342852 0.057806659 0.44102636
-0.094926693 0.057790987 0.44092414
-0.094479948 0.05775651 0.4406783
-0.094046354 0.057729796 0.44049174
-0.093642861 0.057721425 0.44044498
-0.093232259 0.057708591 0.44036409
-0.092796378 0.057679929 0.44016242
-0.092362873 0.057652511 0.43997017
-0.091940187 0.057631642 0.4398278
-0.091521941 0.057613391 0.43970534
-0.091133572 0.057613872 0.43972582
-0.09070313 0.057587642 0.43954238
-0.090266056 0.057556964 0.43932489
-0.089855164 0.057542786 0.43923327
-0.089425713 0.057516545 0.43904951
-0.089016058 0.057502873 0.4389616
-0.088629484 0.057504039 0.43898699
-0.088174887 0.0574609 0.43867403
-0.087814398 0.057478976 0.43882838
-0.087393932 0.057457782 0.43868279
-0.087002605 0.05745564 0.43868265
-0.086613476 0.057454944 0.43869346
-0.086241014 0.057465333 0.43878892
-0.05689555 0.056087334 0.42923874
-0.05650612 0.056076851 0.42916965
-0.056115981 0.056065533 0.42909402
-0.055729471 0.056057699 0.42904508
-0.055319794 0.056026306 0.42881566
-0.054916508 0.056000996 0.42863277
-0.05453787 0.056000646 0.42864081
-0.054156058 0.055997007 0.42862362
-0.053748302 0.055966303 0.42839921
-0.053348396 0.055943392 0.42823434
-0.05296912 0.055941947 0.42823374
-0.052563503 0.055912465 0.42801842
-0.052173026 0.055898771 0.42792392
-0.051770389 0.055871759 0.42772731
-0.051382933 0.055860855 0.427654
-0.050994921 0.055849187 0.42757469
-0.050593317 0.055822331 0.42737916
-0.050199077 0.05580328 0.4272432
-0.049815886 0.055796307 0.42719963
-0.049436275 0.055793263 0.42718616
-0.049026437 0.055755801 0.42690903
-0.048646457 0.055751987 0.42688939
-0.04825826 0.055738617 0.42679656
-0.04785547 0.055708047 0.426572
-0.047478937 0.055707805 0.42657954
-0.047079824 0.055680849 0.42638245
-0.046698891 0.055675138 0.42634797
-0.046287727 0.055633005 0.42603445
-0.045913268 0.055634659 0.42605621
-0.045538422 0.055635862 0.42607448
-0.045128625 0.055594027 0.42576304
-0.044734921 0.055571496 0.42559931
-0.044367496 0.055581495 0.42568466
-0.043974452 0.055559292 0.42552337
-0.043601789 0.055562679 0.42555797
-0.043226846 0.055563204 0.42557055
-0.04285036 0.05556174 0.42556784
-0.042480815 0.055569332 0.42563435
-0.10081366 0.058426652 0.44252139
-0.1004346 0.058434159 0.44259623
-0.10005855 0.058443476 0.44268477
-0.099589288 0.058398213 0.44235986
-0.099197529 0.058398217 0.44237778
-0.098757081 0.058369454 0.44217765
-0.098341167 0.058355004 0.44208598
-0.097886622 0.058317438 0.44181907
-0.097467236 0.058300599 0.44170913
-0.09704417 0.05828141 0.44158134
-0.096639149 0.05827295 0.44153476
-0.096210226 0.058249947 0.44137797
-0.095796227 0.058235832 0.44128838
-0.09538836 0.058225345 0.4412263
-0.094972439 0.05820984 0.44112611
-0.094530255 0.058178037 0.44090238
-0.094093867 0.05814955 0.44070366
-0.09368588 0.058138456 0.44063675
-0.09327843 0.058127604 0.44057158
-0.092874743 0.058119014 0.44052348
-0.092428595 0.058083676 0.44027257
-0.091999948 0.058059078 0.44010302
-0.091569953 0.058033422 0.43992537
-0.091155782 0.058017612 0.43982235
-0.09077245 0.058021385 0.43986768
-0.090309702 0.057974204 0.43952665
-0.089924768 0.057976779 0.4395628
-0.089480303 0.057940841 0.43930686
-0.089095116 0.057943139 0.43934077
-0.08864481 0.057902917 0.43905225
-0.08822684 0.057883557 0.43892181
-0.087833054 0.057879966 0.43891087
-0.087433085 0.057872251 0.43886858
-0.087011792 0.057850294 0.43871829
-0.086660959 0.057875182 0.43892318
-0.086316988 0.057904907 0.4391647
-0.056537818 0.056487761 0.42939937
-0.056148421 0.056477327 0.42933109
-0.05575354 0.056461189 0.42921937
-0.055355001 0.056441102 0.42907751
-0.054966047 0.056430593 0.42900842
-0.054566044 0.056408498 0.42885119
-0.054168899 0.056389075 0.42871425
-0.053768229 0.056365684 0.42854697
-0.053390451 0.056366131 0.42856088
-0.052990224 0.056342717 0.4283933
-0.052591555 0.056320637 0.4282358
-0.052184034 0.056288686 0.42800313
-0.05180594 0.056288242 0.42801002
-0.051410515 0.05626883 0.42787254
-0.051020578 0.056255177 0.42777878
-0.050632525 0.056243416 0.42769933
-0.050246265 0.056233488 0.42763376
-0.04982169 0.056180198 0.42723837
-0.049453773 0.05619048 0.42732632
-0.049038831 0.056147076 0.42700592
-0.048663706 0.056148939 0.42702973
-0.048285421 0.056147162 0.42702577
-0.047895275 0.056131452 0.42691574
-0.047497042 0.056105945 0.42673114
-0.047099113 0.056080393 0.42654616
-0.046713095 0.05606873 0.42646664
-0.046326503 0.056056175 0.42638034
-0.045946635 0.056051623 0.4263548
-0.04555032 0.056026764 0.42617473
-0.045164119 0.056014042 0.42608687
-0.044750921 0.055967346 0.42574051
-0.044386122 0.055980887 0.42585236
-0.043990921 0.055955999 0.42567173
-0.043616679 0.055957578 0.42569235
-0.043235436 0.055950109 0.42564413
-0.042854663 0.055943131 0.42559955
-0.042482752 0.055947714 0.42564279
-0.10086618 0.058849741 0.44274139
-0.10048414 0.058855668 0.44280401
-0.1000795 0.058848355 0.44276696
-0.099661551 0.058833126 0.44267032
-0.099218749 0.058803048 0.44246185
-0.098820962 0.058799524 0.44245312
-0.098392405 0.058777574 0.44230571
-0.097988598 0.05877031 0.44226876
-0.097527362 0.058728393 0.44197097
-0.097105525 0.058709972 0.44184989
-0.096706986 0.058705542 0.44183409
-0.096258059 0.058670357 0.44158676
-0.095833398 0.058649741 0.44144905
-0.095410258 0.058629893 0.44131696
-0.094984725 0.058608409 0.44117254
-0.094574556 0.058596261 0.44109833
-0.094148166 0.05857392 0.44094735
-0.093732156 0.058557879 0.44084373
-0.093331523 0.058551352 0.44081163
-0.092904121 0.058527909 0.44065219
-0.092466667 0.058497902 0.44044325
-0.092056796 0.058485169 0.44036427
-0.091596611 0.058440235 0.44004276
-0.091217861 0.058447082 0.4401111
-0.090786807 0.058420349 0.43992648
-0.090376832 0.058406994 0.43984258
-0.089958355 0.05838801 0.43971625
-0.089538224 0.058367781 0.43958047
-0.089102015 0.058336861 0.43936405
-0.088709608 0.058334466 0.43936244
-0.088269517 0.058300547 0.43912336
-0.087879419 0.058299508 0.4391318
-0.087490357 0.058299135 0.4391453
-0.087081887 0.058285788 0.43906093
-0.086715519 0.058300618 0.43918878
-0.086387627 0.058341563 0.43951333
-0.05654357 0.056873005 0.42943197
-0.056160975 0.056869421 0.42941594
-0.05578069 0.05686814 0.42941722
-0.05537761 0.056843452 0.42924166
-0.054992709 0.056837212 0.42920536
-0.054590747 0.056813128 0.42903423
-0.054200936 0.056801442 0.42895663
-0.053822979 0.056802101 0.42897221
-0.05339621 0.056750897 0.42859602
-0.053009965 0.056742333 0.42854178
-0.05262189 0.056731679 0.42847168
-0.052219857 0.05670571 0.42828584
-0.051829595 0.056692243 0.42819434
-0.051430911 0.056669295 0.42803118
-0.051047429 0.05666288 0.42799279
-0.050659958 0.05665192 0.42791998
-0.050275695 0.056644402 0.4278731
-0.049862467 0.056603886 0.42757693
-0.049472854 0.056589775 0.4274801
-0.049073361 0.056564048 0.42729548
-0.048676468 0.056540955 0.42713064
-0.048304435 0.056546599 0.42718279
-0.047911853 0.056528088 0.42705244
-0.047515273 0.056504533 0.42688385
-0.047128566 0.056492437 0.4268018
-0.046732221 0.056468491 0.42663014
-0.046346739 0.056457393 0.42655548
-0.045956638 0.05644045 0.42643651
-0.045572754 0.056430925 0.42637357
-0.045190655 0.056423459 0.4263261
-0.044790875 0.05639362 0.42610952
-0.044401105 0.05637598 0.42598501
-0.044006184 0.056351449 0.42580831
-0.043622229 0.05634065 0.42573541
-0.043252949 0.056348789 0.42580545
-0.042878106 0.056349762 0.42582127
-0.042507306 0.056356106 0.42587766
-0.042134419 0.056359775 0.42591372
-0.10088035 0.059250709 0.44279304
-0.10051452 0.059266265 0.4429273
-0.10009358 0.05924933 0.44281867
-0.099717692 0.059259031 0.44290906
-0.099286191 0.059235629 0.44275203
-0.098853648 0.059211411 0.44258881
-0.098409556 0.059180062 0.44237223
-0.098031864 0.059188552 0.44245335
-0.097605415 0.05916756 0.44231409
-0.097179152 0.059146505 0.44217426
-0.096756898 0.059127733 0.44205144
-0.096361838 0.05912549 0.44205219
-0.095902972 0.059083924 0.44175878
-0.095443502 0.059041649 0.44146004
-0.095034741 0.059030518 0.44139412
-0.094605811 0.059006713 0.44123337
-0.09418454 0.058987509 0.44110698
-0.093782455 0.058980223 0.44106957
-0.093357466 0.058958396 0.44092345
-0.092931785 0.058935963 0.44077268
-0.092527218 0.05892678 0.44072095
-0.092112832 0.05891123 0.44062155
-0.091697574 0.058894999 0.44051701
-0.091259576 0.05886396 0.4403016
-0.090845048 0.058847863 0.44019791
-0.090419158 0.058824234 0.44003782
-0.089991964 0.058799546 0.43986976
-0.089596123 0.058795221 0.43985391
-0.08916226 0.058765803 0.4396503
-0.088732868 0.058739077 0.43946683
-0.088315055 0.058719825 0.43933907
-0.087926082 0.058719654 0.43935412
-0.087522395 0.058709614 0.43929526
-0.087147191 0.058718681 0.43937927
-0.086755946 0.058716964 0.43938261
-0.056167092 0.057255123 0.4294515
-0.055791397 0.057258595 0.42948848
-0.05541677 0.057263222 0.42953405
-0.05500083 0.057224918 0.42925757
-0.054611135 0.057213586 0.42918324
-0.054223675 0.057204455 0.42912543
-0.053817995 0.05717583 0.42892128
-0.053431746 0.057167605 0.42887008
-0.053030785 0.057143394 0.42869893
-0.052652508 0.057143465 0.42870981
-0.052243005 0.057109397 0.4284645
-0.051852822 0.057096113 0.42837507
-0.051456891 0.057076257 0.42823622
-0.051062591 0.057057925 0.42810875
-0.050681908 0.057054654 0.42809418
-0.050289862 0.057038445 0.42798251
-0.049896743 0.057020769 0.42785969
-0.049502932 0.057002019 0.4277288
-0.049112204 0.056986567 0.42762253
-0.048710875 0.056958485 0.42742139
-0.048319213 0.056941342 0.4273023
-0.04793803 0.056936387 0.42727455
-0.047539599 0.056910701 0.42709124
-0.047143329 0.056887213 0.42692429
-0.046754211 0.056872051 0.42681974
-0.046364922 0.056856431 0.42671168
-0.04597747 0.056842826 0.42661867
-0.045589667 0.056828566 0.42652062
-0.045204766 0.05681771 0.42644808
-0.044813547 0.056798667 0.42631403
-0.044408459 0.056761581 0.42604443
-0.044033114 0.0567622 0.42605776
-0.043644167 0.056745145 0.4259384
-0.043263733 0.056738954 0.42590049
-0.042889982 0.056741502 0.42592809
-0.04249296 0.056713019 0.42572275
-0.042153526 0.056761604 0.42609572
-0.041793797 0.056783475 0.42626819
-0.10089698 0.059653249 0.44285545
-0.10057865 0.059697136 0.44319925
-0.10018343 0.05969556 0.44320551
-0.099748604 0.059670281 0.44303569
-0.099356093 0.059670214 0.44305304
-0.09889818 0.059630707 0.44277748
-0.098473832 0.059611209 0.44265044
-0.09806218 0.059599277 0.44257954
-0.097633593 0.059576906 0.44243103
-0.097213581 0.059559621 0.44232023
-0.09677738 0.059532221 0.44213429
-0.096362464 0.059517756 0.44204432
-0.095912188 0.059481248 0.44179052
-0.095543168 0.059495024 0.44191024
-0.095035277 0.059422102 0.44138587
-0.094656512 0.059429642 0.44145909
-0.094216861 0.059398849 0.44124755
-0.093821622 0.059395939 0.44124302
-0.093384951 0.05936664 0.44104245
-0.092994712 0.059366755 0.4410603
-0.09259706 0.059362113 0.44104275
-0.092170022 0.059338514 0.44088432
-0.09170945 0.059293035 0.44056323
-0.091288999 0.059273221 0.44043276
-0.090893209 0.059269309 0.44042045
-0.090485953 0.059257865 0.44035202
-0.090036422 0.059218507 0.44007617
-0.089630447 0.059207588 0.44001153
-0.089225002 0.059196923 0.43994877
-0.088775299 0.059156679 0.43966603
-0.08837422 0.059148617 0.43962249
-0.08796636 0.059135925 0.4395445
-0.087540865 0.059111208 0.43937701
-0.087186024 0.059134204 0.43956411
-0.08681944 0.059149407 0.43969324
-0.086481787 0.059184544 0.43997052
-0.056195769 0.05766407 0.42965958
-0.055827424 0.057675354 0.42975459
-0.055412773 0.05763863 0.42949182
-0.055026237 0.057630844 0.42944461
-0.054646812 0.057630446 0.42945239
-0.054245517 0.057606831 0.42928705
-0.053845052 0.057583757 0.42912567
-0.053458329 0.057575166 0.42907217
-0.053063478 0.057557635 0.42895198
-0.052666623 0.057537664 0.42881346
-0.052298509 0.057549033 0.42890847
-0.051855531 0.057477582 0.42838618
-0.051488969 0.057490401 0.42849189
-0.051076431 0.057451703 0.42821354
-0.050683934 0.057435144 0.42810008
-0.050301284 0.057429574 0.42806846
-0.049912095 0.057416398 0.42798007
-0.04953257 0.057414223 0.42797363
-0.049138773 0.057395346 0.42784262
-0.048729271 0.057357688 0.42757154
-0.048344478 0.057348754 0.42751449
-0.047958303 0.057338037 0.42744404
-0.047567893 0.057322036 0.42733416
-0.047173537 0.057301 0.42718661
-0.046781328 0.057282239 0.42705601
-0.04638185 0.057254214 0.42685622
-0.045999173 0.05724664 0.4268088
-0.045609947 0.057230718 0.4266991
-0.04522391 0.057218563 0.42661747
-0.044824768 0.057189491 0.42640954
-0.044439726 0.057178065 0.42633313
-0.044059008 0.057172064 0.4262971
-0.043684658 0.057174295 0.42632234
-0.043294813 0.057156097 0.42619523
-0.042906083 0.057139069 0.42607671
-0.04253345 0.057143372 0.42611724
-0.042170666 0.0571611 0.42625776
-0.10099317 0.06010326 0.4432669
-0.10064477 0.060129702 0.44347993
-0.10022489 0.060113482 0.44337821
-0.099795721 0.060091536 0.44323424
-0.099373318 0.06007351 0.44311911
-0.098964714 0.060063712 0.44306463
-0.098505341 0.060022905 0.44278133
-0.098123893 0.060029447 0.44284725
-0.097680189 0.059997801 0.44263142
-0.097257443 0.05997882 0.442509
-0.096814543 0.059947208 0.44229329
-0.096431434 0.059952524 0.44234988
-0.095950715 0.059896935 0.44195715
-0.095565557 0.059900802 0.44200301
-0.095126711 0.059870895 0.44179964
-0.094698489 0.059847467 0.44164398
-0.094288915 0.059835687 0.44157419
-0.093847036 0.059803206 0.44135165
-0.093451001 0.059799802 0.44134355
-0.093026251 0.059777915 0.441199
-0.092603721 0.059757266 0.44106361
-0.0922224 0.05976316 0.44112396
-0.091769397 0.05972245 0.4408403
-0.091339737 0.059696645 0.44066659
-0.090941973 0.059691567 0.44064578
-0.090518855 0.059669722 0.44050118
-0.090103261 0.059652679 0.44039193
-0.089694656 0.059640124 0.44031581
-0.089247219 0.05960153 0.44004735
-0.088859424 0.059602603 0.44007167
-0.088426299 0.059573151 0.43987057
-0.088014156 0.059557635 0.43977228
-0.087591797 0.059535041 0.43962172
-0.087228693 0.059552699 0.43976825
-0.086869001 0.059572857 0.43993324
-0.086499199 0.059586227 0.44004804
-0.05584171 0.058069989 0.4298532
-0.055457111 0.058064599 0.42982414
-0.055075455 0.058062222 0.42981738
-0.054677442 0.058042455 0.42968175
-0.054286409 0.058029875 0.42959931
-0.053894974 0.05801668 0.4295122
-0.053472135 0.057969265 0.42917165
-0.053085923 0.057961151 0.42912206
-0.052690592 0.057942905 0.42899728
-0.052303649 0.057933681 0.42893934
-0.051902108 0.057908036 0.42875963
-0.051506445 0.05788862 0.428626
-0.051111229 0.057869423 0.42849395
-0.0507151 0.057848904 0.428352
-0.050329916 0.057840653 0.4283008
-0.049937587 0.057824001 0.42818734
-0.049550999 0.057813801 0.42812154
-0.049150094 0.057786599 0.42792985
-0.048760477 0.057772364 0.427834
-0.048375614 0.05776358 0.42777851
-0.047972012 0.057732105 0.42755488
-0.047574203 0.057707164 0.42737955
-0.047199637 0.057710242 0.42741165
-0.046807829 0.057692114 0.42728665
-0.046412446 0.05766926 0.4271265
-0.046017226 0.057646226 0.426965
-0.045633513 0.057637352 0.42690825
-0.045240894 0.057616986 0.42676637
-0.044859182 0.057610288 0.42672563
-0.04446106 0.057582229 0.42652655
-0.044079844 0.057575766 0.42648739
-0.043689162 0.057556726 0.42635494
-0.043304466 0.057545312 0.42627895
-0.042929307 0.057546478 0.42629609
-0.042540848 0.057529684 0.42618009
-0.042176932 0.057546072 0.42630982
-0.041802563 0.05754837 0.4263351
-0.10066162 0.060533155 0.44354337
-0.1002792 0.060539488 0.44360766
-0.099857621 0.06052212 0.44349834
-0.099422224 0.060496222 0.44332638
-0.099013835 0.060486611 0.44327372
-0.098564729 0.060451947 0.44303745
-0.098134376 0.060428567 0.44288373
-0.097741827 0.060428362 0.44289988
-0.097306803 0.060401794 0.44272268
-0.09689112 0.060387067 0.44263223
-0.096446939 0.060354386 0.44241011
-0.096063405 0.060359541 0.44246534
-0.095595397 0.060311448 0.44213009
-0.095164068 0.060286198 0.44196227
-0.094761029 0.060278725 0.44192475
-0.094346702 0.060263991 0.44183385
-0.093889937 0.060221907 0.44154245
-0.093492255 0.060217541 0.44152743
-0.093049027 0.060183667 0.44129607
-0.092655033 0.060181484 0.44129702
-0.092233397 0.060161259 0.4411656
-0.091827184 0.060150966 0.44110695
-0.09138298 0.060115591 0.44086426
-0.090994462 0.060116701 0.44088912
-0.090543129 0.060076144 0.44060829
-0.090127483 0.060059018 0.44049931
-0.089727141 0.060051985 0.44046426
-0.089309089 0.060032994 0.44034141
-0.088891439 0.060014103 0.44021922
-0.088487275 0.06000419 0.44016287
-0.088035084 0.059961479 0.43986586
-0.087665312 0.059974775 0.43997961
-0.087276563 0.059975151 0.43999854
-0.086915262 0.059994474 0.4401564
-0.086561389 0.060019124 0.44035333
-0.055855956 0.058464792 0.42995152
-0.05548761 0.05847659 0.43004915
-0.055090725 0.058458261 0.42992514
-0.05469127 0.058436934 0.42977905
-0.054312736 0.058437828 0.42979628
-0.053919032 0.058422286 0.42969257
-0.053509388 0.058389138 0.42945927
-0.053107068 0.058363568 0.42928162
-0.052720293 0.058354832 0.42922771
-0.052318644 0.0583294 0.42905089
-0.051938802 0.05832807 0.42905134
-0.051544707 0.058310606 0.42893302
-0.051147651 0.058289513 0.42878792
-0.050758667 0.058277372 0.42870855
-0.050351169 0.058243629 0.42847025
-0.049964167 0.058233265 0.42840388
-0.049562514 0.058205537 0.42820966
-0.049178429 0.058198173 0.42816517
-0.04879348 0.058189668 0.42811218
-0.048398592 0.058169082 0.42797029
-0.047995523 0.058138266 0.42775303
-0.047607746 0.058125641 0.4276695
-0.047202364 0.058091145 0.42742497
-0.046827469 0.058093905 0.42745453
-0.046436924 0.058077145 0.42734036
-0.046036143 0.058047201 0.42712915
-0.045655169 0.058041953 0.42709953
-0.045262106 0.05802111 0.42695507
-0.044874623 0.05800714 0.42686111
-0.044480391 0.057984143 0.42670062
-0.04409273 0.057969376 0.42660066
-0.043701079 0.05794907 0.42645991
-0.043324169 0.057948135 0.42646152
-0.042935278 0.057931013 0.42634404
-0.042568181 0.057943255 0.4264425
-0.042189531 0.057939857 0.42642581
-0.04182145 0.057951033 0.42651635
-0.10029439 0.060942139 0.44366401
-0.099910453 0.060947668 0.44372213
-0.099487901 0.060929589 0.44360834
-0.099039122 0.060895249 0.44337606
-0.098643102 0.060893193 0.44337884
-0.098184362 0.060852256 0.44309843
-0.097795211 0.060854293 0.44313085
-0.097366974 0.060831919 0.44298553
-0.096910775 0.060791831 0.44271109
-0.096505053 0.060783211 0.44266576
-0.096066371 0.060753677 0.44246805
-0.095656231 0.060742032 0.44240054
-0.095240913 0.060726974 0.44230816
-0.094788909 0.060688317 0.44204378
-0.094384857 0.060680162 0.44200155
-0.093966208 0.060662515 0.44189015
-0.093543738 0.06064225 0.44175956
-0.093129523 0.060627192 0.44166684
-0.092709228 0.060608022 0.44154412
-0.092279866 0.060582742 0.44137684
-0.091870762 0.060570601 0.44130522
-0.091428734 0.06053656 0.44107395
-0.091001853 0.060512308 0.44091389
-0.090611421 0.060512174 0.44092956
-0.090193212 0.060493421 0.44080949
-0.089756779 0.060462218 0.4405987
-0.089346319 0.060448322 0.44051388
-0.0889275 0.060428627 0.44038668
-0.088479087 0.060388558 0.44011101
-0.088116728 0.060407128 0.44026268
-0.087694854 0.060384881 0.44011673
-0.087306418 0.06038557 0.44013792
-0.086929046 0.060393948 0.44021508
-0.086558342 0.06040705 0.44032666
-0.055509165 0.058879506 0.43020475
-0.055107497 0.058856115 0.43004459
-0.054717738 0.058845203 0.4299756
-0.054329101 0.058835354 0.4299143
-0.053948529 0.058834165 0.42991614
-0.053524837 0.058785599 0.42957178
-0.053123958 0.058761578 0.42940667
-0.052745927 0.058762666 0.42942497
-0.052341975 0.058734685 0.42923078
-0.051967215 0.058739293 0.42927462
-0.051568829 0.058717061 0.42912227
-0.051173601 0.058698129 0.428994
-0.050764583 0.058662973 0.42874703
-0.050385937 0.05866266 0.42875463
-0.04998941 0.058641363 0.42860883
-0.049590427 0.058616839 0.42843935
-0.049199592 0.05860164 0.42833796
-0.048817523 0.058596741 0.42831171
-0.048420399 0.058573537 0.42815167
-0.048022062 0.058548495 0.4279781
-0.047649242 0.058554426 0.42803079
-0.047242571 0.058518507 0.42777756
-0.046844475 0.05849272 0.4275983
-0.046453357 0.058475316 0.42748016
-0.046062913 0.058458466 0.42736605
-0.045678705 0.058449317 0.42730823
-0.045287527 0.058431029 0.42718348
-0.044892509 0.058407441 0.42701983
-0.044507045 0.058395989 0.42694485
-0.044116553 0.058377691 0.42681977
-0.043728165 0.058361873 0.42671278
-0.0433346 0.058338817 0.42655277
-0.042946633 0.05832297 0.42644534
-0.042574715 0.058328822 0.42649657
-0.042209886 0.058344584 0.42662013
-0.041852981 0.058371682 0.42682648
-0.041490369 0.058391236 0.42697766
-0.100354 0.061372083 0.44391677
-0.099928312 0.061352152 0.4437905
-0.099547967 0.061360016 0.44386521
-0.099133715 0.06134697 0.44378859
-0.098682709 0.061310969 0.44354591
-0.098255776 0.061289713 0.44340974
-0.097826183 0.061266609 0.44326019
-0.097393267 0.061241232 0.44309413
-0.09698429 0.061230768 0.44303593
-0.096538872 0.061197117 0.44280988
-0.096121468 0.061181024 0.44271079
-0.095697924 0.06116087 0.44258231
-0.095271707 0.061138835 0.44244012
-0.094861321 0.061126824 0.44237041
-0.094437644 0.061106123 0.44223773
-0.094011135 0.061083399 0.44209036
-0.093577743 0.061055996 0.44190904
-0.09316171 0.061039731 0.44180834
-0.092746966 0.061024185 0.44171274
-0.092312217 0.060995288 0.44152045
-0.091923669 0.060996808 0.44154826
-0.091497332 0.060973149 0.44139373
-0.09105859 0.060940992 0.44117764
-0.090680756 0.060949493 0.44125584
-0.090209365 0.060894918 0.44087726
-0.089793399 0.060877442 0.44076726
-0.089388452 0.060867317 0.44071043
-0.089008786 0.060874395 0.44077808
-0.08855103 0.0608279 0.44045773
-0.088140212 0.060813371 0.4403688
-0.087713405 0.060787633 0.44019863
-0.087334104 0.060794745 0.44026631
-0.086963713 0.060808145 0.44037941
-0.086600035 0.060826372 0.44052753
-0.055528451 0.059280306 0.43034267
-0.055145655 0.059277184 0.43033081
-0.054746948 0.059256807 0.43019357
-0.054346997 0.059234783 0.43004435
-0.053959046 0.059225623 0.42998841
-0.053545218 0.059187736 0.42972386
-0.053177617 0.05920076 0.42982882
-0.052770834 0.059170049 0.42961621
-0.052370232 0.059145872 0.42945093
-0.051973537 0.059125781 0.42931527
-0.051585991 0.05911589 0.42925358
-0.051191796 0.059098177 0.42913496
-0.050791912 0.059073579 0.42896634
-0.0504044 0.059063107 0.42890021
-0.050017282 0.059052944 0.42883626
-0.049627271 0.05903919 0.42874613
-0.04922764 0.059013687 0.4285706
-0.048828091 0.058987897 0.42839289
-0.048431646 0.058965474 0.42823958
-0.048052728 0.058964215 0.42823991
-0.047668923 0.058956888 0.42819604
-0.047278415 0.058941092 0.42809063
-0.046883978 0.0589201 0.4279474
-0.046478212 0.058884416 0.42769736
-0.046072032 0.058847617 0.42743918
-0.045700055 0.058854256 0.4274964
-0.045309976 0.058837507 0.42738366
-0.044920173 0.058820844 0.42727146
-0.044533089 0.058807481 0.42718318
-0.04415166 0.058801431 0.42714792
-0.04374326 0.058759041 0.42684859
-0.043358773 0.058748316 0.42677924
-0.042991433 0.058760837 0.42687869
-0.042595007 0.058733482 0.42668831
-0.04222713 0.058745351 0.42678291
-0.041843101 0.058734763 0.42671424
-0.041485537 0.05876147 0.42691645
-0.041132409 0.058795013 0.42716822
-0.10038938 0.061787575 0.44406226
-0.099992409 0.061785355 0.44406414
-0.099590175 0.061779846 0.44404238
-0.099190176 0.061775688 0.44403028
-0.098718472 0.061726674 0.44369563
-0.098317675 0.061721761 0.44367802
-0.097909495 0.061712164 0.44362661
-0.097451344 0.061670877 0.44334733
-0.097029239 0.061652143 0.44323015
-0.096585363 0.061619382 0.44301206
-0.096196681 0.061621696 0.44304609
-0.095749423 0.061586361 0.44280934
-0.095328271 0.061567601 0.44269171
-0.094924159 0.061559729 0.44265234
-0.094492845 0.061534084 0.44248503
-0.094052322 0.061502203 0.44227293
-0.093629703 0.061481815 0.44214332
-0.093220174 0.061469879 0.44207448
-0.092801243 0.061451625 0.44196013
-0.092402495 0.061446641 0.44194111
-0.091945484 0.061402693 0.44164184
-0.091535695 0.061390046 0.44156763
-0.091115989 0.061370619 0.44144452
-0.090677544 0.061338339 0.44122902
-0.090280674 0.061334029 0.44121456
-0.089868121 0.061318982 0.4411228
-0.089454778 0.061303269 0.44102621
-0.089022331 0.061274257 0.44083393
-0.088570692 0.061231729 0.44054428
-0.088179082 0.06123051 0.44055176
-0.087763481 0.061212543 0.44043869
-0.087376192 0.06121425 0.44046715
-0.08700987 0.061230745 0.44060189
-0.086648434 0.061250817 0.44076243
-0.05554802 0.059681669 0.43048269
-0.055174582 0.05968881 0.43054497
-0.054764263 0.059655856 0.43031806
-0.054389156 0.059661075 0.43036634
-0.053983342 0.059632458 0.43017045
-0.053577971 0.059603918 0.42997506
-0.05319668 0.059601951 0.42997131
-0.052795731 0.059577782 0.42980728
-0.052399468 0.059558585 0.42967907
-0.052002098 0.059537839 0.42953959
-0.051610082 0.059522964 0.42944238
-0.051209029 0.059497375 0.42926782
-0.050828204 0.05949508 0.42926124
-0.050420336 0.059460856 0.42902422
-0.050043676 0.059463196 0.42905092
-0.049641784 0.059435371 0.42885989
-0.04924975 0.059419002 0.42875147
-0.04887145 0.059419092 0.42876169
-0.048453245 0.059370276 0.42841899
-0.048073098 0.059367694 0.42840981
-0.047687624 0.059358444 0.42835245
-0.047286931 0.059329946 0.42815611
-0.04691219 0.059333824 0.4281933
-0.04650791 0.059300095 0.42795905
-0.046106789 0.059269879 0.42775002
-0.045712791 0.059248392 0.42760396
-0.045319393 0.059227336 0.42746094
-0.044931673 0.059213407 0.42736924
-0.04454514 0.059200823 0.42728719
-0.044156775 0.059185576 0.42718583
-0.043781653 0.05918796 0.42721167
-0.043386795 0.05916347 0.42704347
-0.042993233 0.059140347 0.42688498
-0.042609628 0.059130628 0.4268232
-0.042240378 0.059140835 0.42690521
-0.041867908 0.059146676 0.42695567
-0.041500431 0.059159741 0.42705813
-0.041128568 0.059166737 0.42711672
-0.040760543 0.059179436 0.42721644
-0.10076845 0.062172614 0.44397029
-0.10040401 0.062190507 0.44411594
-0.10004291 0.062210608 0.44427738
-0.099618986 0.06219165 0.44415978
-0.099198937 0.062174972 0.44405842
-0.098828986 0.062189687 0.4441812
-0.098328799 0.062122233 0.44371709
-0.097923063 0.062114157 0.44367701
-0.097532958 0.062115975 0.4437075
-0.097055323 0.062061824 0.44333819
-0.09663336 0.062042989 0.44322103
-0.096227795 0.06203457 0.44317827
-0.095808841 0.062017411 0.443073
-0.095365904 0.061984528 0.44285533
-0.094965219 0.06197894 0.44283262
-0.094547406 0.061962094 0.44272941
-0.094084837 0.061915651 0.44241461
-0.093693212 0.061915696 0.44243199
-0.093272999 0.061896782 0.44231379
-0.09285374 0.061878335 0.44219884
-0.092419997 0.061850045 0.44201356
-0.091980636 0.061817735 0.44179943
-0.091579989 0.06181128 0.44177005
-0.091145247 0.06178166 0.44157505
-0.090738699 0.061770976 0.4415153
-0.090294883 0.061734725 0.44127274
-0.089905098 0.06173525 0.44129303
-0.089486085 0.06171564 0.44116926
-0.089048602 0.061683051 0.44095269
-0.088664338 0.061687201 0.44099873
-0.088222221 0.061650973 0.44075596
-0.087788001 0.061619956 0.44055042
-0.087414347 0.06163137 0.44064817
-0.087011188 0.061621983 0.44059715
-0.086680986 0.061664425 0.44091663
-0.086338207 0.061698254 0.44117454
-0.055571903 0.060087964 0.43065611
-0.055184044 0.060079623 0.43060708
-0.054810867 0.06008726 0.43067256
-0.054402385 0.060056031 0.43045932
-0.054016795 0.060049813 0.43042532
-0.053606927 0.060016315 0.43019575
-0.053215329 0.06000296 0.43011039
-0.05282972 0.059996203 0.43007231
-0.052425981 0.059968609 0.42988476
-0.052031353 0.059951115 0.42976958
-0.051625539 0.059920374 0.42955935
-0.051245913 0.059919812 0.42956534
-0.050854683 0.059905566 0.42947316
-0.050436586 0.059859216 0.42915079
-0.050071094 0.059875082 0.42927435
-0.049674202 0.059853345 0.42912826
-0.049283475 0.059838761 0.4290334
-0.048900422 0.059833348 0.42900416
-0.048498776 0.059804924 0.42880988
-0.048089143 0.059766117 0.42854109
-0.04771056 0.059765611 0.42854682
-0.04731309 0.059741233 0.42838132
-0.04691989 0.059721902 0.42825192
-0.046532609 0.059709847 0.42817464
-0.046137679 0.059687708 0.42802495
-0.045741327 0.05966334 0.42785922
-0.045369152 0.059670381 0.42791861
-0.044971306 0.059643477 0.42773455
-0.044561986 0.059600785 0.42743713
-0.044177581 0.059590973 0.42737547
-0.043790761 0.059577692 0.42728886
-0.04340668 0.059567954 0.42722753
-0.043016735 0.059549931 0.42710671
-0.042637773 0.059546918 0.42709351
-0.042265851 0.059553776 0.42715099
-0.041887011 0.059550922 0.42713881
-0.041509569 0.059550025 0.4271405
-0.10044589 0.062610529 0.4442901
-0.10009669 0.062638313 0.44450507
-0.099656768 0.062609315 0.4443171
-0.099222735 0.062583804 0.44415382
-0.098841026 0.062591225 0.44422415
-0.098408207 0.062566213 0.44406426
-0.097962722 0.062532917 0.44384551
-0.097544357 0.062516727 0.44374815
-0.097109705 0.062489927 0.44357541
-0.096726872 0.062496394 0.44363874
-0.096255958 0.062445771 0.44329673
-0.095830522 0.062424358 0.44316202
-0.09542881 0.062418289 0.44313616
-0.095031284 0.062414914 0.44312942
-0.094576344 0.062373653 0.44285363
-0.094144836 0.062347572 0.44268548
-0.093736507 0.062336668 0.44262514
-0.093302757 0.062308714 0.44244358
-0.092899077 0.062300686 0.44240347
-0.092448741 0.062261168 0.44213971
-0.092053548 0.062258616 0.44213837
-0.091623269 0.062232196 0.44196749
-0.091187477 0.062201809 0.44176832
-0.090760455 0.062177148 0.4416098
-0.090378575 0.062183347 0.44167039
-0.089939363 0.062149979 0.44144988
-0.089527383 0.06213522 0.44136149
-0.08911138 0.062117528 0.4412522
-0.088687047 0.06209385 0.4411003
-0.08825618 0.06206537 0.44091421
-0.087845206 0.062050678 0.44082612
-0.087489538 0.062075116 0.44101581
-0.087067187 0.062052224 0.4408693
-0.086699024 0.062067933 0.44099692
-0.055209205 0.060487788 0.43079171
-0.054833096 0.060492419 0.43083546
-0.05444007 0.060478345 0.43074578
-0.054039929 0.060456093 0.43059787
-0.053642813 0.060436945 0.43047202
-0.053257275 0.060430661 0.43043765
-0.052847393 0.060396466 0.43020442
-0.052455135 0.060382061 0.43011209
-0.052056435 0.060359973 0.42996496
-0.051666584 0.060347911 0.42988914
-0.051273383 0.060331713 0.42978385
-0.050858341 0.060289394 0.42949229
-0.050480694 0.060291104 0.42951438
-0.050079372 0.060264338 0.42933357
-0.049697202 0.0602604 0.42931521
-0.049287342 0.060222566 0.42905533
-0.048913136 0.060228042 0.42910394
-0.048517272 0.060206734 0.42896166
-0.048122749 0.060186766 0.42882887
-0.047729149 0.060167648 0.428702
-0.047346376 0.060161982 0.42867094
-0.046958674 0.060149912 0.42859414
-0.046554096 0.060115855 0.42836064
-0.046156913 0.060090873 0.42819166
-0.045770105 0.060079087 0.42811668
-0.045373272 0.060053848 0.42794573
-0.044981662 0.060035154 0.42782134
-0.044598326 0.060027279 0.42777401
-0.044191957 0.059987999 0.42750278
-0.043817028 0.059991091 0.42753345
-0.043431781 0.059979998 0.42746288
-0.043034416 0.059951812 0.42727053
-0.042649053 0.05994001 0.4271948
-0.042278226 0.059948601 0.42726433
-0.041893963 0.059938136 0.42719796
-0.041521128 0.059943978 0.42724776
-0.041164588 0.059973665 0.42746744
-0.10051464 0.063047737 0.44458294
-0.10013794 0.063058555 0.44467703
-0.099721342 0.06304422 0.44459379
-0.099295996 0.063024223 0.44447052
-0.098859757 0.062997125 0.44429708
