# .PCD v0.7 - Point Cloud Data file format
VERSION 0.7
FIELDS x y z
SIZE 4 4 4
TYPE F F F
COUNT 1 1 1
WIDTH 1357
HEIGHT 1
VIEWPOINT 0 0 0 1 0 0 0
POINTS 1357
DATA ascii
-0.090663448 0.026593059 0.40649343
-0.090289831 0.026588891 0.40644681
-0.089918524 0.026585372 0.40641007
-0.089549869 0.026582612 0.40638483
-0.089185424 0.026581081 0.40637839
-0.088812105 0.026576888 0.40633112
-0.088431478 0.026570462 0.40624973
-0.088071801 0.026570307 0.4062641
-0.087700792 0.026566712 0.40622589
-0.087331958 0.026563756 0.40619737
-0.086971425 0.026563311 0.40620714
-0.086622588 0.026566446 0.40627167
-0.086262397 0.026566112 0.40628311
-0.11179395 0.027464008 0.41321084
-0.11133544 0.027441265 0.41288826
-0.11083034 0.027406851 0.41238993
-0.11049516 0.027414363 0.41252246
-0.11006847 0.027399153 0.41231301
-0.10968132 0.027393714 0.41225058
-0.10927516 0.027383475 0.41211584
-0.1088547 0.027369566 0.41192591
-0.10845511 0.027360836 0.41181377
-0.10807315 0.027356504 0.41176781
-0.10768424 0.027350385 0.41169491
-0.10725995 0.027335204 0.41148555
-0.10687838 0.027330849 0.41143909
-0.10648425 0.027323235 0.41134357
-0.10609592 0.027317064 0.41126969
-0.10571603 0.027313029 0.41122797
-0.10526714 0.027291084 0.41091648
-0.10487388 0.027283452 0.41082045
-0.10448366 0.027276568 0.41073567
-0.1040671 0.027262732 0.41054615
-0.10366635 0.027252955 0.41041765
-0.10328577 0.027248431 0.41036826
-0.10289974 0.027242431 0.41029656
-0.1024969 0.027231926 0.410157
-0.10209806 0.02722241 0.41003221
-0.10168392 0.027208734 0.40984479
-0.10128906 0.027200138 0.4097338
-0.10087561 0.02718647 0.40954632
-0.10052899 0.027190777 0.40962961
-0.10012714 0.027180126 0.40948749
-0.099713534 0.027166193 0.40929589
-0.099324815 0.027158966 0.40920526
-0.09892495 0.027148629 0.40906769
-0.09852612 0.027138498 0.40893322
-0.098132469 0.027129725 0.40881908
-0.097742394 0.027121881 0.40871894
-0.097342379 0.027111206 0.4085761
-0.096941374 0.027100181 0.40842789
-0.096557043 0.027093748 0.40834886
-0.096188635 0.027091755 0.40833664
-0.095777825 0.027077755 0.40814346
-0.095393591 0.027071193 0.40806231
-0.095023982 0.027068749 0.40804318
-0.094572067 0.027042752 0.40766892
-0.094213992 0.027043486 0.40769762
-0.09381938 0.027033709 0.40756774
-0.093410388 0.027019685 0.40737385
-0.09305457 0.027021002 0.40741116
-0.09263429 0.027003536 0.4071652
-0.09226574 0.027001074 0.40714538
-0.091888689 0.026996091 0.40708756
-0.091478154 0.026981197 0.4068802
-0.091080256 0.026969923 0.40672734
-0.090696007 0.026962621 0.40663439
-0.090319671 0.026957622 0.40657607
-0.089935258 0.026950164 0.40648061
-0.089560859 0.02694566 0.40642962
-0.089173436 0.026937183 0.40631872
-0.088798635 0.026932469 0.40626442
-0.088441275 0.026933024 0.40628967
-0.088069789 0.026929263 0.4062497
-0.087691501 0.02692339 0.40617779
-0.087324157 0.026920838 0.40615597
-0.086962432 0.026920011 0.40616006
-0.086586192 0.026914656 0.40609586
-0.0862284 0.026915019 0.40611786
-0.085869193 0.026914943 0.40613315
-0.085531302 0.026921578 0.40624964
-0.11220165 0.027841 0.41333917
-0.11174697 0.027819013 0.41303238
-0.11130996 0.027801294 0.41278884
-0.11096622 0.027806835 0.41289064
-0.11051474 0.027785324 0.41259074
-0.11014127 0.027783347 0.41258085
-0.10972003 0.027769269 0.41239119
-0.10931767 0.027759887 0.41227123
-0.10893247 0.027754819 0.41221529
-0.1085169 0.027741954 0.41204348
-0.10811397 0.027732242 0.41191849
-0.10772701 0.027726576 0.41185352
-0.10730726 0.027712405 0.41166213
-0.10689747 0.027700715 0.41150764
-0.10651232 0.02769535 0.41144702
-0.10614253 0.027693961 0.41144541
-0.10571898 0.027678488 0.41123453
-0.10529787 0.027663549 0.41103148
-0.10492899 0.027662273 0.41103142
-0.10453711 0.027654903 0.4109408
-0.10416183 0.027651893 0.41091487
-0.10373102 0.027634066 0.4106687
-0.10336068 0.027632281 0.41066092
-0.10295006 0.027619675 0.41049224
-0.10255601 0.027611442 0.41038853
-0.10217406 0.027606422 0.4103325
-0.10174468 0.027588503 0.41008469
-0.10134444 0.027578387 0.40995282
-0.10096078 0.027572729 0.40988711
-0.10055129 0.027559945 0.4097155
-0.10017016 0.027554873 0.4096584
-0.09976726 0.027543755 0.40951142
-0.099393301 0.027540576 0.40948242
-0.099000491 0.027532129 0.40937504
-0.098578192 0.027515391 0.40914431
-0.098202318 0.027511533 0.40910503
-0.09774857 0.027485752 0.40873975
-0.097370714 0.0274812 0.40869001
-0.09698239 0.027473643 0.40859565
-0.096604712 0.027469065 0.4085454
-0.096238233 0.027467644 0.40854216
-0.095811181 0.027448861 0.40828055
-0.09542387 0.02744136 0.40818676
-0.095048502 0.027437257 0.4081434
-0.09465953 0.027429175 0.40804085
-0.094278872 0.027423451 0.40797332
-0.093843177 0.027401615 0.40766603
-0.093464881 0.027396433 0.40760645
-0.093103327 0.027396137 0.40761948
-0.092695467 0.027382163 0.40742895
-0.092283398 0.027366834 0.40721819
-0.091930144 0.027368892 0.40726611
-0.091517679 0.02735327 0.40705088
-0.091127545 0.027344223 0.40693343
-0.090747908 0.027338268 0.40686196
-0.090330213 0.027320759 0.40661845
-0.089957476 0.027316753 0.40657586
-0.089575902 0.027310032 0.40649277
-0.089191467 0.027302375 0.40639573
-0.088810541 0.027295733 0.40631372
-0.088435538 0.027290871 0.40625814
-0.088047229 0.027281841 0.40614051
-0.087688409 0.027281919 0.40615833
-0.087316915 0.027278034 0.40611717
-0.086950548 0.027275724 0.40609938
-0.086576924 0.027271111 0.40604725
-0.086219065 0.027271446 0.40606871
-0.085848249 0.02726767 0.40602893
-0.085498072 0.027270444 0.40608662
-0.085129388 0.027267311 0.40605634
-0.084809192 0.027279755 0.4062579
-0.11261792 0.028220335 0.41349781
-0.11222339 0.028213296 0.4134143
-0.1118211 0.028204255 0.41330141
-0.11140576 0.028191851 0.41313925
-0.11099391 0.028180249 0.41298875
-0.11059923 0.028172949 0.41290125
-0.1102313 0.02817243 0.41291311
-0.10979669 0.028154816 0.41267434
-0.10937265 0.028139802 0.41247362
-0.10900625 0.028139569 0.41248953
-0.10856347 0.028119547 0.41221535
-0.10816892 0.028111925 0.41212288
-0.10776157 0.028100915 0.41198069
-0.10735461 0.028089935 0.4118388
-0.10697013 0.028084781 0.41178238
-0.10655013 0.02807023 0.41158813
-0.10613177 0.028056014 0.41139871
-0.1057846 0.028060589 0.41148475
-0.1053483 0.028041467 0.41122329
-0.10494448 0.028030893 0.4110871
-0.10459051 0.028033601 0.41114569
-0.10418382 0.028022151 0.41099659
-0.10378597 0.028013008 0.41088122
-0.10340165 0.028007464 0.41081867
-0.10297766 0.027991099 0.41059726
-0.10257603 0.027980717 0.4104636
-0.10219917 0.027977044 0.41042826
-0.10179371 0.027965488 0.41027728
-0.1014092 0.027959619 0.41020969
-0.10102136 0.027952796 0.410128
-0.10061567 0.027940959 0.40997276
-0.10018259 0.02792141 0.40970424
-0.09980911 0.027918383 0.40967813
-0.099414282 0.027909348 0.40956378
-0.099030554 0.027903371 0.40949425
-0.098634027 0.027893728 0.4093709
-0.098235302 0.027883392 0.40923733
-0.097834013 0.027872253 0.40909192
-0.097459331 0.027868638 0.40905681
-0.097023949 0.027847573 0.40876561
-0.096621424 0.027835818 0.40861094
-0.096235268 0.027828705 0.40852442
-0.095857583 0.027824001 0.40847313
-0.095467456 0.027815634 0.40836808
-0.095093384 0.027811904 0.40833101
-0.094696999 0.027801588 0.40819722
-0.094287217 0.027787251 0.40800431
-0.093916111 0.027784243 0.4079777
-0.093506284 0.027769715 0.40778184
-0.093122475 0.027762828 0.40769818
-0.092732951 0.027754178 0.40758854
-0.092328049 0.027740844 0.40741003
-0.091941632 0.02773298 0.40731183
-0.091539644 0.027720334 0.40714335
-0.091156296 0.027713258 0.40705663
-0.090791218 0.027711708 0.40705097
-0.09038873 0.027698675 0.40687662
-0.090001091 0.027690109 0.40676779
-0.089598946 0.027676994 0.4065921
-0.089209236 0.027667632 0.40647146
-0.088820249 0.027658418 0.40635297
-0.088443756 0.027653035 0.40629068
-0.088074617 0.027649915 0.40626162
-0.08768259 0.027639557 0.40612611
-0.087305874 0.027633961 0.40606052
-0.086951345 0.027635371 0.40609783
-0.086579777 0.027631355 0.40605536
-0.086212628 0.027628722 0.40603313
-0.085841224 0.027624698 0.40599045
-0.085476011 0.02762264 0.40597659
-0.085110314 0.027620407 0.40596008
-0.084755562 0.027621726 0.40599573
-0.084415466 0.02762785 0.406102
-0.084076501 0.027634397 0.40621442
-0.1144854 0.028687911 0.41486844
-0.1140104 0.028660966 0.4144986
-0.1134694 0.028617203 0.41388544
-0.11304162 0.028601805 0.41368243
-0.11266195 0.028598513 0.41365454
-0.11225526 0.028588319 0.41352677
-0.11183933 0.028575702 0.41336384
-0.11147 0.028574949 0.41337249
-0.11106077 0.028563922 0.41323254
-0.11064288 0.028550593 0.4130592
-0.11025077 0.028543849 0.41298109
-0.10984054 0.028532354 0.4128342
-0.10943057 0.028520849 0.41268706
-0.1090512 0.028517267 0.41265461
-0.10864574 0.028506823 0.4125227
-0.10823337 0.028494485 0.41236341
-0.10774961 0.028463202 0.41192991
-0.1074468 0.028479671 0.4121874
-0.10704519 0.02846998 0.41206625
-0.10661013 0.028451294 0.41181487
-0.10621353 0.028442774 0.41171056
-0.10581186 0.028432835 0.41158569
-0.10540053 0.028420225 0.41142213
-0.10498407 0.028406139 0.41123709
-0.10460655 0.028402524 0.41120362
-0.10418634 0.028387258 0.41100141
-0.10383068 0.028389536 0.41105312
-0.10339746 0.028370548 0.41079691
-0.10305016 0.028375084 0.41088122
-0.10262226 0.028357375 0.41064346
-0.10225117 0.028355302 0.41063201
-0.10185531 0.028346315 0.41052037
-0.10144056 0.028331993 0.41033146
-0.10106907 0.028329687 0.41031653
-0.10065174 0.028314475 0.41011456
-0.10025 0.028303552 0.40997472
-0.099845663 0.028291818 0.40982303
-0.09945488 0.028283849 0.40972587
-0.099060081 0.028274676 0.40961117
-0.098704167 0.028276579 0.40965685
-0.098252974 0.028251097 0.40930581
-0.097852096 0.028239949 0.40916234
-0.097495705 0.028241605 0.4092043
-0.097131982 0.028241141 0.40921557
-0.096677005 0.028214037 0.40884078
-0.096288659 0.028206255 0.40874586
-0.095911905 0.02820182 0.40869939
-0.09553013 0.028195873 0.40863094
-0.095120378 0.028181594 0.40844169
-0.094723254 0.028170954 0.40830517
-0.094362184 0.028171003 0.4083235
-0.093979113 0.028164458 0.40824616
-0.093571745 0.028150553 0.4080621
-0.093163565 0.028136296 0.40787286
-0.092767633 0.028125636 0.40773574
-0.092398107 0.028122934 0.40771392
-0.091992326 0.028109135 0.40753117
-0.091585174 0.028094806 0.40734065
-0.091206774 0.028089216 0.40727681
-0.090852328 0.028090991 0.40731964
-0.090432622 0.028072521 0.40706894
-0.090057105 0.028067678 0.40701571
-0.089672238 0.028059868 0.40691942
-0.089248791 0.028039876 0.40664646
-0.088873349 0.028034868 0.40659064
-0.08847595 0.028022859 0.40643328
-0.088099577 0.028017443 0.40637147
-0.087724626 0.028012436 0.40631554
-0.087320141 0.027997917 0.40612161
-0.086953625 0.027995508 0.40610322
-0.086565182 0.027985984 0.4059816
-0.086199425 0.027983749 0.40596566
-0.085836247 0.027982336 0.40596157
-0.085477121 0.027982237 0.4059765
-0.085111506 0.027980005 0.40596044
-0.084742934 0.027976776 0.40592989
-0.084385023 0.027977061 0.40595019
-0.084030107 0.027978338 0.40598491
-0.083667338 0.027977005 0.40598166
-0.083363757 0.027995534 0.40626663
-0.11488744 0.029064858 0.41496715
-0.11445466 0.029048398 0.41475204
-0.11393991 0.029010961 0.41423732
-0.11352244 0.028998135 0.41407391
-0.11312854 0.02899126 0.41399547
-0.11271514 0.028979331 0.41384482
-0.11233201 0.028975125 0.41380444
-0.11189083 0.028955879 0.41354915
-0.11151835 0.02895434 0.41354674
-0.11108778 0.028937655 0.41332796
-0.11067388 0.028925221 0.41316986
-0.11032765 0.02893045 0.41326401
-0.10988878 0.028911335 0.41301039
-0.1094809 0.028900284 0.41287184
-0.10903974 0.028880335 0.41260618
-0.10870154 0.028887618 0.41272953
-0.10826947 0.028869919 0.41249585
-0.10788178 0.028863972 0.41243011
-0.10751206 0.028862812 0.41243267
-0.10709365 0.028848525 0.41224769
-0.10663638 0.02882364 0.4119111
-0.10626118 0.028820843 0.41189018
-0.10585052 0.028808374 0.41173095
-0.10550002 0.028812256 0.41180536
-0.10507644 0.028796131 0.41159379
-0.10463876 0.028776016 0.41132516
-0.10427831 0.028777076 0.4113591
-0.10385241 0.02876002 0.41113403
-0.10348713 0.028759688 0.41114801
-0.10305356 0.028740311 0.41088966
-0.10267212 0.028735381 0.4108378
-0.10228512 0.028728859 0.41076311
-0.10189083 0.028720235 0.41065839
-0.1014775 0.028706161 0.41047564
-0.10110329 0.028703103 0.41045028
-0.1006682 0.028682664 0.41017646
-0.10029263 0.028679106 0.41014388
-0.099885672 0.028666506 0.40998203
-0.09949819 0.028659431 0.40989906
-0.099101081 0.028649518 0.4097755
-0.098713011 0.028642157 0.40968835
-0.098313756 0.028631484 0.4095538
-0.097936831 0.028627258 0.40951139
-0.09758532 0.02863046 0.40957519
-0.097130217 0.028603178 0.40920287
-0.096756913 0.028599871 0.40917346
-0.096324518 0.028579006 0.40889281
-0.095951475 0.028575664 0.4088628
-0.095554806 0.02856523 0.40873125
-0.095212042 0.028570894 0.40883002
-0.094772726 0.02854752 0.40851319
-0.094392188 0.028541734 0.40844804
-0.093993947 0.028530536 0.40830532
-0.093611978 0.028524205 0.40823221
-0.093222126 0.028515419 0.40812394
-0.092822611 0.028503599 0.4079721
-0.092439927 0.028496871 0.40789315
-0.092069596 0.028493911 0.40786815
-0.091672659 0.02848267 0.40772444
-0.091248967 0.028462986 0.40745986
-0.090889387 0.02846323 0.40748048
-0.090482928 0.028448734 0.40729004
-0.09008757 0.028437629 0.40714806
-0.089706659 0.028431011 0.40707028
-0.089267135 0.028405691 0.40672463
-0.088946655 0.0284182 0.40692061
-0.088558249 0.028409021 0.40680599
-0.088131145 0.028387301 0.40651172
-0.087788753 0.028392801 0.40660718
-0.087378584 0.028376337 0.40638807
-0.086979665 0.028363407 0.40621945
-0.086588204 0.028352808 0.40608421
-0.086217381 0.028348913 0.40604487
-0.085829832 0.028339459 0.40592587
-0.085464761 0.02833738 0.40591243
-0.085107967 0.028338037 0.40593818
-0.084743768 0.028336227 0.40592849
-0.084375821 0.028333144 0.40590054
-0.084008768 0.028330332 0.4058764
-0.083654523 0.028331835 0.40591407
-0.083294056 0.028331239 0.40592158
-0.082942821 0.028333789 0.40597406
-0.11486694 0.029428005 0.41488808
-0.11439122 0.029400283 0.4145171
-0.11397567 0.029387901 0.41436231
-0.11354423 0.029371321 0.41414827
-0.1131424 0.029362325 0.4140411
-0.11277109 0.029361213 0.41404513
-0.11235107 0.029347369 0.41386959
-0.11195835 0.029340591 0.41379362
-0.11152949 0.029324265 0.41358292
-0.11117168 0.029326575 0.41363502
-0.11074419 0.029310461 0.41342723
-0.11033072 0.029297963 0.41327035
-0.10992742 0.029288085 0.41315046
-0.10950886 0.029274069 0.41297206
-0.10910463 0.029263796 0.41284654
-0.10874352 0.029265065 0.41288367
-0.10832369 0.029250488 0.41269726
-0.10793852 0.029245201 0.41264188
-0.10749764 0.029224729 0.4123722
-0.10712957 0.02922398 0.41238073
-0.10672273 0.029212618 0.41223946
-0.10633514 0.029206466 0.41217169
-0.10590497 0.029188532 0.41193756
-0.10551155 0.02918064 0.41184512
-0.105129 0.029175708 0.41179442
-0.10472559 0.029164938 0.41166124
-0.10434097 0.029159341 0.41160107
-0.10394136 0.029149503 0.41148093
-0.10356735 0.029146796 0.41146144
-0.10312432 0.02912458 0.41116655
-0.10274379 0.029119922 0.41111934
-0.10232134 0.029103305 0.41090336
-0.10188806 0.029083481 0.41064197
-0.10153216 0.029085679 0.4106915
-0.10112634 0.029073542 0.41053858
-0.10073743 0.029066199 0.41045326
-0.10034308 0.029057229 0.4103449
-0.099941432 0.029046068 0.4102056
-0.099567235 0.029042836 0.41017821
-0.099163376 0.029030895 0.41002777
-0.098747537 0.029015349 0.40982637
-0.098372355 0.029011676 0.40979257
-0.09798938 0.029005673 0.40972584
-0.09760382 0.028998856 0.40964755
-0.097186193 0.028982421 0.40943339
-0.096808776 0.028977906 0.40938747
-0.096399955 0.028963918 0.40920773
-0.095991194 0.028949846 0.40902671
-0.095594682 0.028939374 0.40889648
-0.095209993 0.028932415 0.40881586
-0.094835632 0.028928554 0.40877897
-0.094411612 0.02890946 0.40852672
-0.094028637 0.028902832 0.40845063
-0.093602233 0.028882755 0.40818438
-0.093281008 0.028895099 0.40837631
-0.092879377 0.028882544 0.40821624
-0.09246438 0.028865712 0.40799567
-0.092060842 0.02885234 0.40782401
-0.091706999 0.028854502 0.40787175
-0.091295622 0.028838506 0.40766284
-0.090923801 0.028834926 0.40762937
-0.090517029 0.028820192 0.40743813
-0.090151146 0.028818412 0.40742999
-0.089758627 0.028808067 0.40730071
-0.089342766 0.028790113 0.40706381
-0.088976726 0.02878814 0.40705276
-0.088611573 0.028786438 0.40704551
-0.088200405 0.028769717 0.40682581
-0.087806284 0.028758433 0.40668294
-0.087413333 0.028747447 0.40654421
-0.087042004 0.028743511 0.40650517
-0.086625837 0.028724672 0.40625525
-0.086265318 0.028724208 0.40626517
-0.085845865 0.028704032 0.40599623
-0.085474722 0.028699912 0.4059543
-0.085098416 0.028694015 0.40588719
-0.084735632 0.028692646 0.40588406
-0.084370397 0.028690431 0.40586895
-0.084011853 0.028690487 0.40588588
-0.083641678 0.028686551 0.4058463
-0.083286352 0.028687699 0.40587854
-0.08293426 0.028689967 0.40592667
-0.082567856 0.028687293 0.40590471
-0.082227379 0.028693641 0.40601042
-0.11525185 0.029800748 0.4149245
-0.11484984 0.029791899 0.41482118
-0.11446059 0.029786322 0.41476333
-0.11399467 0.029760689 0.41442618
-0.11363249 0.029762056 0.41446504
-0.11321707 0.029749455 0.4143092
-0.1128259 0.029743157 0.41424119
-0.11237296 0.02972048 0.41394502
-0.11201417 0.02972264 0.41399473
-0.11158091 0.029704992 0.41376844
-0.11118289 0.029696636 0.41367158
-0.11080434 0.029693443 0.41364661
-0.11037277 0.029675974 0.41342267
-0.1099844 0.029670043 0.41335943
-0.10957097 0.029657288 0.41320112
-0.10918537 0.029652011 0.41314688
-0.10883642 0.029656677 0.41323122
-0.10834236 0.029621704 0.41276315
-0.10792193 0.029606694 0.41257322
-0.10756554 0.029609209 0.41262737
-0.10716611 0.029599857 0.41251618
-0.10678329 0.029595047 0.41246817
-0.10640584 0.029591689 0.41244042
-0.10599933 0.029580206 0.41229934
-0.10556778 0.029561624 0.41205934
-0.10514414 0.029545145 0.41184849
-0.10477367 0.029543541 0.41184497
-0.10439529 0.029539686 0.41181007
-0.10397167 0.029522955 0.41159558
-0.10360147 0.029521339 0.41159174
-0.10313312 0.029491637 0.41119629
-0.10278647 0.029496651 0.41128483
-0.10239743 0.029489495 0.41120362
-0.10193913 0.029462263 0.41084245
-0.10158595 0.029465334 0.41090375
-0.10120963 0.029461693 0.41087139
-0.10080846 0.029450759 0.41073734
-0.10038649 0.029433649 0.41051704
-0.099993408 0.029424921 0.41041359
-0.09961658 0.029420923 0.4103761
-0.099222563 0.029411808 0.41026714
-0.098780721 0.029388396 0.40995872
-0.098409668 0.029385947 0.40994266
-0.09800154 0.029372372 0.40977129
-0.097613402 0.029364707 0.40968236
-0.097242869 0.029362297 0.40966675
-0.096854337 0.029354423 0.40957478
-0.096456274 0.029343585 0.40944141
-0.096049502 0.029330008 0.40926975
-0.095672205 0.029325359 0.40922269
-0.095270097 0.029313045 0.40906855
-0.094870679 0.029301468 0.40892461
-0.094481193 0.029292881 0.40882239
-0.094100975 0.029287113 0.40875942
-0.093710847 0.029278204 0.40865257
-0.093334563 0.02927357 0.40860537
-0.092887565 0.029246634 0.40824676
-0.092508703 0.029241024 0.40818581
-0.092101596 0.029226407 0.40799907
-0.091714866 0.029218173 0.40790132
-0.091335066 0.029212084 0.40783349
-0.090935811 0.029199701 0.40767777
-0.090558372 0.029194253 0.40761876
-0.090174668 0.029186733 0.40753078
-0.089796655 0.029181004 0.40746778
-0.089372084 0.029160038 0.40719193
-0.089013599 0.029160554 0.40721598
-0.088652574 0.029160239 0.40722835
-0.088234156 0.02914096 0.40697592
-0.087876551 0.029141696 0.4070029
-0.087461472 0.029123301 0.4067626
-0.087068684 0.029112209 0.40662426
-0.08668334 0.029103518 0.40651941
-0.086300172 0.029095495 0.40642381
-0.085899167 0.029081361 0.40624282
-0.085500039 0.029067747 0.40606901
-0.085126489 0.029062757 0.40601557
-0.084749877 0.029056666 0.40594676
-0.084358223 0.029045351 0.40580484
-0.084006764 0.029047839 0.40585575
-0.083638981 0.029044678 0.40582767
-0.08328262 0.029045472 0.40585476
-0.082923383 0.029045269 0.40586787
-0.082554914 0.029041816 0.40583557
-0.082200393 0.029043261 0.4058716
-0.081854686 0.029047837 0.40595144
-0.081532858 0.02906098 0.40615088
-0.11572062 0.030195452 0.41526133
-0.11533377 0.030190576 0.41521421
-0.11488524 0.030169476 0.41494384
-0.11449087 0.03016251 0.41486788
-0.11405269 0.030143917 0.41463193
-0.11370313 0.030148704 0.41471753
-0.11325973 0.030128555 0.41446012
-0.11287505 0.030123951 0.41441643
-0.11248948 0.030119076 0.41436905
-0.11205042 0.030099805 0.41412351
-0.11168212 0.03009947 0.41413847
-0.11124172 0.030079648 0.41388524
-0.1108634 0.030076524 0.41386178
-0.11044065 0.030061297 0.41367167
-0.11004433 0.030053182 0.4135794
-0.10964579 0.030044405 0.41347796
-0.1092713 0.030042183 0.41346669
-0.10884845 0.030026607 0.41327164
-0.10842902 0.030011866 0.41308802
-0.10801985 0.029999882 0.41294223
-0.10766228 0.030002195 0.41299322
-0.10721325 0.029978942 0.41269228
-0.10682079 0.029971415 0.4126077
-0.10642229 0.029962124 0.41249883
-0.10603945 0.029957201 0.41245005
-0.10566835 0.029955573 0.41244656
-0.10518239 0.02992126 0.41199297
-0.10484593 0.029929381 0.41212365
-0.10443102 0.029915083 0.41194558
-0.10399965 0.029895959 0.41170102
-0.10361779 0.029890988 0.41165125
-0.10323633 0.029886087 0.41160244
-0.10282062 0.029871205 0.41141608
-0.10243365 0.0298646 0.41134369
-0.10200969 0.029847119 0.41112146
-0.10166141 0.029851737 0.41120356
-0.1012063 0.029824909 0.41085246
-0.10083017 0.029821247 0.41082036
-0.10044311 0.029814312 0.41074321
-0.10003938 0.02980236 0.41059682
-0.099666573 0.029799571 0.41057667
-0.09919969 0.02976853 0.41016716
-0.098883167 0.029782545 0.41037843
-0.098499909 0.029776491 0.4103131
-0.098069213 0.029756002 0.41004884
-0.097688153 0.029750474 0.40999067
-0.097267419 0.029732779 0.40976474
-0.096871503 0.029722566 0.40964192
-0.096470766 0.02971079 0.40949744
-0.096089281 0.029704878 0.40943378
-0.095716141 0.029701512 0.40940511
-0.095334277 0.029695401 0.40933859
-0.094886079 0.029668506 0.4089855
-0.094516404 0.029666049 0.40896922
-0.094078884 0.029642196 0.40865797
-0.093756303 0.029654518 0.40884534
-0.093345813 0.029639017 0.40864909
-0.092966869 0.029633457 0.40858981
-0.092577815 0.029624617 0.40848523
-0.092190765 0.029616348 0.40838856
-0.091785192 0.029602047 0.40820855
-0.091417685 0.029599955 0.4081969
-0.090967849 0.029571079 0.40781581
-0.090600342 0.029568851 0.40780216
-0.090201691 0.029556395 0.4076474
-0.089795709 0.029541429 0.40745795
-0.089416355 0.029535137 0.40738809
-0.089029349 0.02952626 0.40728247
-0.088694394 0.029534644 0.40741491
-0.088274464 0.029514682 0.40715632
-0.087886535 0.029505301 0.40704358
-0.087527096 0.029505448 0.40706229
-0.087120645 0.029489681 0.40686134
-0.086702786 0.029469909 0.40660506
-0.08634311 0.029469827 0.40662041
-0.085948288 0.029457701 0.40646952
-0.085578784 0.029454187 0.40643737
-0.085141219 0.02942712 0.40608019
-0.084777407 0.029425424 0.40607303
-0.084416568 0.029424753 0.40607992
-0.084015861 0.029410115 0.40589407
-0.083640881 0.029404398 0.40583125
-0.08327172 0.029400688 0.40579605
-0.082919776 0.029403049 0.40584463
-0.082556739 0.029401481 0.40583891
-0.082203381 0.029403364 0.40588075
-0.081844643 0.029403325 0.40589604
-0.081489563 0.029404612 0.40592954
-0.08114361 0.029409217 0.40600878
-0.080800928 0.029415051 0.40610501
-0.08044862 0.029417424 0.40615335
-0.11616977 0.030585462 0.41552559
-0.11575674 0.0305737 0.41538569
-0.11536275 0.03056691 0.41531333
-0.11496909 0.03056016 0.41524148
-0.11452424 0.030539714 0.41498348
-0.11412597 0.0305316 0.41489306
-0.11377098 0.03053505 0.41495973
-0.11335294 0.030521546 0.41479591
-0.11294895 0.030511754 0.41468251
-0.11253519 0.030499244 0.41453212
-0.11210851 0.030483142 0.41433287
-0.11169048 0.030469289 0.41416419
-0.1112816 0.030457856 0.41402826
-0.11087483 0.030446922 0.41389915
-0.11049532 0.030443432 0.41387111
-0.11007351 0.030428225 0.41368374
-0.10970664 0.030428151 0.41370216
-0.10928302 0.030412285 0.41350573
-0.10889485 0.030406209 0.41344237
-0.10851012 0.030401058 0.41339162
-0.10811093 0.030391809 0.41328505
-0.10770456 0.030380474 0.41315004
-0.1072412 0.030352924 0.41279453
-0.10686138 0.030348919 0.4127591
-0.10647769 0.03034378 0.41270822
-0.1060928 0.030338267 0.41265222
-0.10568323 0.030325625 0.41249922
-0.10528757 0.030316906 0.4123995
-0.10487887 0.030304359 0.41224772
-0.10448584 0.030296268 0.41215643
-0.10406537 0.030280139 0.41195577
-0.10367506 0.0302727 0.41187325
-0.10326692 0.030259984 0.41171893
-0.10287182 0.030251013 0.41161552
-0.10246234 0.030237738 0.41145343
-0.10208202 0.030233003 0.41140753
-0.10167736 0.030220995 0.41126263
-0.10127164 0.030208591 0.41111228
-0.10087392 0.03019849 0.41099316
-0.10046916 0.030186201 0.41084424
-0.10007223 0.030176185 0.41072622
-0.099667013 0.030163588 0.41057301
-0.099330485 0.030171759 0.41070247
-0.09889064 0.030148497 0.41040397
-0.098541185 0.030152723 0.41047955
-0.098125711 0.030136701 0.41027951
-0.097747318 0.030131996 0.41023347
-0.097306073 0.030107804 0.40992206
-0.096921451 0.030101018 0.40984756
-0.09654215 0.030095842 0.40979496
-0.096117347 0.03007639 0.40954787
-0.095751546 0.030075317 0.40955105
-0.095343448 0.030060902 0.40937245
-0.094940513 0.030048016 0.40921459
-0.094578087 0.030047899 0.40923062
-0.094196044 0.030041527 0.40916136
-0.093782499 0.030025015 0.40895396
-0.093379088 0.030011637 0.40878922
-0.093009025 0.030008914 0.40876949
-0.092639744 0.030006424 0.40875292
-0.092247561 0.029996464 0.40863454
-0.091842167 0.029982116 0.40845636
-0.09144301 0.0299697 0.40830436
-0.091027759 0.029951887 0.40807882
-0.090624943 0.029938046 0.40790728
-0.09025304 0.029934341 0.40787384
-0.089868158 0.029926287 0.40778106
-0.089485563 0.029918933 0.40769783
-0.089071609 0.029900996 0.4074702
-0.088738158 0.029910045 0.40761033
-0.088316083 0.029889172 0.40734261
-0.087926656 0.029879225 0.40722376
-0.087529197 0.029866457 0.40706638
-0.087129682 0.029852878 0.40689793
-0.086754359 0.02984751 0.40684125
-0.086371005 0.029839326 0.40674612
-0.085974611 0.029826542 0.40658832
-0.085604839 0.029822931 0.40655544
-0.085212998 0.02981157 0.40641689
-0.084842116 0.029807482 0.40637735
-0.084426597 0.029787598 0.40612251
-0.084033981 0.029775666 0.40597591
-0.083663397 0.029771473 0.40593481
-0.083280973 0.029763011 0.40583548
-0.082914382 0.029760158 0.40581253
-0.082560673 0.029761925 0.40585253
-0.082204163 0.029762693 0.40587884
-0.081840895 0.029761016 0.40587178
-0.081482209 0.02976099 0.40588719
-0.081116535 0.029758403 0.40586761
-0.080762394 0.029760046 0.40590563
-0.080427945 0.02976899 0.4060432
-0.080097452 0.029779484 0.40620187
-0.11663661 0.030980557 0.41585103
-0.11627345 0.030982053 0.41589111
-0.11580202 0.030954629 0.41554287
-0.115407 0.030947518 0.41546732
-0.11502936 0.030945035 0.41545382
-0.11457184 0.030920977 0.4151507
-0.11420273 0.030920701 0.41516677
-0.11377381 0.030904181 0.41496474
-0.11334582 0.030887805 0.41476452
-0.11299661 0.030892856 0.41485208
-0.11256003 0.030873986 0.41461828
-0.11220197 0.030876594 0.41467291
-0.11180037 0.030867195 0.41456625
-0.11132287 0.030836718 0.41417646
-0.11098205 0.03084402 0.414294
-0.11053439 0.03082158 0.41401204
-0.11015258 0.030817416 0.41397554
-0.1097468 0.030806489 0.4138481
-0.10936418 0.030802023 0.41380742
-0.10892924 0.030782737 0.4135676
-0.10852657 0.03077247 0.4134489
-0.10816091 0.030772664 0.41347072
-0.10769649 0.030744663 0.41311362
-0.10735588 0.030751942 0.41323054
-0.10690094 0.030726405 0.41290644
-0.1064968 0.030715343 0.41277683
-0.10610534 0.030707877 0.41269544
-0.10570838 0.030698761 0.41259187
-0.10529679 0.030685328 0.4124302
-0.10492211 0.030682588 0.41241223
-0.10453038 0.030674823 0.41232666
-0.1041147 0.030659949 0.4121455
-0.10377717 0.030668072 0.41227344
-0.10331824 0.030640252 0.4119181
-0.10291088 0.030627575 0.41176626
-0.10249928 0.030613547 0.41159624
-0.10215278 0.03061893 0.41168717
-0.10175569 0.030609133 0.41157395
-0.10132423 0.030588893 0.41132021
-0.10095529 0.030587448 0.41131917
-0.10053884 0.030571543 0.41112366
-0.10012597 0.030556617 0.41094121
-0.099708654 0.030540224 0.41073897
-0.099349119 0.030541472 0.41077396
-0.098917298 0.030520424 0.41050899
-0.098546416 0.030518096 0.41049579
-0.098173395 0.030515084 0.41047332
-0.097776197 0.030504508 0.4103491
-0.097346231 0.03048359 0.41008562
-0.097012416 0.030492738 0.41022661
-0.096591353 0.030474432 0.40999818
-0.096183486 0.030460164 0.40982404
-0.095797248 0.030452665 0.4097409
-0.095361091 0.030429183 0.40944263
-0.09499339 0.030427445 0.40943688
-0.094602808 0.030418336 0.40933195
-0.094223835 0.030412905 0.4092764
-0.09381967 0.030399272 0.40911046
-0.093421437 0.030387467 0.40896896
-0.093071841 0.030391444 0.40903991
-0.092640132 0.030368537 0.40874895
-0.092269279 0.030365484 0.40872514
-0.091859303 0.030349476 0.40852693
-0.091509059 0.030353151 0.4085936
-0.091074333 0.03032873 0.40828195
-0.090709798 0.030327579 0.40828353
-0.090307161 0.03031363 0.40811276
-0.0899131 0.030302458 0.40797931
-0.089535646 0.030296812 0.40792027
-0.089128539 0.030281056 0.40772495
-0.088748358 0.03027435 0.40765148
-0.088373043 0.030269258 0.40759963
-0.087955996 0.030249769 0.40735391
-0.087588593 0.030247273 0.40733692
-0.087172091 0.030227721 0.40709022
-0.086776778 0.030215394 0.40694067
-0.086401574 0.030209988 0.40688437
-0.086000554 0.030195478 0.40670535
-0.085657634 0.030201329 0.40680048
-0.085228212 0.030176599 0.40648371
-0.084863 0.030174496 0.40647161
-0.084495604 0.030171592 0.40644869
-0.084091716 0.03015558 0.40624911
-0.083682828 0.030137628 0.40602335
-0.083312087 0.03013332 0.40598133
-0.082939588 0.030128337 0.40593013
-0.082563452 0.03012198 0.40586042
-0.082185134 0.030114777 0.40577915
-0.081833571 0.030117352 0.40582964
-0.081482723 0.030120218 0.405884
-0.081122234 0.030119525 0.40589038
-0.080749922 0.030114416 0.40583715
-0.080403835 0.030119088 0.40591568
-0.080058023 0.030123902 0.40599611
-0.079727218 0.030134441 0.40615359
-0.11708443 0.031371005 0.41610643
-0.11668683 0.031363331 0.41602468
-0.11624981 0.031344984 0.41580126
-0.11586174 0.031339753 0.41575184
-0.11546605 0.031332426 0.41567451
-0.11504675 0.031318624 0.41551125
-0.11465393 0.031311966 0.41544276
-0.1142372 0.031298708 0.41528669
-0.11384735 0.031292759 0.41522747
-0.11343718 0.03128117 0.41509345
-0.11304639 0.031274866 0.41502947
-0.11259387 0.031251382 0.41473746
-0.11226638 0.031262569 0.41490552
-0.1118101 0.031237848 0.41459697
-0.1114205 0.031231647 0.41453421
-0.11104595 0.031229643 0.41452709
-0.11058626 0.031203602 0.41420087
-0.11018543 0.031194054 0.41409352
-0.10980007 0.031188831 0.41404358
-0.1094002 0.031179437 0.41393819
-0.10895946 0.0311583 0.41367683
-0.10859755 0.031159637 0.41371384
-0.1081793 0.031144761 0.41353551
-0.10780533 0.031142578 0.41352567
-0.10736804 0.031122023 0.41327181
-0.10698611 0.031117428 0.41322988
-0.10656126 0.031100277 0.41302115
-0.10619099 0.031098997 0.41302311
-0.10575932 0.031079661 0.41278526
-0.10539968 0.031081431 0.41282767
-0.10494458 0.031054964 0.41249496
-0.10455941 0.031049084 0.41243568
-0.10417605 0.031043695 0.41238284
-0.10376657 0.031030463 0.41222578
-0.1034027 0.031030824 0.41224924
-0.10300472 0.031020913 0.4121362
-0.10254931 0.030993573 0.41179156
-0.10218921 0.030994955 0.41182843
-0.10177434 0.030979667 0.4116438
-0.10138196 0.030971143 0.41154894
-0.10097776 0.030958928 0.41140506
-0.10060105 0.030955095 0.41137242
-0.10018318 0.030938519 0.41117042
-0.099826545 0.030940801 0.411219
-0.099419504 0.030927416 0.41105932
-0.098979071 0.030903511 0.41075978
-0.098582171 0.030893072 0.41063911
-0.098190226 0.030884109 0.41053802
-0.097794719 0.030873965 0.41042113
-0.097416252 0.030869141 0.41037497
-0.097043656 0.030866144 0.41035306
-0.096626073 0.030848769 0.41013992
-0.096213087 0.030832736 0.4099445
-0.095852271 0.030833358 0.40997058
-0.09546373 0.030825034 0.4098776
-0.095049657 0.030808374 0.40967372
-0.094647735 0.030795541 0.40952063
-0.094282933 0.030794729 0.40952742
-0.093858309 0.030774299 0.40927324
-0.093491562 0.030772764 0.40927023
-0.09311796 0.03076895 0.40923691
-0.092689492 0.030746907 0.40896106
-0.092290297 0.030734437 0.40881249
-0.091892578 0.030722367 0.40866917
-0.091508761 0.03071486 0.40858656
-0.091130994 0.030709341 0.40853024
-0.090754747 0.03070429 0.40848011
-0.090354957 0.030691205 0.40832302
-0.089972675 0.030683981 0.40824389
-0.089580573 0.03067334 0.40811923
-0.089196727 0.03066545 0.40803111
-0.088797569 0.030652206 0.40787172
-0.088394865 0.030637635 0.40769455
-0.088020056 0.030632647 0.40764487
-0.087649837 0.030629219 0.4076159
-0.087267511 0.030621517 0.40753004
-0.084546596 0.030549666 0.40668818
-0.084117547 0.030524408 0.40636808
-0.083726458 0.030512773 0.40622923
-0.08335989 0.030510006 0.4062084
-0.082973421 0.030499907 0.4060899
-0.082588829 0.030490408 0.40597934
-0.082220428 0.030486833 0.4059476
-0.081838407 0.030478153 0.40584782
-0.081463344 0.030471999 0.4057816
-0.081110992 0.030474326 0.40582824
-0.080750607 0.030473644 0.40583473
-0.080398858 0.030476226 0.40588471
-0.080039345 0.030475875 0.40589556
-0.079702578 0.030484218 0.40602216
-0.079373695 0.030495675 0.40619016
-0.1175466 0.031765696 0.41641089
-0.1171127 0.031748198 0.41620153
-0.1167476 0.031749293 0.41623589
-0.11631325 0.031731509 0.41602272
-0.11590581 0.031720974 0.41590452
-0.11551557 0.031715091 0.41584733
-0.11514099 0.031713489 0.4158462
-0.11473368 0.031702831 0.41572624
-0.11429989 0.031684764 0.41550916
-0.11387265 0.031668406 0.41531438
-0.11348053 0.031661734 0.41524658
-0.11309978 0.031658206 0.41521996
-0.1126724 0.031641562 0.4150213
-0.11225832 0.031628549 0.41487023
-0.11183415 0.031612605 0.41468063
-0.11144485 0.031606443 0.41461933
-0.11105481 0.031600028 0.41455469
-0.11066085 0.031592458 0.41447476
-0.11023028 0.031574346 0.41425657
-0.10989217 0.031582687 0.41438532
-0.10942288 0.031553254 0.41401851
-0.10908597 0.031561926 0.41415158
-0.10864224 0.031539649 0.41387847
-0.10819888 0.031517331 0.4136048
-0.10784604 0.031521317 0.41367623
-0.10743136 0.03150719 0.41350994
-0.10702151 0.03149439 0.41336101
-0.1066433 0.031490847 0.41333356
-0.10623816 0.031479299 0.41320097
-0.10582652 0.031465739 0.41304192
-0.10542361 0.03145469 0.41291577
-0.10497714 0.031430524 0.41261733
-0.10462056 0.031433191 0.41267121
-0.10421236 0.031420317 0.41252095
-0.10381402 0.031410336 0.41240859
-0.10344107 0.031407997 0.41239655
-0.10303283 0.031394888 0.41224301
-0.10264877 0.031389073 0.41218531
-0.10224176 0.031376183 0.41203451
-0.10181544 0.031357247 0.41180435
-0.1014433 0.031354927 0.41179228
-0.10099632 0.031329371 0.41147503
-0.10064463 0.031333297 0.41154495
-0.10025171 0.031324368 0.41144598
-0.099846505 0.031311523 0.4112955
-0.099439666 0.031298071 0.41113698
-0.099056661 0.031292055 0.41107607
-0.098680273 0.031288084 0.41104203
-0.098214604 0.031255674 0.41063428
-0.097828783 0.031248523 0.41055837
-0.097436219 0.031239165 0.41045338
-0.097049199 0.031231521 0.41037083
-0.096665874 0.031225009 0.41030309
-0.096262597 0.03121198 0.41014969
-0.095910661 0.031215563 0.41021454
-0.095495455 0.031198503 0.41000804
-0.095099203 0.031187532 0.40988153
-0.094674729 0.031167185 0.40963167
-0.094308913 0.031166064 0.40963453
-0.093919761 0.031157194 0.40953544
-0.093521625 0.031145263 0.40939605
-0.093132518 0.031136261 0.40929511
-0.092746153 0.031128105 0.40920526
-0.092364103 0.031121345 0.40913367
-0.091974862 0.031112097 0.4090293
-0.091579311 0.031100633 0.40889576
-0.091153659 0.031078814 0.40862605
-0.090764575 0.031069336 0.40851852
-0.090426438 0.031077299 0.40864024
-0.090003498 0.03105606 0.40837789
-0.089639485 0.031055069 0.40838182
-0.089280277 0.031055737 0.40840748
-0.088877887 0.031041328 0.4082348
-0.088482298 0.031029195 0.40809199
-0.08807563 0.031013055 0.4078964
-0.087705806 0.03100981 0.40787035
-0.087366655 0.03101743 0.40798718
-0.083793521 0.030896926 0.40654868
-0.083383314 0.03087808 0.4063167
-0.082996517 0.03086778 0.40619707
-0.082608245 0.030856831 0.40606892
-0.082242727 0.030854326 0.40605178
-0.081883162 0.030854041 0.40606385
-0.081477664 0.030836368 0.40584698
-0.081103466 0.030830445 0.4057847
-0.080748841 0.030831937 0.40581992
-0.080401748 0.030836334 0.40589339
-0.080040865 0.030835459 0.40589735
-0.079686299 0.030837022 0.40593335
-0.07933706 0.030840663 0.40599671
-0.078977793 0.030840425 0.4060089
-0.078652203 0.030853402 0.40619504
-0.11800796 0.032160595 0.41671029
-0.11761376 0.032153875 0.41664335
-0.11720897 0.032144215 0.41653821
-0.11684657 0.032146152 0.4165833
-0.11637976 0.032119289 0.41625512
-0.11594538 0.032101229 0.41604105
-0.11556907 0.032099184 0.41603443
-0.11516095 0.032088269 0.41591278
-0.11476018 0.032079328 0.41581675
-0.114345 0.032066297 0.41566759
-0.11399544 0.032071639 0.41575664
-0.11354419 0.032048319 0.415474
-0.11319045 0.032052454 0.41554731
-0.11271013 0.032020655 0.4151547
-0.11232956 0.032017082 0.41512799
-0.11191113 0.032002658 0.4149605
-0.11149652 0.031989235 0.41480598
-0.11110304 0.031981807 0.41472915
-0.11072116 0.03197768 0.41469502
-0.11031807 0.031967375 0.41458085
-0.10992253 0.031959206 0.41449425
-0.10947898 0.031936973 0.41422519
-0.10909228 0.031931225 0.41416991
-0.10868146 0.031918358 0.41402227
-0.10832901 0.031922609 0.41409659
-0.10791262 0.031907979 0.41392601
-0.10748001 0.031888437 0.41369155
-0.10707176 0.03187602 0.41354951
-0.10665978 0.031862393 0.41339177
-0.10628448 0.031859674 0.41337547
-0.10587653 0.031847116 0.41323143
-0.10548268 0.031838723 0.41314146
-0.10507569 0.031826295 0.41299903
-0.10466232 0.031811841 0.41283026
-0.10425112 0.031797945 0.4126687
-0.10386509 0.031791665 0.41260585
-0.10346378 0.031780634 0.4124814
-0.10307711 0.031774044 0.41241449
-0.10265061 0.03175509 0.41218701
-0.10229354 0.031757548 0.41223744
-0.10186751 0.031738546 0.41200924
-0.10146465 0.031726643 0.41187322
-0.10105924 0.031713858 0.41172561
-0.1006879 0.031711716 0.41171616
-0.10028735 0.031700324 0.41158649
-0.099859864 0.031680301 0.4113448
-0.099500582 0.031681847 0.41138309
-0.099098071 0.031669594 0.41124213
-0.098715782 0.031663742 0.41118416
-0.098305158 0.031648714 0.41100711
-0.097918689 0.031641383 0.41092989
-0.097453989 0.031608626 0.4105224
-0.097066134 0.031600639 0.41043657
-0.096717604 0.031605449 0.41051689
-0.096322604 0.031595044 0.41039956
-0.095936783 0.03158759 0.41032046
-0.095566988 0.031585369 0.41030934
-0.095135115 0.031562544 0.41003048
-0.09473592 0.031550426 0.40989062
-0.094384134 0.031554058 0.40995541
-0.093936391 0.031525519 0.40960211
-0.093584441 0.031529035 0.40966523
-0.093169518 0.031511273 0.40945187
-0.092769302 0.031498376 0.40930158
-0.092411034 0.031499669 0.40933567
-0.092015631 0.03148827 0.40920475
-0.091621727 0.031477291 0.40907928
-0.091224924 0.031465229 0.40893963
-0.090808526 0.031446282 0.40871048
-0.090409622 0.031433269 0.40855837
-0.090033129 0.031427972 0.40850651
-0.089655288 0.031422164 0.40844792
-0.089289911 0.031420689 0.40844563
-0.088884965 0.031405229 0.40826142
-0.088558763 0.031417578 0.40843868
-0.088148184 0.031399969 0.40822649
-0.087817103 0.031410649 0.40838203
-0.083434351 0.031256698 0.40655941
-0.083007574 0.031231312 0.40624517
-0.082655556 0.031233959 0.40629548
-0.082275905 0.031226136 0.40620956
-0.081913508 0.031224826 0.40620834
-0.081523843 0.031213066 0.40607104
-0.081124015 0.031197293 0.40588149
-0.080742888 0.0311886 0.40578404
-0.080390416 0.031190952 0.40583017
-0.08003287 0.031191347 0.4058508
-0.079688147 0.031196764 0.40593675
-0.07933075 0.031197246 0.40595841
-0.078984231 0.031202031 0.40603602
-0.078630596 0.031204041 0.40607741
-0.078286737 0.031209959 0.40616968
-0.11849335 0.032562517 0.41709217
-0.11811954 0.032561462 0.41709882
-0.11766461 0.032537971 0.41681796
-0.11727125 0.032531414 0.41675401
-0.11686385 0.032520905 0.41663936
-0.11648098 0.032517176 0.41661161
-0.11602861 0.032493968 0.41633418
-0.11564082 0.032488748 0.41628718
-0.11519797 0.03246798 0.41604093
-0.11480709 0.03246177 0.41598117
-0.11446715 0.032469969 0.41610608
-0.11399588 0.032440852 0.41575265
-0.11359535 0.032431744 0.41565561
-0.1132129 0.032427751 0.41562411
-0.11277823 0.032408725 0.41539994
-0.11240916 0.032408495 0.41541654
-0.11195059 0.032382369 0.41510123
-0.11157449 0.032380003 0.41509044
-0.11117984 0.032372221 0.41501018
-0.11077141 0.032360367 0.41487759
-0.11038156 0.032353878 0.41481385
-0.1099676 0.032340255 0.41465849
-0.10955788 0.032327797 0.41451806
-0.10918216 0.032325312 0.41450551
-0.10872386 0.032298282 0.41417816
-0.10835315 0.032297175 0.41418317
-0.10795509 0.032287892 0.41408321
-0.10754769 0.032275729 0.41394639
-0.10713945 0.032263238 0.41380522
-0.10673419 0.032251563 0.4136745
-0.10632268 0.032237906 0.41351831
-0.10594578 0.032234691 0.41349599
-0.10552923 0.032219347 0.41331804
-0.1051306 0.032209385 0.41320911
-0.10475326 0.032205902 0.41318318
-0.10431104 0.032182373 0.41290012
-0.10390034 0.032168444 0.41274011
-0.1034907 0.032154743 0.41258293
-0.10312583 0.032154903 0.41260365
-0.10271383 0.032140318 0.41243505
-0.10233068 0.032134693 0.41238138
-0.10194891 0.032129452 0.41233265
-0.10149565 0.032101575 0.41199329
-0.10111283 0.03209585 0.41193816
-0.10071988 0.032086857 0.41184109
-0.10029861 0.032068741 0.41162691
-0.099952161 0.032074507 0.41171917
-0.099525951 0.032054625 0.41148216
-0.099131301 0.032044806 0.41137421
-0.098754078 0.032040566 0.41133785
-0.098369166 0.032033782 0.41126886
-0.097980402 0.032025695 0.41118306
-0.097567074 0.03200949 0.41099295
-0.097155958 0.031993896 0.41081059
-0.09677501 0.031988151 0.41075468
-0.096344583 0.031965945 0.41048732
-0.095984705 0.03196707 0.41051954
-0.095601715 0.03196048 0.4104526
-0.095200144 0.031947598 0.41030484
-0.094791688 0.031932306 0.410126
-0.094395801 0.031921141 0.41000015
-0.094030872 0.031920403 0.41000816
-0.09360005 0.031897202 0.40972763
-0.093216747 0.031890079 0.40965351
-0.092822209 0.031879045 0.40952909
-0.092455983 0.031877682 0.40952888
-0.092053846 0.031863876 0.40936875
-0.091692425 0.031864114 0.40938902
-0.091267765 0.031842288 0.40912572
-0.090868302 0.031829119 0.40897357
-0.090463884 0.031814098 0.40879762
-0.090066172 0.031801328 0.40865046
-0.089686066 0.031794693 0.40858215
-0.089319691 0.031792898 0.40857589
-0.088911951 0.031776302 0.40837944
-0.088586576 0.031789124 0.40856099
-0.088236496 0.031793159 0.40862951
-0.082293868 0.031592403 0.40629223
-0.081921272 0.031587176 0.40624079
-0.081562042 0.031587075 0.40625525
-0.081154227 0.03156808 0.4060266
-0.080772273 0.031559017 0.40592563
-0.080415323 0.031559691 0.40594983
-0.080045804 0.031555414 0.40591034
-0.07968045 0.031552751 0.40589148
-0.079336472 0.031558558 0.4059816
-0.078978762 0.031558938 0.40600181
-0.078619763 0.031558808 0.40601537
-0.078265794 0.031560697 0.40605491
-0.077924713 0.031567827 0.40616184
-0.077595837 0.031579994 0.40633351
-0.11892643 0.032950468 0.41728789
-0.11862027 0.03296826 0.41753337
-0.11811309 0.032930125 0.41707048
-0.11773872 0.032928895 0.41707492
-0.11732708 0.032917198 0.4169468
-0.11689742 0.032900352 0.41675347
-0.11656368 0.032910485 0.4169018
-0.11611228 0.032887351 0.41662872
-0.11570262 0.032875944 0.41650403
-0.11524553 0.032850932 0.41620705
-0.11486325 0.032847155 0.416179
-0.11448495 0.032844499 0.41616511
-0.11405597 0.032827236 0.41596615
-0.11362782 0.032810099 0.41576874
-0.11326609 0.0328121 0.41581371
-0.11287118 0.032804467 0.41573665
-0.11245374 0.032790214 0.41557562
-0.1119929 0.032763172 0.41525242
-0.1115796 0.032749902 0.41510373
-0.11122154 0.032752812 0.41516012
-0.11080404 0.032738183 0.41499412
-0.11042079 0.032733604 0.4149555
-0.1100509 0.032732978 0.41496691
-0.1096309 0.032717384 0.41478854
-0.1092107 0.032701634 0.41460812
-0.10878078 0.032682851 0.41438919
-0.10838589 0.032674503 0.41430256
-0.10800132 0.032669228 0.41425475
-0.10759373 0.032656919 0.41411784
-0.10718427 0.032643963 0.41397256
-0.1068008 0.032638859 0.41392687
-0.1063984 0.03262791 0.41380703
-0.10593959 0.032599535 0.41346604
-0.10558061 0.032601781 0.41351345
-0.1051702 0.032588113 0.41335893
-0.10477217 0.0325782 0.413252
-0.10436977 0.032566853 0.41312677
-0.10397465 0.032557704 0.41302946
-0.10355542 0.032540917 0.41283515
-0.103139 0.032524895 0.4126505
-0.10277456 0.032525212 0.41267306
-0.10235833 0.032509081 0.41248697
-0.10197964 0.032504804 0.41245112
-0.1015548 0.032485727 0.41222748
-0.10118908 0.032485493 0.41224295
-0.10082179 0.032484759 0.41225195
-0.10039371 0.032464355 0.41201133
-0.09995836 0.032441448 0.41173881
-0.099578671 0.032436505 0.41169426
-0.099215433 0.032436896 0.41171744
-0.098771863 0.032410938 0.41140604
-0.098417304 0.032414101 0.41146424
-0.097977243 0.032389026 0.41116387
-0.097603343 0.032385714 0.41113979
-0.097188562 0.032368764 0.41094249
-0.09679798 0.032359775 0.41084626
-0.096394554 0.032346409 0.41069433
-0.096037112 0.032348432 0.41073772
-0.095640525 0.032337233 0.41061327
-0.095240682 0.032324839 0.41047361
-0.094842575 0.032312956 0.41034022
-0.094425656 0.032294538 0.41012391
-0.094057441 0.032292701 0.41011807
-0.093670107 0.03228426 0.41002831
-0.093238041 0.032260276 0.4097411
-0.092873879 0.032259692 0.40975103
-0.09248051 0.032248922 0.40963146
-0.092084996 0.032237317 0.40950128
-0.091730312 0.032239962 0.40955216
-0.091307364 0.032218553 0.40929723
-0.090937056 0.032215614 0.40927702
-0.090516791 0.03219489 0.40903071
-0.090133034 0.032187026 0.40894783
-0.089747734 0.032178551 0.40885705
-0.08937674 0.032175165 0.40883085
-0.088993512 0.032167319 0.40874803
-0.088616252 0.032161579 0.40869179
-0.088375419 0.032205515 0.40926677
-0.081945792 0.031956129 0.4063563
-0.08160165 0.031961977 0.4064464
-0.081207491 0.031948209 0.40628695
-0.08081948 0.031936746 0.40615681
-0.080437101 0.031927414 0.40605369
-0.080060124 0.031920154 0.4059768
-0.079688892 0.031915125 0.40592828
-0.079328716 0.031914502 0.40593573
-0.078980722 0.031918798 0.40600571
-0.078622252 0.031918883 0.40602207
-0.078266747 0.031920176 0.40605372
-0.077911906 0.031921752 0.40608889
-0.07756108 0.031924997 0.4061453
-0.077231906 0.031937227 0.40631592
-0.11900492 0.033343133 0.41755766
-0.11863791 0.033344094 0.41758984
-0.118255 0.033340573 0.41756591
-0.11775899 0.033305053 0.41714108
-0.11736275 0.033297606 0.41706792
-0.11695769 0.033287615 0.41696268
-0.1165357 0.033272717 0.41679606
-0.11618159 0.033277173 0.41687176
-0.11576967 0.033265043 0.4167397
-0.11535022 0.033250663 0.41657946
-0.11495524 0.033243269 0.41650662
-0.11454698 0.03323197 0.41638488
-0.11411148 0.033212677 0.41616288
-0.11370518 0.033201784 0.41604608
-0.11330146 0.033191573 0.41593784
-0.11287837 0.03317561 0.41575739
-0.11251766 0.033177927 0.41580606
-0.11213585 0.033174027 0.4157767
-0.11165512 0.03314073 0.41537893
-0.11126588 0.033134464 0.41531986
-0.11085347 0.033121239 0.4151735
-0.1104372 0.033106763 0.41501141
-0.11008295 0.033110838 0.41508195
-0.10964862 0.033090781 0.41484979
-0.10924517 0.033079941 0.41473311
-0.1088519 0.033072125 0.41465434
-0.10843585 0.033057306 0.41448769
-0.10807578 0.033059508 0.41453451
-0.10763001 0.033035424 0.41425163
-0.10722363 0.033023309 0.41411874
-0.10682579 0.033013746 0.41401786
-0.10642578 0.033003446 0.41390765
-0.10602327 0.032992303 0.41378683
-0.1056399 0.032987058 0.41373989
-0.10523045 0.032973591 0.41358989
-0.10484601 0.032967906 0.41353735
-0.10440034 0.032942858 0.41324192
-0.1039961 0.03293075 0.41310877
-0.10362177 0.032928072 0.41309375
-0.10321487 0.032914981 0.41294816
-0.10281616 0.032904416 0.41283423
-0.10242043 0.032894738 0.41273129
-0.10201487 0.032881819 0.41258767
-0.10159634 0.032864612 0.41239023
-0.10121954 0.03286083 0.41236115
-0.10083876 0.032855723 0.4123154
-0.10042457 0.032839652 0.41213202
-0.10003084 0.032830186 0.41203141
-0.0996226 0.032815862 0.41186988
-0.099232554 0.032807458 0.4117825
-0.098861359 0.032805242 0.41177279
-0.09846846 0.032795779 0.41167212
-0.098047629 0.032776918 0.41145328
-0.097636707 0.032761231 0.41127431
-0.097258046 0.032756299 0.41123033
-0.096860863 0.032745063 0.41110712
-0.096461236 0.032732923 0.41097245
-0.09604799 0.032716043 0.41077828
-0.095671207 0.032711502 0.41073897
-0.095277198 0.032701015 0.41062498
-0.094901323 0.032696702 0.41058838
