# .PCD v0.7 - Point Cloud Data file format
VERSION 0.7
FIELDS x y z
SIZE 4 4 4
TYPE F F F
COUNT 1 1 1
WIDTH 1380
HEIGHT 1
VIEWPOINT 0 0 0 1 0 0 0
POINTS 1380
DATA ascii
0.1401248 -0.026602145 0.46657228
0.14050205 -0.026595015 0.46642303
0.14085305 -0.026582967 0.4661876
0.14127049 -0.026583502 0.46617272
0.14161424 -0.026570199 0.46591529
0.14204071 -0.026572453 0.46593052
0.14246678 -0.026574614 0.46594414
0.14282502 -0.026564149 0.46573645
0.14322096 -0.026560735 0.46565229
0.14353937 -0.026543006 0.46531716
0.14395133 -0.026542628 0.46528623
0.1443658 -0.026542712 0.46526337
0.14475024 -0.026537292 0.46514401
0.14517619 -0.026539488 0.46515813
0.14551979 -0.026526662 0.46490893
0.14594938 -0.026529534 0.46493492
0.14634813 -0.026526807 0.46486273
0.14671619 -0.026518546 0.46469352
0.14710595 -0.02651424 0.46459362
0.1474593 -0.026503416 0.46437955
0.14786057 -0.02650124 0.46431699
0.14822458 -0.026492417 0.46413794
0.14864345 -0.026493419 0.46413106
0.14902289 -0.02648741 0.46400127
0.14942588 -0.026485603 0.46394515
0.14986421 -0.026490059 0.46399868
0.15029241 -0.026492698 0.46402043
0.15076604 -0.026503317 0.46418184
0.15115221 -0.026498538 0.46407357
0.1515705 -0.0264994 0.46406415
0.16911265 -0.026270485 0.45893171
0.1695141 -0.026269183 0.45888463
0.16988745 -0.026263544 0.45876184
0.17025375 -0.026256848 0.45862055
0.17056774 -0.026242126 0.45833921
0.17088339 -0.026227739 0.45806369
0.17126569 -0.026223622 0.45796755
0.17160223 -0.026212538 0.45774981
0.17197171 -0.026206523 0.45762059
0.17230222 -0.02619461 0.45738846
0.17274152 -0.026199255 0.45744544
0.17311829 -0.026194418 0.45733687
0.17345138 -0.026183007 0.45711359
0.17381303 -0.026175955 0.4569664
0.17427142 -0.026183467 0.45707351
0.17462741 -0.026175596 0.45691207
0.17500819 -0.026171466 0.45681605
0.17545252 -0.02617684 0.45688584
0.17577122 -0.026163487 0.45662886
0.17610277 -0.026152104 0.45640624
0.17655425 -0.026158543 0.45649475
0.17693059 -0.026153846 0.45638892
0.17744389 -0.026169367 0.45663589
0.17782702 -0.026165662 0.45654747
0.17828484 -0.026172943 0.45665067
0.18422243 -0.026088508 0.45480147
0.18457496 -0.026080804 0.45464396
0.18478583 -0.026053159 0.45413882
0.18520777 -0.02605533 0.45415357
0.18557225 -0.026049426 0.45402753
0.18593614 -0.026043463 0.45390055
0.18630686 -0.026038483 0.45379075
0.18670273 -0.026037032 0.45374244
0.1870804 -0.026033053 0.45365015
0.13426301 -0.026257956 0.46819887
0.13465407 -0.026253084 0.46808818
0.13506338 -0.026251795 0.4680413
0.1354703 -0.026250048 0.46798626
0.1358566 -0.026244326 0.46786031
0.13623968 -0.026238021 0.46772397
0.13661426 -0.026230121 0.46755922
0.13699228 -0.026222927 0.46740699
0.13747479 -0.026235718 0.46761096
0.13782671 -0.026223583 0.4673706
0.13818233 -0.026212225 0.46714413
0.13856521 -0.026206093 0.46701077
0.13897647 -0.026205346 0.46697336
0.13933492 -0.026194667 0.466759
0.13976295 -0.026197106 0.46677828
0.14013495 -0.026189055 0.4666107
0.14052914 -0.026185185 0.46651754
0.14092264 -0.026181206 0.4664225
0.14135788 -0.026184987 0.46646565
0.14171594 -0.026174489 0.46625438
0.14206992 -0.026163302 0.46603084
0.14246118 -0.026159024 0.46593037
0.14289023 -0.026161686 0.46595353
0.14325292 -0.026152227 0.46576071
0.14367902 -0.026154356 0.46577433
0.14403626 -0.026143979 0.4655652
0.14443772 -0.026141658 0.46549955
0.14479516 -0.026131414 0.46529275
0.14515792 -0.026122183 0.46510401
0.1455927 -0.026125927 0.4651463
0.14597668 -0.026120562 0.46502635
0.14637324 -0.02611747 0.4649469
0.14673819 -0.026108768 0.46476758
0.14717124 -0.026112203 0.46480423
0.14754078 -0.026104374 0.46464047
0.14783753 -0.026083756 0.46424901
0.14830412 -0.026093127 0.46439132
0.1486585 -0.026082758 0.46418235
0.1490667 -0.026081866 0.46414196
0.14945857 -0.026078131 0.46405101
0.14989771 -0.026082639 0.46410668
0.15030773 -0.026082071 0.46407205
0.15071861 -0.026081651 0.46404004
0.15116307 -0.026087033 0.46411124
0.1515509 -0.026082637 0.46400845
0.15201719 -0.026091728 0.46414563
0.15241963 -0.026089845 0.46408755
0.16837896 -0.025873868 0.45921871
0.16880138 -0.025875758 0.45922795
0.16920032 -0.025874058 0.45917338
0.16948886 -0.025855519 0.45882004
0.16985074 -0.02584823 0.45866644
0.17017606 -0.025835428 0.45841497
0.17055717 -0.025831137 0.45831457
0.17092745 -0.025825227 0.45818546
0.17134108 -0.025825882 0.45817286
0.1716793 -0.025815194 0.45795906
0.17209114 -0.025815599 0.45794204
0.17243832 -0.025806328 0.45775342
0.17282461 -0.025802935 0.45766911
0.17317759 -0.025794597 0.45749709
0.17360267 -0.025797021 0.45751595
0.17397624 -0.025791787 0.45739904
0.17427982 -0.025776232 0.45709914
0.17468481 -0.025775706 0.45706582
0.1750415 -0.025768077 0.45690656
0.17545803 -0.025769267 0.4569037
0.17587189 -0.025770066 0.45689389
0.17616062 -0.025752565 0.45655969
0.17662834 -0.025761258 0.45668986
0.17699172 -0.025754718 0.45655009
0.17747207 -0.025765195 0.45671195
0.17787018 -0.025763713 0.45666176
0.17840281 -0.025781674 0.4569563
0.18444815 -0.025656279 0.4543348
0.18482324 -0.025651898 0.45423403
0.18531424 -0.025663588 0.45441788
0.18558207 -0.025644386 0.45405477
0.18601349 -0.025647825 0.45409259
0.18637763 -0.025641991 0.45396629
0.18673882 -0.025635781 0.45383331
0.13426799 -0.025842801 0.4682208
0.13467334 -0.02584075 0.46815979
0.13512315 -0.025847213 0.46825302
0.13549775 -0.025839293 0.46808559
0.13591033 -0.025838643 0.46804994
0.1363021 -0.025834054 0.4679428
0.13670206 -0.025831042 0.46786425
0.137064 -0.025820881 0.46765625
0.13748693 -0.025822239 0.46765679
0.13782823 -0.025808301 0.46738034
0.13819423 -0.025799058 0.46718889
0.13860814 -0.02579879 0.46715996
0.13902082 -0.025798291 0.46712679
0.13942541 -0.025796305 0.46706671
0.13979778 -0.02578838 0.46689907
0.14017154 -0.02578076 0.46673697
0.14058213 -0.02577994 0.4666979
0.14100157 -0.025780743 0.46668825
0.14135845 -0.025770133 0.46647194
0.1417425 -0.025764525 0.46634617
0.14211248 -0.025756396 0.46617484
0.14251782 -0.025754713 0.46612006
0.14290763 -0.025750237 0.46601474
0.14330731 -0.025747558 0.46594197
0.1437223 -0.025747634 0.46591902
0.14402486 -0.025727633 0.46553272
0.14450872 -0.025740037 0.46573278
0.14483696 -0.025724728 0.46543142
0.14522628 -0.025720328 0.46532741
0.1456672 -0.025725059 0.46538866
0.1460259 -0.025715284 0.4651874
0.14645414 -0.025717786 0.4652082
0.14680651 -0.025706979 0.46498826
0.14717843 -0.025699647 0.46483123
0.14761318 -0.0257033 0.46487281
0.14793666 -0.025687605 0.4645645
0.14833081 -0.025684243 0.46447918
0.14874385 -0.025684156 0.46445316
0.14914209 -0.02568152 0.46438098
0.14952818 -0.025676815 0.46427137
0.14989196 -0.025668312 0.46409312
0.15033467 -0.025673337 0.46415946
0.15071388 -0.025667522 0.46402976
0.15114771 -0.025671011 0.46406826
0.15158656 -0.02567533 0.46412179
0.15195717 -0.025668103 0.46396655
0.15240756 -0.025674354 0.46405497
0.15282051 -0.025674278 0.46402898
0.16822772 -0.025503058 0.45995444
0.16850147 -0.025482347 0.45955649
0.16875166 -0.025458187 0.4590964
0.16917822 -0.025460683 0.45911705
0.1694869 -0.025445471 0.45881841
0.16986848 -0.025441252 0.45871806
0.17028242 -0.025441885 0.45870516
0.1705769 -0.025424711 0.45837125
0.1709602 -0.025420824 0.45827693
0.17139123 -0.025424035 0.4583106
0.17175138 -0.025416743 0.45815492
0.1721071 -0.025408832 0.45798814
0.17249888 -0.025406271 0.45791778
0.17282635 -0.02539427 0.4576773
0.17318881 -0.025387455 0.45753032
0.17364588 -0.025394509 0.45763341
0.17399925 -0.025386399 0.45746312
0.17441086 -0.025386803 0.45744631
0.17476 -0.025378134 0.45726609
0.17516579 -0.025377713 0.45723447
0.17548881 -0.02536533 0.45698741
0.17584418 -0.025357667 0.45682541
0.17627089 -0.025360309 0.45684901
0.17664631 -0.02535557 0.45673975
0.17705847 -0.025356119 0.45672575
0.17754543 -0.025367349 0.45690414
0.17798686 -0.02537204 0.45696476
0.17847048 -0.025382707 0.45713302
0.17886327 -0.02538044 0.45706835
0.18436503 -0.025294062 0.45516002
0.18456213 -0.025265276 0.45461878
0.18492068 -0.025258671 0.45447671
0.1853354 -0.025259746 0.45447293
0.18575273 -0.025261175 0.45447549
0.18612021 -0.025255835 0.45435628
0.18644525 -0.025244769 0.45413417
0.18680617 -0.025238596 0.45400012
0.13473974 -0.025437191 0.46839517
0.13511923 -0.025430277 0.46824396
0.13552217 -0.025427807 0.46817455
0.13594915 -0.025429843 0.46818811
0.13633166 -0.025423583 0.46804887
0.13674952 -0.025423927 0.46803123
0.13715023 -0.025421087 0.46795493
0.1375355 -0.025415415 0.46782646
0.137897 -0.0254054 0.46761805
0.13830386 -0.025403773 0.46756402
0.13866758 -0.025394257 0.46736479
0.13908011 -0.025393706 0.46733052
0.13949084 -0.025392834 0.46729031
0.13990091 -0.025391847 0.46724799
0.14026581 -0.025382688 0.46705526
0.14058734 -0.025365762 0.4667196
0.14101313 -0.025367692 0.46673092
0.14141536 -0.025365381 0.46666414
0.14178084 -0.025356513 0.46647671
0.14213967 -0.025346512 0.46626845
0.142627 -0.025359411 0.46648148
0.14295858 -0.025344629 0.46618524
0.14338095 -0.025345976 0.46618569
0.14376006 -0.025339693 0.46604577
0.14415973 -0.025337057 0.46597296
0.14454438 -0.025331806 0.46585199
0.14494073 -0.025328632 0.46576926
0.14532517 -0.025323398 0.46564856
0.14569564 -0.025315767 0.46548384
0.14606513 -0.025308004 0.46531668
0.14648545 -0.025309075 0.46531188
0.14687017 -0.025303997 0.46519414
0.14728117 -0.02530347 0.46515998
0.14766301 -0.025297947 0.46503395
0.14800727 -0.025286036 0.46479049
0.14837289 -0.025277833 0.4646152
0.14875713 -0.025272833 0.46449882
0.14920141 -0.025278032 0.46456987
0.14957978 -0.025272069 0.46443576
0.14996167 -0.025266735 0.46431318
0.15035367 -0.025263123 0.46422225
0.15075314 -0.025260786 0.46415475
0.15116486 -0.025260508 0.46412507
0.15157811 -0.025260484 0.46410006
0.15198255 -0.025258997 0.46404815
0.15239514 -0.025258873 0.46402127
0.15282895 -0.025262253 0.46405876
0.15316299 -0.025249165 0.46379369
0.1535926 -0.025251865 0.4638187
0.16702881 -0.025097361 0.4601227
0.16749419 -0.025105547 0.46024832
0.16787381 -0.025100872 0.46013814
0.16821064 -0.025089836 0.45991141
0.16857894 -0.025083534 0.45977145
0.16887948 -0.025067206 0.4594478
0.16913322 -0.025044026 0.45899856
0.16958532 -0.025050258 0.45908847
0.16989921 -0.025036095 0.45880461
0.1702836 -0.025032366 0.45871192
0.17072792 -0.025037443 0.45878068
0.17099635 -0.02501676 0.45837742
0.17138377 -0.025013542 0.45829421
0.17177236 -0.025010511 0.45821446
0.17214972 -0.025005864 0.45810506
0.17255488 -0.025005266 0.45806995
0.17291059 -0.024997519 0.45790386
0.1732931 -0.02499368 0.45780942
0.17370218 -0.024993677 0.45778522
0.17408472 -0.024989866 0.45769131
0.1744719 -0.024986735 0.45760986
0.1748362 -0.024980351 0.4574689
0.17519031 -0.024972545 0.45730194
0.17555869 -0.024966802 0.45717278
0.17598875 -0.024969842 0.45720443
0.176332 -0.024960576 0.45701081
0.17677711 -0.024965739 0.45708138
0.17713234 -0.024958212 0.45691967
0.17753768 -0.024957763 0.45688757
0.17811981 -0.024982113 0.45730945
0.1785356 -0.024983075 0.4573032
0.18440399 -0.024891999 0.45525938
0.18454063 -0.024855524 0.45456901
0.1849319 -0.024853423 0.45450741
0.1853767 -0.024858518 0.45457736
0.18574457 -0.024853293 0.45445865
0.18617962 -0.024857057 0.45450443
0.1865897 -0.024857484 0.45448911
0.13479458 -0.025031075 0.46859023
0.13519183 -0.02502753 0.46849999
0.13560537 -0.025027012 0.46846637
0.13604608 -0.025031498 0.46852639
0.13635224 -0.025011279 0.46812394
0.1367556 -0.025008952 0.46805644
0.13712409 -0.025000283 0.46787015
0.1375699 -0.025005726 0.46794793
0.13794379 -0.024998095 0.46778107
0.13832299 -0.024991477 0.46763313
0.13869765 -0.024984069 0.46747044
0.13913865 -0.024988633 0.46753165
0.13950555 -0.024979891 0.46734393
0.13989511 -0.02497525 0.46723294
0.1403183 -0.024976624 0.46723443
0.1406709 -0.024965459 0.46700138
0.14107297 -0.024963116 0.46693328
0.14146616 -0.024959218 0.46683609
0.14189632 -0.024961846 0.46686098
0.14223865 -0.02494905 0.46659738
0.14263235 -0.024945319 0.46650329
0.14304492 -0.024944894 0.46647105
0.14345272 -0.024943642 0.46642327
0.1437881 -0.024929848 0.46614096
0.14415492 -0.024921564 0.46596169
0.14458074 -0.024923494 0.46597341
0.14496259 -0.024917863 0.46584374
0.1453321 -0.024910141 0.46567497
0.1457434 -0.024909608 0.4656406
0.14613749 -0.024906147 0.46555144
0.1465192 -0.024900598 0.46542326
0.14693595 -0.024901023 0.46540675
0.14732617 -0.024896959 0.46530628
0.14769357 -0.024889072 0.46513441
0.14809372 -0.024886733 0.46506616
0.14846082 -0.024878865 0.46489462
0.14887752 -0.024879333 0.46487886
0.14928219 -0.024877794 0.46482554
0.1496006 -0.024861924 0.46450451
0.15001746 -0.024862463 0.46449
0.15037347 -0.024852937 0.46428752
0.15081237 -0.02485713 0.46434125
0.15115598 -0.024845628 0.46410185
0.15159354 -0.024849597 0.46415141
0.15202364 -0.024852324 0.4641777
0.15239793 -0.024845937 0.46403381
0.1527891 -0.024842329 0.46394181
0.15321948 -0.024845093 0.46396881
0.15363151 -0.024844881 0.4639402
0.15400156 -0.024837893 0.46378511
0.1544231 -0.02483923 0.46378544
0.16632074 -0.024703456 0.46048945
0.16674408 -0.02470528 0.46049893
0.16711438 -0.024699254 0.46036208
0.16748822 -0.024693778 0.46023557
0.16780886 -0.024680501 0.45996368
0.16811818 -0.024665637 0.4596622
0.16847338 -0.024657553 0.45948717
0.16882409 -0.024648855 0.45930073
0.16919881 -0.024643693 0.45918018
0.16953136 -0.024632433 0.45894599
0.16995533 -0.024634475 0.45895973
0.17028944 -0.024623515 0.4587312
0.17070161 -0.024623869 0.4587135
0.17113902 -0.024627849 0.45876336
0.17150941 -0.024622194 0.45863372
0.17178322 -0.02460273 0.45824695
0.17218715 -0.024601948 0.45820817
0.17260417 -0.024603037 0.45820424
0.172988 -0.024599399 0.45811233
0.17335398 -0.024593253 0.45797369
0.17379102 -0.024597185 0.4580228
0.17411974 -0.024585806 0.45778677
0.1744906 -0.024580419 0.45766237
0.17492978 -0.024584657 0.45771718
0.17531008 -0.024580618 0.45761794
0.17566098 -0.024572486 0.45744255
0.17594849 -0.024555545 0.45710319
0.17640722 -0.024562523 0.45720908
0.17677012 -0.024556158 0.45706666
0.17712279 -0.024548402 0.45689839
0.17758501 -0.02455583 0.45701271
0.17805976 -0.024564952 0.4571586
0.1785139 -0.024571195 0.45725095
0.17898671 -0.024579974 0.45739043
0.18409923 -0.024498258 0.45553994
0.18434201 -0.024476362 0.45510951
0.18462081 -0.024459336 0.45476961
0.18501566 -0.024457723 0.45471641
0.18539576 -0.024454171 0.45462716
0.18579984 -0.024453791 0.45459697
0.18620364 -0.024453377 0.45456612
0.1352578 -0.02462313 0.46873301
0.13565241 -0.024619149 0.46863326
0.13601594 -0.024609569 0.46842697
0.13645259 -0.024613241 0.46847284
0.13682541 -0.024605405 0.46829969
0.13720869 -0.024599493 0.46816313
0.13759954 -0.024594974 0.4680531
0.13801815 -0.024595425 0.46803758
0.13839124 -0.024587786 0.46786809
0.13875109 -0.024577849 0.46765488
0.13917434 -0.024579171 0.46765587
0.13960658 -0.024582062 0.46768671
0.13994667 -0.024568759 0.46740943
0.14035322 -0.024567168 0.46735495
0.14072591 -0.024559679 0.46718824
0.14115714 -0.024562417 0.46721607
0.14152786 -0.024554646 0.46704397
0.14188151 -0.02454396 0.46681646
0.14230286 -0.024545018 0.46681225
0.14271595 -0.024544645 0.46678087
0.143123 -0.024543244 0.46672985
0.14350049 -0.024536792 0.46658283
0.14387161 -0.024529295 0.46641588
0.14426467 -0.024525568 0.4663206
0.14461645 -0.024514865 0.46609271
0.14504628 -0.024517415 0.46611682
0.14538786 -0.024505079 0.4658578
0.14579706 -0.024504174 0.4658162
0.14619967 -0.024502173 0.4657537
0.14658441 -0.024497192 0.46563455
0.14699651 -0.024496801 0.46560264
0.14738692 -0.02449281 0.46550226
0.14776172 -0.024486249 0.46535307
0.14811461 -0.024476111 0.46513587
0.14852349 -0.02447525 0.46509501
0.14885357 -0.024461446 0.46480814
0.14927998 -0.024463505 0.46482271
0.14966103 -0.024458142 0.46469626
0.15012451 -0.024466235 0.46482551
0.15045004 -0.024451869 0.46452796
0.15086059 -0.024451358 0.46449369
0.15123989 -0.0244458 0.46436352
0.15160155 -0.024437428 0.46417987
0.15204161 -0.02444171 0.46423662
0.15240748 -0.024434071 0.46406686
0.15280205 -0.024431057 0.46398506
0.15322742 -0.024432976 0.46399686
0.15363817 -0.024432557 0.46396425
0.15399818 -0.024424095 0.46377897
0.1544144 -0.024424568 0.46376327
0.15487319 -0.024431754 0.46387503
0.15523876 -0.024424234 0.46370766
0.15574713 -0.024439158 0.46396631
0.15612277 -0.024433235 0.46382916
0.16525838 -0.024317548 0.46104303
0.1656689 -0.024317408 0.46101585
0.16596967 -0.024301201 0.46068406
0.1663563 -0.024297614 0.4605915
0.16672748 -0.024291795 0.46045667
0.16709755 -0.02428584 0.46031934
0.16741958 -0.02427295 0.46005055
0.16786008 -0.024277257 0.46010768
0.16821201 -0.024268763 0.45992228
0.16853152 -0.024255648 0.45964932
0.16895767 -0.024257904 0.45966765
0.16924116 -0.024239717 0.45929867
0.16960903 -0.024233673 0.45915976
0.17003754 -0.024236303 0.45918524
0.17033693 -0.02422056 0.45886263
0.17077547 -0.024224628 0.45891541
0.17118768 -0.024224952 0.45889729
0.17150588 -0.024212006 0.45862776
0.17192201 -0.024212912 0.45862061
0.17229356 -0.024207547 0.45849478
0.17266026 -0.024201531 0.45835659
0.17302589 -0.024195392 0.45821616
0.17335726 -0.024184503 0.45798579
0.17376305 -0.024184018 0.45795244
0.17423649 -0.024192937 0.45809716
0.17455068 -0.024179747 0.45782334
0.1749582 -0.024179522 0.45779496
0.17530634 -0.024171103 0.45761153
0.17573623 -0.024173975 0.45764184
0.17609398 -0.024166932 0.45748448
0.17640458 -0.024153465 0.45720559
0.17688878 -0.024163773 0.45737678
0.17720522 -0.024151172 0.45711431
0.1776389 -0.024154568 0.45715466
0.17808719 -0.024159934 0.45723233
0.1785651 -0.024169279 0.4573853
0.17900175 -0.024173016 0.45743215
0.18243003 -0.024139484 0.45658442
0.18399103 -0.024129901 0.45630917
0.18418944 -0.024102429 0.45576626
0.18430142 -0.024063792 0.45501232
0.18467723 -0.024059698 0.45491165
0.18503678 -0.024053505 0.45477134
0.18543355 -0.024052169 0.45472291
0.18585284 -0.024053754 0.45472965
0.18622096 -0.024048723 0.45461142
0.13526985 -0.024208672 0.46877909
0.13569126 -0.024209535 0.46877185
0.13608685 -0.0242058 0.46867552
0.13650264 -0.024205668 0.46864897
0.13687693 -0.024198199 0.46848032
0.13728198 -0.024196198 0.46841756
0.13765229 -0.024188105 0.46823677
0.13804945 -0.024184765 0.46814802
0.13844213 -0.024180658 0.4680444
0.13879232 -0.024169182 0.46779814
0.13925514 -0.024177326 0.46793157
0.13962501 -0.024169333 0.4677527
0.14000657 -0.024163403 0.46761373
0.14039165 -0.024158109 0.4674871
0.1407811 -0.024153603 0.46737564
0.14125341 -0.024163298 0.46753898
0.14157146 -0.02414662 0.46719199
0.14199181 -0.024147442 0.46718356
0.14231783 -0.024132261 0.46686554
0.14276607 -0.02413783 0.46694899
0.14311872 -0.024127256 0.46672007
0.14350016 -0.024121583 0.46658593
0.14393918 -0.024125591 0.46663907
0.14430119 -0.024116704 0.46644282
0.14464898 -0.024105499 0.46620169
0.14505386 -0.024103846 0.46614531
0.14540567 -0.024093406 0.46591899
0.14587022 -0.024101656 0.46605402
0.14623508 -0.024093432 0.4658705
0.14667633 -0.024097808 0.46593064
0.14703692 -0.02408894 0.46573469
0.14746886 -0.024091784 0.46576515
0.14783679 -0.024084177 0.46559358
0.14825182 -0.024084264 0.46557072
0.14857125 -0.024068868 0.46524858
0.14890879 -0.024056481 0.4649846
0.14938246 -0.024066094 0.46514583
0.14970873 -0.024051972 0.46484831
0.15013041 -0.02405321 0.46484768
0.15047969 -0.024042882 0.46462348
0.15086092 -0.024037695 0.46449867
0.15130512 -0.024042543 0.46456775
0.1516919 -0.024038265 0.46446046
0.15207039 -0.024032701 0.46432838
0.15245762 -0.024028545 0.46422341
0.15283319 -0.024022579 0.46408352
0.15327013 -0.024026262 0.46413007
0.15360846 -0.024014514 0.46387845
0.15401572 -0.024013571 0.46383563
0.15443692 -0.024014803 0.46383473
0.15485626 -0.02401574 0.46382818
0.155265 -0.024015028 0.46378979
0.15568912 -0.024016699 0.46379736
0.15610635 -0.024017299 0.46378428
0.15645997 -0.024008129 0.46358255
0.1569619 -0.024021709 0.46382007
0.15735708 -0.024018927 0.4637416
0.15770993 -0.02400971 0.463539
0.15810652 -0.024007184 0.46346554
0.16343026 -0.023939662 0.46181715
0.16383629 -0.023938784 0.46177563
0.16421133 -0.023933392 0.461647
0.1645243 -0.023919007 0.46134493
0.16491608 -0.023916116 0.46126461
0.16528217 -0.023909532 0.46111301
0.16567537 -0.023906885 0.46103746
0.16597338 -0.023890551 0.46069792
0.16631088 -0.023879968 0.46046931
0.16670312 -0.02387728 0.46039295
0.16706443 -0.023870181 0.4602316
0.1674592 -0.023867888 0.46016294
0.16786265 -0.023866842 0.46011829
0.16829282 -0.023869587 0.46014673
0.16860503 -0.02385563 0.45985326
0.16891907 -0.023841998 0.45956606
0.16932274 -0.023841055 0.4595235
0.16961278 -0.023824153 0.45917338
0.17008235 -0.023832493 0.4593097
0.17047861 -0.023830539 0.45924771
0.17083846 -0.02382352 0.45908815
0.17127411 -0.023827078 0.45913237
0.17161845 -0.023817949 0.45893216
0.17198654 -0.023812151 0.45879614
0.17238572 -0.023810675 0.45874345
0.17274199 -0.02380329 0.45857695
0.17306627 -0.023791544 0.45832646
0.17354423 -0.02380093 0.45848307
0.17381157 -0.02378145 0.45808369
0.17422825 -0.023782454 0.45807883
0.17467645 -0.023787739 0.45815653
0.17502828 -0.02377991 0.45798162
0.17541254 -0.023776511 0.45789209
0.17577924 -0.023770751 0.45775715
0.17610535 -0.023759544 0.4575173
0.17650574 -0.023758387 0.45747101
0.1769333 -0.023760883 0.45749512
0.177293 -0.023754278 0.457344
0.17769004 -0.023752695 0.45728955
0.17811802 -0.023755241 0.4573147
0.17856638 -0.023760488 0.45739183
0.17898923 -0.023762325 0.45740333
0.17938054 -0.023759978 0.45733425
0.1798567 -0.023768852 0.45748129
0.18213783 -0.023746191 0.45690289
0.1824871 -0.023738448 0.45673034
0.18290122 -0.023739157 0.45672044
0.18363406 -0.02372824 0.4564634
0.18399796 -0.023722494 0.45632941
0.18414335 -0.023688665 0.45565528
0.18435374 -0.023663329 0.45514455
0.18466373 -0.023650855 0.45488137
0.18512997 -0.023658408 0.45500338
0.18556428 -0.023661854 0.45504645
0.18593748 -0.02365751 0.45493972
0.13569 -0.023792649 0.46877173
0.13610862 -0.023793004 0.46875477
0.13654657 -0.023796724 0.468804
0.1369487 -0.023794197 0.46873018
0.13731554 -0.023785574 0.46853626
0.13771883 -0.023783296 0.46846732
0.138111 -0.023779122 0.46836093
0.13847235 -0.023769677 0.46815082
0.13888375 -0.023768853 0.46811044
0.13931058 -0.023770669 0.46812201
0.13969755 -0.023765696 0.46799985
0.14008726 -0.023761211 0.46788737
0.14047554 -0.023756515 0.46777064
0.14087401 -0.023753561 0.4676882
0.14124894 -0.023746673 0.46752828
0.14159873 -0.023735605 0.46728611
0.14200273 -0.023733664 0.46722358
0.14242455 -0.023734707 0.46721977
0.14282356 -0.023731949 0.46714112
0.14316422 -0.023719538 0.46687245
0.1435312 -0.023711553 0.46669096
0.14398186 -0.023717394 0.46678147
0.14437874 -0.023714369 0.46669751
0.14473923 -0.023705399 0.46649656
0.14519021 -0.02371126 0.46658745
0.14546482 -0.023688368 0.46611255
0.14589633 -0.023691081 0.46614146
0.14628525 -0.02368688 0.46603432
0.14667048 -0.02368211 0.46591598
0.14707154 -0.023679916 0.46584833
0.14753181 -0.02368724 0.46596789
0.14782731 -0.023668144 0.46556768
0.14827356 -0.02367322 0.46564299
0.14862844 -0.023663726 0.46543163
0.14902066 -0.023660202 0.46533784
0.14945503 -0.023663377 0.46537569
0.14979337 -0.023651371 0.46511498
0.15016752 -0.023645073 0.46496657
0.1505114 -0.023634052 0.46472526
0.15097918 -0.023642493 0.46486664
0.15133776 -0.02363384 0.46467185
0.15171768 -0.023628557 0.46454334
0.15210609 -0.023624616 0.46444124
0.15249296 -0.023620458 0.46433491
0.15288161 -0.023616601 0.46423438
0.15328687 -0.023615325 0.46418467
0.15366784 -0.023610316 0.46406159
0.15403578 -0.023603342 0.46389985
0.15445447 -0.023604158 0.46389124
0.15484962 -0.023601387 0.46381211
0.15525115 -0.023599597 0.46375224
0.15564921 -0.023597289 0.46368226
0.15607274 -0.023598846 0.46368814
0.15648966 -0.023599396 0.46367428
0.15682444 -0.02358759 0.46341762
0.15718316 -0.023579437 0.46323279
0.15765971 -0.023588955 0.46339512
0.15803933 -0.023583962 0.4632723
0.15845862 -0.023584897 0.46326596
0.15886024 -0.023583198 0.46320796
0.15927513 -0.023583485 0.46318886
0.15968141 -0.023582488 0.4631446
0.16006093 -0.023577558 0.4630231
0.16048436 -0.023579104 0.46302876
0.16078825 -0.023563126 0.46269029
0.1611774 -0.023559691 0.46259817
0.16155885 -0.023555148 0.4624843
0.1618742 -0.02354102 0.46218225
0.16228302 -0.023540515 0.46214774
0.1626848 -0.023538997 0.46209329
0.16307446 -0.023535741 0.46200469
0.16343528 -0.023528349 0.46183497
0.16384651 -0.023528231 0.46180803
0.16413935 -0.023511153 0.46144822
0.16452965 -0.023508089 0.46136349
0.16484015 -0.023493662 0.46105579
0.16524896 -0.023493286 0.46102387
0.16562641 -0.023488466 0.46090469
0.16598833 -0.02348147 0.46074289
0.16636652 -0.023476806 0.46062684
0.16673861 -0.023471307 0.46049446
0.16713728 -0.023469565 0.46043578
0.16751537 -0.023464948 0.46032071
0.16789496 -0.023460567 0.46021026
0.16819674 -0.023445358 0.45988744
0.16860999 -0.023445724 0.45987022
0.16899507 -0.023442183 0.45977631
0.16936287 -0.023436263 0.45963582
0.16980574 -0.023440737 0.45969915
0.17017846 -0.023435526 0.45957258
0.17053737 -0.023428448 0.45940939
0.17089619 -0.023421386 0.45924661
0.17130904 -0.023421749 0.45922941
0.17163408 -0.02341013 0.45897725
0.17202249 -0.023407193 0.45889539
0.17240202 -0.023403062 0.45879012
0.17278828 -0.02339986 0.45870313
0.17316985 -0.023396039 0.45860404
0.17360333 -0.023399238 0.45864245
0.17386973 -0.023379952 0.45824027
0.17424096 -0.023374816 0.45811552
0.17476429 -0.023390066 0.45839024
0.17502728 -0.023370476 0.45798221
0.17544095 -0.023371054 0.45796946
0.17582913 -0.023368245 0.45789033
0.17620978 -0.023364447 0.45779184
0.17654286 -0.023354374 0.45757046
0.17700392 -0.023361236 0.45768094
0.17734395 -0.023352129 0.45747858
0.17773511 -0.023349782 0.4574087
0.17813993 -0.023349237 0.4573741
0.1785558 -0.023350142 0.4573679
0.17896782 -0.023350537 0.45735174
0.17942886 -0.023357311 0.45746061
0.17981718 -0.02335461 0.4573839
0.18021925 -0.023353705 0.45734236
0.18064602 -0.023355991 0.4573634
0.18111882 -0.023364212 0.45750061
0.18149391 -0.023359813 0.45739082
0.18170454 -0.023334319 0.45686793
0.18219131 -0.023344321 0.4570401
0.18256983 -0.023340436 0.45694044
0.18281843 -0.023319993 0.45651671
0.18325841 -0.023324005 0.4565717
0.18360442 -0.023316063 0.45639274
0.1839807 -0.023311993 0.45628959
0.18422155 -0.023290819 0.45585173
0.18442696 -0.023265265 0.45532826
0.18480055 -0.023260994 0.45522138
0.18525675 -0.023267116 0.45531791
0.18555938 -0.023253968 0.45503736
0.13571368 -0.023380063 0.46885771
0.13614076 -0.023381855 0.4688696
0.13654637 -0.023379954 0.46880746
0.13699044 -0.023384634 0.46887726
0.13735636 -0.023375981 0.46867967
0.13777202 -0.02337582 0.46865234
0.13814823 -0.023368994 0.46849138
0.13853493 -0.023363968 0.46836644
0.13895081 -0.023363885 0.46834061
0.13934022 -0.02335936 0.46822575
0.1397261 -0.023354273 0.46809953
0.1401251 -0.023351403 0.46801779
0.14054844 -0.023352595 0.46801743
0.14089873 -0.023341678 0.46777439
0.14125679 -0.023332108 0.46755829
0.14170116 -0.023336807 0.46762818
0.14205827 -0.023327155 0.46741039
0.14246623 -0.023325877 0.4673605
0.14289242 -0.023327589 0.46737039
0.14325437 -0.023318827 0.46717048
0.14361252 -0.023309505 0.46695933
0.14406441 -0.023315405 0.46705306
0.14439653 -0.02330194 0.46675897
0.1447729 -0.023295676 0.46660906
0.14516339 -0.023291716 0.46650526
0.14556921 -0.023290224 0.46645093
0.14594799 -0.023284433 0.46631044
0.14638348 -0.023287693 0.46635127
0.14676897 -0.023283003 0.46623278
0.1471227 -0.023273315 0.46601433
0.14749832 -0.023267137 0.46586606
0.14791961 -0.023268174 0.4658623
0.14824662 -0.023254413 0.46556222
0.1486662 -0.023255214 0.4655537
0.14905755 -0.023251606 0.4654569
0.1494537 -0.023248766 0.46537545
0.14981422 -0.023240412 0.46518362
0.15024298 -0.02324266 0.46520403
0.15062781 -0.023238119 0.46508855
0.15100293 -0.02323211 0.46494362
0.1514052 -0.023230294 0.4648827
0.15180059 -0.02322744 0.46480092
0.15222275 -0.023228688 0.46480125
0.15259311 -0.023222042 0.46464366
0.15291984 -0.023208814 0.46435431
0.15331511 -0.023206029 0.46427393
0.15370981 -0.023203172 0.46419212
0.15410435 -0.023200305 0.46411011
0.15449019 -0.023196148 0.46400225
0.15485325 -0.023188606 0.46382672
0.15526904 -0.023188975 0.46380943
0.15565775 -0.023185309 0.46371144
0.15608293 -0.023187079 0.46372214
0.15644659 -0.023179725 0.46355039
0.15688577 -0.023183569 0.46360257
0.15718251 -0.023166399 0.46323451
0.15760614 -0.023167973 0.46324131
0.15802565 -0.023168935 0.46323583
0.15841721 -0.023165803 0.46314856
0.15882474 -0.023165017 0.46310815
0.1592371 -0.023164935 0.46308184
0.15962791 -0.02316173 0.46299306
0.16005793 -0.023164215 0.46301803
0.1603464 -0.023146251 0.4626343
0.16072071 -0.023140742 0.46249947
0.16117582 -0.023146862 0.46259716
0.16155699 -0.023142364 0.4624826
0.16187541 -0.023128919 0.46218926
0.16230612 -0.023131546 0.46221706
0.16266569 -0.023124047 0.4620426
0.1630211 -0.023115996 0.46185708
0.16345266 -0.023118753 0.46188757
0.16377611 -0.023106247 0.46161306
0.16411892 -0.023096528 0.46139428
0.1645166 -0.023094559 0.46133035
0.1648986 -0.023090404 0.46122277
0.16525669 -0.023082931 0.46104896
0.16562416 -0.023076797 0.46090189
0.16602957 -0.02307597 0.46086082
0.16641197 -0.023071958 0.46075615
0.16676453 -0.023063837 0.46056944
0.1672028 -0.023067581 0.46061969
0.16755143 -0.02305897 0.46042323
0.16792531 -0.023053868 0.46029684
0.1682484 -0.023041831 0.46003211
0.1687151 -0.023049477 0.46016029
0.16911909 -0.023048539 0.46011707
0.16943343 -0.023035415 0.45983067
0.16983177 -0.023033747 0.45977297
0.1702157 -0.023030136 0.45967647
0.17062756 -0.023030315 0.4596557
0.17096949 -0.023021072 0.45944688
0.17133729 -0.023015354 0.45930842
0.17167906 -0.023006173 0.45910087
0.17221311 -0.023022739 0.45940712
0.17248291 -0.023003986 0.45900863
0.17280219 -0.022991905 0.45874333
0.17322902 -0.022994151 0.45876396
0.17360558 -0.022989737 0.4586516
0.17397977 -0.022985028 0.45853347
0.17438479 -0.022984402 0.45849687
0.17476523 -0.022980548 0.45839584
0.17514217 -0.022976257 0.45828608
0.17558059 -0.022980029 0.45833719
0.17595269 -0.022975119 0.45821521
0.17630184 -0.022967247 0.45803416
0.17666204 -0.022960847 0.45788249
0.17705813 -0.022959132 0.45782429
0.17741001 -0.0229517 0.45765209
0.17777358 -0.022945814 0.4575108
0.17817786 -0.022945199 0.45747462
0.17858729 -0.022945244 0.45745164
0.17897531 -0.022942549 0.45737401
0.1793554 -0.022938846 0.45727637
0.1798548 -0.02295039 0.45748264
0.18050531 -0.022929076 0.45701021
0.18078174 -0.022912299 0.45665216
0.18122593 -0.022916816 0.45671847
0.18164936 -0.022918692 0.45673221
0.18207577 -0.022920933 0.45675325
0.18242988 -0.022914086 0.45659322
0.18282913 -0.022912921 0.45654646
0.18321609 -0.022910228 0.45646927
0.1836011 -0.022907304 0.45638746
0.18408775 -0.022917043 0.45655808
0.18434384 -0.022898102 0.4561573
0.184332 -0.022846038 0.45509675
0.18470319 -0.022841567 0.45498443
0.18522194 -0.02285533 0.45523527
0.13617833 -0.022971421 0.46900305
0.13662715 -0.022976806 0.46908894
0.13701154 -0.022971351 0.46895349
0.13739905 -0.022966456 0.46882942
0.13777836 -0.022960216 0.46867797
0.138184 -0.02295839 0.4686166
0.1385567 -0.022951124 0.46844411
0.13897665 -0.0229517 0.46843171
0.1393882 -0.022950891 0.46839097
0.13976496 -0.022944376 0.46823379
0.14018022 -0.022944201 0.46820596
0.14051414 -0.022930747 0.46790716
0.14098845 -0.022940222 0.4680762
0.14131908 -0.022926331 0.46776849
0.1417219 -0.022924196 0.46770063
0.14210638 -0.022919117 0.46757266
0.142482 -0.02291264 0.46741617
0.14291386 -0.02291522 0.46744445
0.14332205 -0.022914002 0.46739519
0.14370577 -0.022908885 0.46726641
0.14413226 -0.022910602 0.46727699
0.14444666 -0.022894539 0.46692494
0.14485799 -0.022893889 0.46688721
0.14526962 -0.022893291 0.46685055
0.14561884 -0.022882884 0.46661386
0.14599408 -0.022876617 0.46646157
0.14639476 -0.022874361 0.46639109
0.14674942 -0.022864945 0.46617457
0.14717798 -0.022867065 0.46619323
0.14757822 -0.022864785 0.46612221
0.14796743 -0.02286081 0.46601662
0.14835615 -0.022856787 0.46591008
0.14875966 -0.022855056 0.46585023
0.14913352 -0.022848791 0.46569794
0.14952481 -0.022845225 0.46560064
0.14993379 -0.022844376 0.46555868
0.15022352 -0.022825409 0.46514758
0.15060969 -0.022821158 0.4650363
0.15105881 -0.022826444 0.46511942
0.15145896 -0.022824325 0.46505159
0.15184246 -0.022819711 0.46493292
0.15226661 -0.022821212 0.46493888
0.15264757 -0.022816254 0.4648132
0.15299544 -0.022806387 0.46458751
0.15335231 -0.022797914 0.46439025
0.1537959 -0.022802344 0.46445578
0.15419285 -0.022799851 0.46438035
0.15448466 -0.022781866 0.46398935
0.15492941 -0.02278647 0.46405846
0.15535119 -0.022787683 0.46405846
0.15567864 -0.022775088 0.46377727
0.15611206 -0.022778019 0.46381229
0.15645149 -0.022767259 0.46356851
0.15686198 -0.022766866 0.46353582
0.15722832 -0.022760091 0.46337315
0.15763557 -0.022759253 0.46333143
0.15805338 -0.02275994 0.46332073
0.15840335 -0.022750881 0.46311161
0.15883294 -0.02275327 0.4631356
0.15923025 -0.022751041 0.46306545
0.15964451 -0.022751238 0.46304476
0.1599372 -0.022734152 0.46267232
0.1604054 -0.022742031 0.46280804
0.16075847 -0.022733597 0.46261171
0.16115482 -0.022731306 0.46254042
0.16151376 -0.022723766 0.46236232
0.16188574 -0.022718092 0.46222222
0.16225322 -0.022711817 0.4620699
0.16265421 -0.022710254 0.46201345
0.16302335 -0.022704262 0.46186692
0.16344485 -0.022705572 0.46186894
0.16381811 -0.022700194 0.46173486
0.16408727 -0.022680454 0.46130875
0.16454282 -0.022686509 0.46140736
0.16496126 -0.022687431 0.46140146
0.16535974 -0.022685606 0.46133977
0.16566946 -0.022671647 0.46103135
0.16607033 -0.0226702 0.46097735
0.16641481 -0.022661079 0.46076736
0.16681716 -0.022659868 0.46071813
0.16720349 -0.022656489 0.46062493
0.16763066 -0.022658648 0.4606443
0.16802596 -0.022656498 0.46057609
0.16840693 -0.022652432 0.46046895
0.16868642 -0.022634763 0.46008536
0.16912609 -0.022638628 0.46013942
0.16948843 -0.022632143 0.45998323
0.16984478 -0.022624895 0.45981145
0.17024784 -0.022623885 0.45976657
0.17067274 -0.02262578 0.45978066
0.17102776 -0.022618424 0.45960677
0.17143513 -0.022618005 0.45957395
0.17180388 -0.022612507 0.45943788
0.17215757 -0.022605058 0.45926225
0.17252742 -0.022599759 0.45913029
0.17289026 -0.022593573 0.45898032
0.17328402 -0.022591446 0.45891288
0.17369191 -0.022591162 0.45888287
0.17411946 -0.022593433 0.4589048
0.17451972 -0.022592163 0.45885479
0.17485273 -0.022582209 0.45862848
0.17519633 -0.022573672 0.45843095
0.1756162 -0.022574976 0.4584333
0.17594793 -0.022564966 0.45820597
0.17638993 -0.022569114 0.45826614
0.17675458 -0.02256337 0.45812541
0.17708623 -0.022553448 0.45789996
0.17742813 -0.022544876 0.45770192
0.17783424 -0.022544483 0.45767
0.17825159 -0.022545511 0.45766693
0.17860733 -0.022538761 0.457506
0.17900926 -0.022537859 0.4574638
0.179363 -0.022530904 0.45729879
0.17978069 -0.022531996 0.45729715
0.18021744 -0.022535468 0.45734379
0.18047898 -0.022517063 0.45694652
0.18084764 -0.022512075 0.45682162
0.18123861 -0.02250988 0.45675337
0.18157934 -0.022501469 0.45655906
0.18200903 -0.022504099 0.45658877
0.18242693 -0.022505259 0.45658872
0.18281348 -0.022502556 0.45651031
0.18321624 -0.022501854 0.45647258
0.18362664 -0.022502093 0.45645386
0.18399328 -0.02249698 0.45632669
0.18438539 -0.022494994 0.45626298
0.18483807 -0.022450782 0.45531958
0.18520704 -0.022446107 0.45520148
0.13661738 -0.022558209 0.46905932
0.13706677 -0.022563564 0.46914658
0.13747372 -0.022561917 0.46908823
0.13789405 -0.022562463 0.4690755
0.13823047 -0.022549326 0.46877819
0.1386658 -0.022552352 0.46881697
0.13903469 -0.022544589 0.46863133
0.13942429 -0.022540217 0.46851626
0.13982248 -0.022537254 0.46843046
0.14020976 -0.022532554 0.46830854
0.1406603 -0.022538021 0.46839786
0.1409931 -0.022524646 0.46809557
0.14139979 -0.022523116 0.46803948
0.14180514 -0.022521386 0.46797922
0.142195 -0.022517214 0.46786815
0.14254525 -0.022506811 0.46762761
0.14295352 -0.022505598 0.46757802
0.1433548 -0.022503296 0.46750584
0.14374636 -0.022499489 0.46740231
0.14409485 -0.022488978 0.46715951
0.14452258 -0.022490865 0.46717426
0.14492728 -0.022489158 0.46711439
0.14529963 -0.022482464 0.4669508
0.14572021 -0.022483246 0.46694258
0.14604585 -0.022469414 0.46663079
0.14644396 -0.022466782 0.4665516
0.14687091 -0.022468576 0.46656433
0.14727674 -0.022467136 0.46650988
0.14759462 -0.022452326 0.46617779
0.14802818 -0.022455143 0.46621177
0.1483957 -0.022447962 0.46603805
0.14877366 -0.022442387 0.46589777
0.14916748 -0.022439234 0.46580771
0.14951728 -0.022429496 0.46558094
0.14995714 -0.022433281 0.46563488
0.15034774 -0.022429695 0.46553585
0.15075544 -0.022428676 0.46549004
0.15115406 -0.022426315 0.4654164
0.15148409 -0.022413816 0.46513239
0.15189707 -0.02241363 0.46510383
0.15232421 -0.022415526 0.4651185
0.15265763 -0.022403654 0.46484748
0.15310265 -0.02240818 0.46491671
0.15342867 -0.022395318 0.46462518
0.15383062 -0.022393569 0.4645642
0.15424775 -0.022394039 0.46454927
0.15454395 -0.022376997 0.46417102
0.15499531 -0.022382446 0.46425939
0.15539724 -0.022380754 0.46419957
0.15571573 -0.022367083 0.46389133
0.15612721 -0.022366805 0.46386087
0.15648316 -0.022358593 0.4636659
0.15692595 -0.022362802 0.46372846
0.15733264 -0.022361858 0.46368417
0.15769601 -0.022354776 0.4635126
0.1580454 -0.022345755 0.46330085
0.15844916 -0.022344446 0.46324903
0.15884563 -0.022342119 0.46317607
0.15925485 -0.022341594 0.46314055
0.15969551 -0.02234547 0.46319613
0.1600482 -0.022337049 0.4629969
0.16039392 -0.022327699 0.46277842
0.16079864 -0.022326596 0.4627308
0.16119137 -0.02232383 0.46264881
0.16155161 -0.02231659 0.46247408
0.16189855 -0.022307558 0.46226227
0.16235881 -0.022314141 0.46237403
0.16268352 -0.022302113 0.46210012
0.16304529 -0.022295212 0.46193245
0.16345474 -0.022294847 0.46190029
0.1638474 -0.0222922 0.46182084
0.16422188 -0.022287101 0.46169055
0.16460174 -0.022282755 0.46157593
0.16495876 -0.022275345 0.4613978
0.16530974 -0.022267159 0.46120366
0.16580224 -0.022278028 0.4614042
0.16614299 -0.022268502 0.46118236
0.16652595 -0.022264669 0.46107838
0.16694631 -0.022265842 0.46107814
0.1672606 -0.022252901 0.4607856
0.16769171 -0.022255523 0.46081537
0.16806203 -0.022250082 0.46067822
0.16849712 -0.022253225 0.46071875
0.16879088 -0.022237733 0.46037358
0.16912809 -0.022228027 0.46014813
0.16949821 -0.022222679 0.46001297
0.16994248 -0.02222706 0.46007925
0.17033055 -0.022224084 0.45999318
0.170669 -0.02221466 0.45977381
0.1710449 -0.022210147 0.459656
0.17152038 -0.022218555 0.45980567
0.17184888 -0.022207929 0.45956141
0.17230192 -0.022213409 0.45965049
0.17263149 -0.022202982 0.4594104
0.17299682 -0.022197193 0.45926636
0.17339562 -0.022195717 0.45921153
0.17372736 -0.022185681 0.45897967
0.17413624 -0.022185521 0.45895216
0.17452955 -0.022183388 0.45888376
0.17494826 -0.022184476 0.45888215
0.17519346 -0.022163618 0.45842651
0.17565675 -0.022170378 0.4585422
0.17602688 -0.022165377 0.45841467
0.17639574 -0.022160236 0.45828426
0.17676851 -0.022155611 0.45816454
0.17714317 -0.022151243 0.45805022
0.17755724 -0.022151815 0.45803803
0.17793392 -0.022147726 0.45792952
0.17831813 -0.022144593 0.45784083
0.17868608 -0.022139462 0.45771074
0.17908843 -0.022138599 0.45766908
0.17942668 -0.022129839 0.4574641
0.17984188 -0.022130586 0.45745575
0.18019104 -0.022123225 0.45727974
0.18061382 -0.022124914 0.45729086
0.18097141 -0.02211863 0.45713723
0.18126169 -0.022104159 0.4568145
0.18165925 -0.02210281 0.45676294
0.18204509 -0.022100044 0.45668215
0.18243988 -0.022098374 0.45662403
0.18282698 -0.022095779 0.45654687
0.18327725 -0.022100817 0.45662737
0.18362035 -0.022092935 0.45644104
0.18396562 -0.022085354 0.45626092
0.18436417 -0.02208418 0.4562133
0.18476641 -0.022083461 0.456175
0.18512136 -0.022077097 0.45602021
0.13709076 -0.022150388 0.46923262
0.13752115 -0.022152532 0.46925393
0.13788679 -0.022144267 0.46905476
0.13831569 -0.022146182 0.46907115
0.1386438 -0.022131996 0.46874642
0.13908993 -0.022136675 0.46882135
0.13945104 -0.022127837 0.46860996
0.13987876 -0.022129593 0.46862289
0.14024515 -0.022121657 0.46843061
0.14066775 -0.022122614 0.46842656
0.14106598 -0.022119742 0.46834141
0.14144729 -0.02211424 0.46820062
0.14184903 -0.022111954 0.46812788
0.14219181 -0.022100521 0.46786147
0.14259171 -0.022098003 0.46778384
0.14299944 -0.022096708 0.46773198
0.14339611 -0.022093719 0.4676443
0.14378679 -0.02208983 0.46753752
0.14420031 -0.022089461 0.46750528
0.14456308 -0.022081338 0.46730891
0.14494768 -0.022076586 0.46718389
0.14533804 -0.022072738 0.467078
0.14573593 -0.022070054 0.46699664
0.14611365 -0.022064338 0.4668512
0.14654955 -0.022067413 0.46689174
0.14684299 -0.022049081 0.4664793
0.14724764 -0.022047505 0.46642143
0.14884578 -0.022038249 0.46612734
0.14910561 -0.022015341 0.46561816
0.14956164 -0.022021448 0.46572274
0.14997053 -0.022020597 0.46568015
0.15037867 -0.022019643 0.46563533
0.15079369 -0.022019695 0.46561179
0.15117979 -0.02201554 0.46549928
0.15153769 -0.022007309 0.46530056
0.1519569 -0.022008004 0.46529055
0.15231854 -0.022000382 0.46510473
0.15268646 -0.021993704 0.46493891
0.15313238 -0.021998264 0.46501061
0.15342163 -0.021980356 0.46460739
0.1538201 -0.021978149 0.46453604
0.15424916 -0.021980314 0.46455711
0.15465218 -0.021978764 0.46449962
0.15506595 -0.021978747 0.46447459
0.15545362 -0.021975042 0.46437159
0.15584247 -0.021971522 0.46427247
0.1562653 -0.0219728 0.4642747
0.15662655 -0.021965431 0.46409431
0.1569263 -0.0219495 0.46373302
0.15740538 -0.021958668 0.46390197
0.1577616 -0.021950698 0.46370885
0.15814729 -0.021946855 0.46360302
0.15846758 -0.02193398 0.46330634
0.15890425 -0.021937242 0.4633505
0.15926416 -0.021929916 0.46317106
0.15966071 -0.021927658 0.46309868
0.16008198 -0.0219288 0.46309808
0.16041133 -0.021917371 0.46283206
0.16083607 -0.021919006 0.46284187
0.16121398 -0.021914266 0.46271709
0.16163717 -0.021915689 0.46272245
0.16190611 -0.021896245 0.46228719
0.16237821 -0.021904303 0.46243265
0.16271226 -0.021893747 0.46218514
0.16310363 -0.021890933 0.46210107
0.1634786 -0.021885941 0.46197104
0.16385183 -0.021880737 0.46183661
0.16430968 -0.02188684 0.46194074
0.16466756 -0.021879623 0.4617638
0.16504861 -0.021875514 0.46165246
0.16539481 -0.021866813 0.46144429
0.16580811 -0.021867011 0.46142378
0.16620326 -0.021864818 0.46135294
0.16652334 -0.021852782 0.46107444
0.16695639 -0.021855595 0.46110922
0.16724673 -0.021839762 0.46075061
0.16765969 -0.021839974 0.46073058
0.1682003 -0.021856774 0.46106046
0.16848962 -0.021840919 0.4607015
0.1688858 -0.021838959 0.46063566
0.1692442 -0.021832133 0.46046719
0.16959237 -0.021824025 0.46027169
0.16991718 -0.021812957 0.46001387
0.17040272 -0.021822525 0.46019122
0.17076387 -0.021816157 0.46003249
0.17119032 -0.021818141 0.46004996
0.17156576 -0.021813629 0.45993042
0.17193168 -0.021807931 0.45978597
0.17232516 -0.021805748 0.45971557
0.17267744 -0.021798374 0.45953584
0.17308298 -0.021797743 0.45949817
0.17346942 -0.021794714 0.45941007
0.17381652 -0.021786768 0.45921829
0.17420183 -0.021783641 0.45912811
0.17460273 -0.021782469 0.45907924
0.17495504 -0.021775255 0.45890301
0.17531128 -0.021768564 0.45873782
0.17574538 -0.021771545 0.45877656
0.17613766 -0.021769347 0.45870608
0.17646252 -0.021758847 0.45846072
0.17680681 -0.021750785 0.45826685
0.17721692 -0.021750839 0.45824394
0.17759457 -0.02174692 0.45813733
0.17792657 -0.021737438 0.45791361
0.17838806 -0.021743782 0.45802331
0.17877236 -0.02174071 0.45793465
0.17910311 -0.021731157 0.45770949
0.17948046 -0.02172729 0.45760417
0.17987077 -0.021725003 0.45753217
0.18024462 -0.021720741 0.45741865
0.1806192 -0.021716589 0.4573074
0.18102007 -0.021715607 0.45726296
0.18131247 -0.021701647 0.45694533
0.18168388 -0.021697186 0.4568277
0.18208866 -0.02169672 0.45679429
0.1824732 -0.02169385 0.45671025
0.18292633 -0.021699131 0.45679778
0.18327534 -0.021692062 0.45662546
0.18363641 -0.02168645 0.45648378
0.18410701 -0.02169377 0.45661438
0.18449174 -0.021690957 0.45653176
0.18480359 -0.021679612 0.45626953
0.13755816 -0.021741223 0.46938413
0.13795544 -0.021738078 0.46929213
0.13838089 -0.021739382 0.46929607
0.13874838 -0.021731598 0.46910387
0.13912603 -0.021725446 0.4689469
0.13951996 -0.021721868 0.4688454
0.13993008 -0.021720823 0.46879861
0.1403012 -0.02171375 0.46862164
0.14073266 -0.021716028 0.46864653
0.1411179 -0.021711182 0.4685176
0.14149849 -0.021705648 0.46837384
0.14186691 -0.02169829 0.4681907
0.14227381 -0.021696838 0.46813506
0.14265126 -0.021690916 0.46798289
0.143062 -0.021690078 0.46794039
0.14342986 -0.021682762 0.46775815
0.14382257 -0.021679234 0.4676576
0.14426759 -0.02168359 0.46772709
0.14458768 -0.021669196 0.46739212
0.14501177 -0.021670425 0.46739417
0.14537142 -0.021662047 0.46718895
0.14578377 -0.021661544 0.46715364
0.14620776 -0.021662772 0.46715552
0.14655927 -0.02165328 0.46692634
0.14696646 -0.02165205 0.46687526
0.14959398 -0.021611417 0.46582702
0.14994995 -0.021602945 0.4656198
0.15040283 -0.021608444 0.46571371
0.1508207 -0.021608897 0.46569878
0.15124434 -0.021610169 0.46570158
0.15165262 -0.021609249 0.46565709
0.15202743 -0.021603579 0.46551016
0.15243828 -0.02160304 0.46547389
0.15278769 -0.021593826 0.46525064
0.15320887 -0.021594776 0.46524641
0.15353897 -0.021582918 0.46496621
0.15387222 -0.021571565 0.46469697
0.15431738 -0.021575922 0.46476609
0.15470813 -0.021572664 0.46467119
0.15509205 -0.021568472 0.46455619
0.15545629 -0.021561578 0.46438301
0.15586039 -0.021560233 0.46432927
0.1562966 -0.021563323 0.46437114
0.15667775 -0.021558821 0.46424943
0.15707164 -0.021556091 0.46416593
0.15738681 -0.021542601 0.46385071
0.1577917 -0.02154143 0.46380076
0.15820378 -0.021541243 0.463772
0.15854263 -0.021531111 0.46352917
0.15894954 -0.02153025 0.46348593
0.15932593 -0.021525275 0.46335402
0.15972207 -0.021522982 0.46327999
0.16011302 -0.021520006 0.46319121
0.16052814 -0.021520283 0.46317247
0.16090813 -0.021515857 0.46305254
0.16126893 -0.021508904 0.46287814
0.16171199 -0.021512922 0.46293992
0.16207205 -0.021505909 0.46276429
0.16242932 -0.021498559 0.46258152
0.16280244 -0.021493344 0.46244457
0.16312927 -0.021482056 0.46217704
0.1636022 -0.021490017 0.46232364
0.16393621 -0.021479735 0.46207777
0.16424984 -0.021466838 0.46177572
0.16468212 -0.021469478 0.46180782
0.16510546 -0.021470942 0.46181473
0.16552691 -0.021472149 0.46181607
0.16585098 -0.021460753 0.46154636
0.16624603 -0.021458574 0.4614749
0.16661336 -0.021452835 0.46132687
0.16703698 -0.021454355 0.46133503
0.16735338 -0.021442128 0.46104759
0.16779293 -0.021445705 0.46109992
0.16822606 -0.021448445 0.46113425
0.16860856 -0.021444729 0.46102986
0.16898398 -0.021440133 0.46090657
0.16925961 -0.021422932 0.46051228
0.16968139 -0.021424266 0.46051642
0.17002846 -0.021416184 0.46031827
0.17049868 -0.021423612 0.46045351
0.17085458 -0.021416675 0.46028
0.17119181 -0.021407437 0.46005705
0.17152864 -0.021398194 0.45983398
0.17194994 -0.021399504 0.45983782
0.17239143 -0.021403318 0.4598954
0.17272061 -0.021393202 0.45965371
0.17316061 -0.021396827 0.45970732
0.17349461 -0.021387367 0.45947978
0.17387065 -0.021383123 0.45936432
0.17426999 -0.021381758 0.45931074
0.17458908 -0.021370575 0.4590463
0.17496146 -0.021365952 0.4589228
0.17539752 -0.021369111 0.45896646
0.17577639 -0.021365302 0.45886052
0.17616379 -0.021362543 0.45877713
0.17649712 -0.021353256 0.45855358
0.17692457 -0.021355376 0.45857501
0.17730394 -0.021351691 0.45847186
0.17763917 -0.021342725 0.45825529
0.17796955 -0.021333212 0.45802706
0.17835683 -0.02133055 0.45794597
0.1787838 -0.021332638 0.45796686
0.17912929 -0.021325016 0.45777932
0.17956389 -0.021328013 0.45781973
0.179921 -0.021321811 0.45766282
0.1802768 -0.021315483 0.45750314
0.18067333 -0.021313988 0.45744726
0.18103427 -0.021308312 0.45730168
0.18136002 -0.02129853 0.457068
0.18184753 -0.02130774 0.45724201
0.18217216 -0.02129787 0.45700657
0.18252826 -0.021291714 0.45685083
0.18293361 -0.021291319 0.45681876
0.1834069 -0.021298816 0.45695603
0.18365929 -0.02128068 0.45654342
0.18416986 -0.021292476 0.45677298
0.18448311 -0.021281457 0.45651314
0.13757537 -0.021326611 0.46944663
0.13797355 -0.021323659 0.46935746
0.13835746 -0.021318531 0.46922043
