# .PCD v0.7 - Point Cloud Data file format
VERSION 0.7
FIELDS x y z
SIZE 4 4 4
TYPE F F F
COUNT 1 1 1
WIDTH 1304
HEIGHT 1
VIEWPOINT 0 0 0 1 0 0 0
POINTS 1304
DATA ascii
-0.041683346 0.0045039393 0.42987797
-0.041294411 0.0045027803 0.42977628
-0.040900774 0.0045010829 0.42962307
-0.040517144 0.004500465 0.42957282
-0.040124111 0.0044987812 0.42942077
-0.039741479 0.0044982433 0.429378
-0.039344918 0.0044961036 0.42918223
-0.03896571 0.0044959243 0.42917353
-0.03857436 0.0044943276 0.42902938
-0.038179997 0.0044923443 0.42884833
-0.037792057 0.0044910857 0.42873624
-0.037416056 0.0044912342 0.42875853
-0.037023541 0.0044893832 0.42858979
-0.036633775 0.0044878316 0.42844951
-0.036257826 0.0044879583 0.42846945
-0.035868935 0.0044864682 0.42833492
-0.03547433 0.0044842251 0.42812839
-0.035088468 0.0044830507 0.42802382
-0.034712467 0.0044831252 0.42803836
-0.034306906 0.0044793421 0.42768452
-0.033929404 0.0044791782 0.4276762
-0.033547871 0.0044784732 0.42761606
-0.033172198 0.0044785435 0.42762995
-0.032796163 0.0044785659 0.42763907
-0.032417148 0.0044781775 0.42760897
-0.032042298 0.0044783629 0.42763352
-0.031669095 0.0044787852 0.42768064
-0.031288773 0.0044781985 0.42763135
-0.030901803 0.0044766348 0.42748865
-0.030505884 0.0044737216 0.42721695
-0.030119097 0.0044720904 0.42706764
-0.029733548 0.0044706045 0.4269321
-0.029336687 0.0044673588 0.42662838
-0.028943501 0.0044645951 0.42637068
-0.028557122 0.0044628237 0.42620757
-0.028168799 0.0044606971 0.42601046
-0.027784428 0.0044591473 0.42586842
-0.027407061 0.0044586952 0.42583105
-0.027028924 0.0044581038 0.4257803
-0.026658881 0.0044588498 0.42585725
-0.026286028 0.0044591404 0.42589054
-0.075690299 0.005005362 0.43961892
-0.075283736 0.005004107 0.43952435
-0.074900359 0.0050043883 0.43956468
-0.074492767 0.0050030462 0.4394623
-0.074045852 0.004999035 0.43912545
-0.073656283 0.0049988739 0.43912667
-0.073252425 0.0049977363 0.43904209
-0.072834805 0.0049956436 0.43887344
-0.072437041 0.0049948967 0.43882298
-0.072015479 0.004992493 0.43862689
-0.071629554 0.004992547 0.43864664
-0.071221903 0.0049910787 0.43853256
-0.070828058 0.0049905684 0.43850252
-0.070395343 0.004987298 0.43822998
-0.069972642 0.0049847052 0.43801686
-0.069577292 0.0049840435 0.43797332
-0.069164746 0.0049821357 0.43782023
-0.068762578 0.0049809576 0.43773118
-0.068355195 0.0049793874 0.43760756
-0.067940988 0.0049772989 0.43743831
-0.067566052 0.0049780807 0.43752128
-0.067126915 0.0049741138 0.43718678
-0.066743627 0.0049742637 0.43721405
-0.066346712 0.0049733934 0.43715155
-0.065926589 0.0049707643 0.43693435
-0.065521672 0.0049692574 0.43681577
-0.065120615 0.0049680262 0.43672132
-0.064693511 0.0049647833 0.43644992
-0.064298555 0.0049639819 0.43639314
-0.063898064 0.0049627423 0.43629766
-0.063496403 0.0049613966 0.43619278
-0.063099973 0.0049604452 0.43612257
-0.062696226 0.0049589039 0.43600029
-0.062307443 0.0049585337 0.43598098
-0.061896451 0.0049563819 0.4358049
-0.061501712 0.004955512 0.43574151
-0.061096694 0.0049537988 0.43560383
-0.060695149 0.0049523474 0.43548909
-0.060289368 0.004950529 0.43534201
-0.059888743 0.0049491138 0.43523031
-0.059476186 0.0049466882 0.43502966
-0.059080489 0.0049456432 0.43495035
-0.058689106 0.0049449471 0.43490165
-0.058275055 0.0049423203 0.43468302
-0.057903469 0.0049432842 0.43478012
-0.057479985 0.0049398001 0.43448597
-0.057090566 0.0049392176 0.4344469
-0.056684542 0.0049371808 0.43427986
-0.056297053 0.0049367421 0.43425331
-0.055901121 0.0049355514 0.4341605
-0.055483807 0.0049324441 0.43389899
-0.055102509 0.0049325177 0.43391719
-0.054705672 0.0049311919 0.43381232
-0.054311838 0.00493012 0.43372962
-0.053912409 0.0049285218 0.43360052
-0.053513758 0.0049269726 0.43347567
-0.0531152 0.0049254089 0.43334952
-0.052731946 0.0049252529 0.43334708
-0.052334111 0.0049237232 0.43322369
-0.051920488 0.004920675 0.43296662
-0.051537976 0.0049205516 0.4329668
-0.05113671 0.0049186228 0.43280804
-0.050737184 0.0049168337 0.4326615
-0.050347585 0.0049159867 0.43259779
-0.04994081 0.0049134376 0.43238419
-0.049564317 0.0049138516 0.43243125
-0.049144987 0.0049099927 0.43210217
-0.048755214 0.0049090497 0.43202963
-0.048371069 0.0049086632 0.432006
-0.047979202 0.00490748 0.43191218
-0.047586091 0.0049061505 0.4318054
-0.047190644 0.0049045566 0.43167523
-0.046790347 0.0049024289 0.43149805
-0.046394486 0.0049007353 0.4313589
-0.046005812 0.0048997789 0.43128464
-0.045614291 0.0048985025 0.43118203
-0.045205321 0.0048953136 0.43091109
-0.044823997 0.0048950901 0.43090105
-0.044438887 0.0048944466 0.43085393
-0.044042043 0.0048924885 0.43069103
-0.043651082 0.0048911558 0.43058309
-0.043244112 0.0048879902 0.43031371
-0.042868223 0.0048883129 0.43035135
-0.042479109 0.0048871203 0.4302555
-0.042100944 0.0048871776 0.43026957
-0.041710224 0.0048857648 0.43015414
-0.041303661 0.0048824535 0.4298715
-0.040912047 0.0048808651 0.42974049
-0.040534031 0.0048808847 0.42975089
-0.040152568 0.0048804851 0.42972434
-0.039754488 0.0048780399 0.42951754
-0.039371036 0.0048773591 0.4294661
-0.038970955 0.0048745861 0.42923027
-0.038600225 0.0048754653 0.42931604
-0.038205121 0.0048732543 0.42912951
-0.037808236 0.0048707691 0.42891878
-0.037426181 0.0048701637 0.42887354
-0.037031177 0.0048678443 0.4286772
-0.03664409 0.0048665279 0.4285692
-0.036266942 0.0048665185 0.42857614
-0.035884231 0.0048657553 0.42851663
-0.035488121 0.0048631397 0.42829385
-0.035105031 0.0048622712 0.42822492
-0.034726761 0.0048620584 0.42821363
-0.034335062 0.0048599411 0.42803448
-0.033938479 0.0048570782 0.42778957
-0.033554092 0.004855915 0.42769438
-0.033174247 0.0048553916 0.42765537
-0.032795306 0.0048549892 0.42762691
-0.032419309 0.004855019 0.42763647
-0.03204193 0.0048548407 0.42762762
-0.031666365 0.0048549352 0.42764273
-0.031281475 0.0048535862 0.42753059
-0.030886086 0.0048505561 0.42727026
-0.030499725 0.0048488858 0.42712966
-0.030110575 0.0048467261 0.42694581
-0.029731967 0.0048462297 0.42690837
-0.029345777 0.0048444695 0.4267596
-0.028958187 0.004842429 0.42658603
-0.028573114 0.0048407628 0.42644528
-0.028194701 0.0048401942 0.42640126
-0.027799044 0.004836611 0.42609146
-0.027417032 0.004835336 0.42598498
-0.027048813 0.0048364932 0.42609262
-0.026688276 0.0048390757 0.4263258
-0.026329411 0.0048420387 0.42659244
-0.0753024 0.0053935107 0.43963224
-0.074905112 0.0053928192 0.43959147
-0.07451757 0.0053928266 0.43960753
-0.074100375 0.0053906762 0.4394477
-0.073694482 0.0053893304 0.43935335
-0.073261075 0.0053859483 0.43909287
-0.072873294 0.0053859013 0.43910423
-0.072464548 0.0053842971 0.43898857
-0.072062604 0.0053831842 0.43891284
-0.07163094 0.0053798263 0.43865407
-0.07124301 0.0053797346 0.43866146
-0.07084132 0.0053785979 0.43858358
-0.070430659 0.0053767632 0.43844876
-0.07003098 0.0053757522 0.43838099
-0.069604069 0.0053726281 0.43814081
-0.0691958 0.0053709154 0.43801567
-0.068800516 0.0053701978 0.43797156
-0.068376981 0.0053672558 0.43774596
-0.067977652 0.0053661903 0.43767333
-0.067580827 0.0053653112 0.43761584
-0.067170866 0.0053633736 0.43747196
-0.066753209 0.0053607957 0.43727574
-0.066354379 0.0053597083 0.43720099
-0.065940179 0.0053573605 0.43702337
-0.065534204 0.0053556561 0.43689817
-0.065121517 0.0053533809 0.4367263
-0.064744055 0.0053539923 0.43678978
-0.064335234 0.0053520016 0.43664098
-0.06391377 0.0053489292 0.43640384
-0.063514575 0.0053476943 0.43631649
-0.06310793 0.0053458144 0.43617642
-0.062711261 0.0053447606 0.43610376
-0.062313214 0.005343576 0.43602028
-0.061923429 0.0053430907 0.43599376
-0.061514717 0.0053409552 0.43583259
-0.061110273 0.0053391661 0.43569952
-0.06072006 0.005338606 0.43566668
-0.060309026 0.0053361966 0.43548286
-0.059913374 0.0053351265 0.43540823
-0.059502471 0.0053326753 0.43522084
-0.059115812 0.0053323796 0.43520924
-0.058710214 0.005330361 0.43505695
-0.058308445 0.0053286655 0.43493098
-0.057915825 0.00532779 0.43487182
-0.057516962 0.0053263241 0.43476444
-0.05710372 0.0053234976 0.4345459
-0.056713507 0.0053227958 0.43450063
-0.056318376 0.00532162 0.43441665
-0.055925973 0.0053206873 0.43435243
-0.055517424 0.0053181951 0.4341608
-0.055106267 0.005315417 0.43394575
-0.054717407 0.0053147655 0.43390423
-0.054317601 0.0053130346 0.4337745
-0.05392218 0.0053117117 0.433678
-0.053544331 0.0053121131 0.43372223
-0.053141154 0.0053099901 0.43356022
-0.05274706 0.0053087492 0.43347019
-0.052356541 0.0053078542 0.43340826
-0.051951524 0.0053054653 0.43322429
-0.051542241 0.005302602 0.43300152
-0.05114245 0.0053006806 0.43285555
-0.050765775 0.005301143 0.43290421
-0.050373677 0.005299991 0.43282089
-0.049964275 0.005296987 0.43258628
-0.049574208 0.0052960026 0.43251646
-0.049181018 0.0052946666 0.43241787
-0.048771955 0.0052915877 0.43217689
-0.04838929 0.0052913479 0.43216762
-0.047982492 0.0052884435 0.4319407
-0.047602057 0.0052884221 0.43194917
-0.04721858 0.0052880603 0.43192968
-0.046830181 0.0052871364 0.43186429
-0.04640748 0.0052822935 0.43147865
-0.046018716 0.0052812654 0.43140453
-0.045628235 0.005280022 0.43131274
-0.045248285 0.0052799857 0.43131948
-0.044846963 0.0052774353 0.43112072
-0.04444667 0.0052749631 0.43092832
-0.044054851 0.0052734632 0.43081522
-0.043657016 0.0052712108 0.43064058
-0.043263663 0.0052694646 0.43050721
-0.042893033 0.0052704797 0.43059933
-0.042501319 0.0052688997 0.43047938
-0.042113874 0.0052678245 0.43040058
-0.041731838 0.0052674143 0.43037593
-0.041321781 0.0052634268 0.43005902
-0.040934186 0.0052622533 0.42997193
-0.040542748 0.0052605597 0.4298422
-0.040171932 0.0052615344 0.42993048
-0.039767947 0.0052581429 0.42966187
-0.03938232 0.0052571367 0.42958814
-0.038995031 0.0052558873 0.42949435
-0.038598727 0.0052533876 0.42929834
-0.03822615 0.0052540982 0.42936462
-0.037832089 0.0052518416 0.42918831
-0.03743834 0.0052495832 0.42901179
-0.037056923 0.0052490258 0.42897418
-0.036667816 0.0052473568 0.42884561
-0.036284976 0.0052465596 0.42878821
-0.03587855 0.0052422993 0.42844772
-0.035508674 0.0052433456 0.42854083
-0.035128962 0.0052429466 0.42851573
-0.034735963 0.0052405349 0.42832604
-0.034357358 0.0052402653 0.42831138
-0.033962119 0.0052374252 0.42808649
-0.033571173 0.005235191 0.42791101
-0.033178627 0.005232654 0.42771074
-0.032799527 0.0052322033 0.42768091
-0.032420341 0.0052317292 0.42764905
-0.032041039 0.005231224 0.42761463
-0.031662859 0.0052308934 0.42759436
-0.031276129 0.0052291248 0.42745644
-0.030881189 0.0052259252 0.42720148
-0.030499285 0.0052248798 0.42712247
-0.030112419 0.0052229473 0.4269709
-0.029727729 0.0052213483 0.42684653
-0.029348854 0.0052207434 0.42680329
-0.028966729 0.0052195373 0.42671081
-0.028584462 0.0052182735 0.4266136
-0.028203409 0.0052172011 0.42653188
-0.027817804 0.0052152462 0.42637795
-0.027432235 0.0052132453 0.42622018
-0.027070116 0.0052157068 0.42642716
-0.0266956 0.0052158167 0.42644173
-0.026334537 0.0052185943 0.42667446
-0.074943818 0.0057839206 0.43981746
-0.074517734 0.0057809539 0.43960732
-0.074112304 0.0057795672 0.43951726
-0.073735036 0.0057803746 0.43959397
-0.073327273 0.0057787863 0.43948844
-0.072904311 0.0057759774 0.43928999
-0.072496466 0.0057743425 0.43918076
-0.072070882 0.0057712705 0.43896207
-0.071666367 0.0057698609 0.4388698
-0.071251296 0.0057675825 0.43871137
-0.070854895 0.0057667973 0.43866646
-0.070461407 0.0057662437 0.43863904
-0.070051484 0.0057643303 0.43850815
-0.069632001 0.0057616062 0.43831548
-0.069243416 0.0057614218 0.43831593
-0.068814471 0.005757859 0.43805924
-0.068433806 0.0057583186 0.43810856
-0.068007015 0.0057548792 0.43786114
-0.067612447 0.0057541449 0.43781945
-0.067207851 0.0057525421 0.4377116
-0.066798843 0.005750542 0.43757349
-0.066396654 0.0057491087 0.43747836
-0.06599319 0.0057475488 0.43737352
-0.065604828 0.0057472931 0.43736783
-0.065225258 0.0057478095 0.43742087
-0.06272807 0.0057309647 0.43621948
-0.062321413 0.0057289139 0.43607655
-0.061921265 0.0057274392 0.4359774
-0.061543088 0.005727991 0.43603241
-0.061140593 0.0057262732 0.43591455
-0.060754251 0.0057260557 0.43591085
-0.060342856 0.0057234592 0.43572599
-0.059934225 0.0057210936 0.43555856
-0.059537202 0.005719814 0.43547371
-0.059128605 0.0057173972 0.43530229
-0.058749054 0.0057177763 0.43534359
-0.058325756 0.0057138754 0.43505892
-0.057929397 0.0057125795 0.43497255
-0.057522546 0.0057102237 0.43480542
-0.057143968 0.0057106633 0.43485102
-0.056728099 0.0057073566 0.43461126
-0.056347717 0.0057076002 0.43464178
-0.055945124 0.0057055815 0.43449998
-0.055554438 0.0057047587 0.43444911
-0.055159982 0.0057035335 0.43436757
-0.054744657 0.0057001193 0.43411916
-0.054339498 0.005697723 0.43394825
-0.0539441 0.0056963237 0.43385315
-0.053544395 0.0056944462 0.43372157
-0.053154439 0.0056935865 0.43366739
-0.052765775 0.0056928541 0.43362284
-0.052359518 0.0056901989 0.43343177
-0.05197221 0.0056895791 0.43339562
-0.051556733 0.0056858445 0.43312213
-0.051166646 0.005684874 0.43305916
-0.050771222 0.0056832922 0.43294948
-0.050375443 0.0056816475 0.43283492
-0.049979355 0.0056799417 0.43271562
-0.049590111 0.0056789941 0.43265405
-0.049194407 0.0056772865 0.43253446
-0.048805665 0.0056763617 0.43247443
-0.048414044 0.0056750849 0.4323875
-0.048002776 0.0056714672 0.43212214
-0.047614835 0.0056705703 0.43206394
-0.047232002 0.0056702718 0.43205133
-0.046833251 0.0056680427 0.43189144
-0.046440355 0.0056664911 0.43178314
-0.046042219 0.005664269 0.4316237
-0.045650482 0.005662804 0.43152186
-0.045254886 0.0056608324 0.43138129
-0.044866655 0.0056597567 0.43130887
-0.044484686 0.0056594596 0.43129575
-0.044085044 0.0056568896 0.43110931
-0.043688025 0.005654614 0.43094525
-0.043296039 0.0056529562 0.43082818
-0.042920385 0.0056534205 0.43087274
-0.042513903 0.0056497972 0.43060565
-0.042137157 0.0056500952 0.43063739
-0.041744195 0.0056482046 0.43050224
-0.041349255 0.0056460095 0.43034378
-0.040951211 0.0056433463 0.43014956
-0.040569387 0.00564289 0.43012345
-0.040172216 0.0056402697 0.42993236
-0.039795402 0.0056404867 0.42995736
-0.039406873 0.0056390301 0.42985478
-0.039011277 0.0056365249 0.42967212
-0.038619936 0.005634591 0.42953297
-0.038228258 0.0056325714 0.42938718
-0.037848454 0.0056322771 0.42937282
-0.037459329 0.0056305751 0.4292511
-0.037065607 0.0056281425 0.42907354
-0.036688145 0.0056281532 0.42908221
-0.036292356 0.0056253234 0.42887422
-0.035907451 0.0056241401 0.4287917
-0.035518888 0.005622352 0.42866293
-0.035128973 0.0056203096 0.42851472
-0.034751605 0.0056202523 0.42851776
-0.034368716 0.0056192917 0.42845184
-0.033970226 0.0056157303 0.42818752
-0.033603799 0.0056174486 0.42832571
-0.033197448 0.0056124576 0.42795223
-0.032805149 0.005609754 0.42775309
-0.03243202 0.0056103044 0.42780194
-0.032041889 0.0056078923 0.42762485
-0.031670753 0.0056087868 0.42769977
-0.031285886 0.0056072432 0.42758867
-0.030895207 0.0056046066 0.42739421
-0.030515831 0.0056039817 0.42735302
-0.030115547 0.0055994531 0.42701411
-0.029747846 0.0056009451 0.42713419
-0.029358588 0.0055983653 0.42694366
-0.028975062 0.0055968259 0.42683241
-0.028589675 0.0055948831 0.42669028
-0.028201438 0.005592322 0.42650092
-0.027826456 0.0055923564 0.42650944
-0.027448967 0.0055918815 0.42647901
-0.027073126 0.0055917338 0.42647347
-0.026698139 0.0055917613 0.42648116
-0.074952491 0.0061729504 0.43986717
-0.074551314 0.0061718505 0.43980423
-0.074156135 0.0061712386 0.43977597
-0.073754907 0.0061701145 0.43971118
-0.073359907 0.0061695026 0.43968281
-0.072938323 0.0061666365 0.43949366
-0.072547667 0.0061663692 0.43948969
-0.072145335 0.0061651007 0.43941426
-0.071714945 0.006161409 0.43916607
-0.071295038 0.0061585819 0.43897939
-0.070889719 0.0061569917 0.43888083
-0.070490792 0.0061559426 0.43882072
-0.070069402 0.0061529092 0.43861911
-0.069675744 0.0061522904 0.43858957
-0.069264039 0.0061500627 0.43844521
-0.068856828 0.0061482117 0.43832764
-0.068454325 0.006146763 0.43823865
-0.068032525 0.0061435546 0.43802413
-0.067631304 0.0061421795 0.43794027
-0.06722606 0.0061404216 0.43782899
-0.066821672 0.006138721 0.43772173
-0.066415161 0.0061368053 0.43759906
-0.066057324 0.0061393911 0.43779734
-0.061932191 0.0061130524 0.43605304
-0.061552312 0.0061134798 0.43609649
-0.061155867 0.0061122575 0.43602222
-0.060765915 0.0061116721 0.43599328
-0.060358949 0.0061093578 0.43584093
-0.059956636 0.0061074882 0.43572021
-0.059567235 0.0061069177 0.4356921
-0.05916439 0.0061049531 0.43556449
-0.058753055 0.0061020814 0.43537199
-0.058361981 0.0061012893 0.43532789
-0.057958465 0.0060991794 0.43518957
-0.057566538 0.0060982681 0.43513674
-0.05716395 0.0060962075 0.43500185
-0.056759994 0.0060939728 0.43485439
-0.056359619 0.0060920944 0.43473232
-0.055959128 0.0060901791 0.43460751
-0.055566557 0.0060891039 0.43454257
-0.055169158 0.0060874824 0.43443859
-0.054776497 0.0060863639 0.4343704
-0.054358646 0.0060824123 0.43409991
-0.05398104 0.006082939 0.434149
-0.053585265 0.0060814125 0.43405139
-0.053174831 0.0060781874 0.43383256
-0.052770756 0.0060756481 0.4336625
-0.05238241 0.0060748965 0.43362001
-0.051992334 0.0060739317 0.43356222
-0.051597692 0.0060724155 0.43346497
-0.051186912 0.0060689636 0.43322942
-0.050803646 0.0060687456 0.43322474
-0.050388992 0.0060647484 0.43295011
-0.05000985 0.0060649957 0.43297842
-0.049609452 0.0060626501 0.43282154
-0.049205363 0.0060598138 0.43262956
-0.048823431 0.0060596829 0.43263063
-0.048423994 0.0060573611 0.43247515
-0.04803573 0.0060564107 0.43241754
-0.047646973 0.006055383 0.43235433
-0.047237482 0.0060516819 0.43210015
-0.046851963 0.0060510184 0.43206275
-0.046465259 0.006050189 0.43201345
-0.046071317 0.0060483958 0.43189523
-0.045668073 0.006045341 0.43168685
-0.045277212 0.0060438886 0.43159282
-0.044883318 0.0060420046 0.43146783
-0.044498622 0.0060413354 0.43142959
-0.044111896 0.006040378 0.43137065
-0.043717522 0.0060383482 0.43123499
-0.043328401 0.0060370136 0.43114892
-0.042934984 0.0060350522 0.43101802
-0.042532407 0.0060317577 0.4307918
-0.042152632 0.0060316669 0.4307943
-0.041765559 0.00603052 0.43072131
-0.041369494 0.0060280426 0.43055323
-0.040965866 0.0060244063 0.43030223
-0.040581282 0.0060235308 0.43024835
-0.040193807 0.0060222042 0.43016219
-0.039804541 0.0060205827 0.43005484
-0.039412566 0.0060185161 0.42991564
-0.039030243 0.0060178977 0.42987981
-0.038635954 0.0060154046 0.42970997
-0.038241755 0.0060128761 0.4295375
-0.037863098 0.0060127657 0.42953768
-0.037465762 0.0060096569 0.42932361
-0.037082847 0.0060088225 0.42927188
-0.036698643 0.0060077589 0.42920378
-0.036316279 0.0060069785 0.42915574
-0.035920531 0.0060039442 0.42894661
-0.035539355 0.0060033081 0.42890874
-0.035147492 0.0060008331 0.42873937
-0.034760907 0.0059992154 0.42863119
-0.034378648 0.0059983176 0.42857441
-0.033984296 0.0059952666 0.42836359
-0.033598904 0.0059937458 0.42826208
-0.033219852 0.0059933346 0.42823976
-0.032819107 0.005988955 0.42793381
-0.032450646 0.005990434 0.42804641
-0.03206389 0.0059885303 0.42791718
-0.031679615 0.0059870519 0.42781827
-0.031292021 0.0059849024 0.42767128
-0.030904138 0.0059826453 0.42751658
-0.030518081 0.00598069 0.4273833
-0.030132992 0.0059788781 0.42726022
-0.029754242 0.0059782946 0.42722481
-0.029370524 0.0059766858 0.42711607
-0.028995426 0.0059768115 0.42713118
-0.028602688 0.0059732576 0.42688325
-0.028222928 0.0059723551 0.42682472
-0.0278382 0.005970363 0.42668822
-0.027465848 0.005971008 0.42674005
-0.027092297 0.0059714057 0.4267742
-0.026723996 0.0059729889 0.426893
-0.07457421 0.0065621561 0.43993798
-0.074193701 0.0065628146 0.43999743
-0.073796101 0.0065619601 0.43995544
-0.073393591 0.0065606581 0.43988332
-0.072971523 0.0065575847 0.43969241
-0.072572678 0.006556577 0.4396399
-0.072161689 0.0065544555 0.43951261
-0.071735419 0.0065509151 0.43929014
-0.071323402 0.0065486454 0.43915275
-0.070928782 0.0065479572 0.43912134
-0.070513085 0.0065453053 0.43895817
-0.070104547 0.0065432927 0.43883774
-0.069697157 0.0065413658 0.43872306
-0.069290899 0.0065395236 0.43861392
-0.068887927 0.0065379729 0.43852434
-0.068488009 0.0065366961 0.43845296
-0.068075903 0.006534236 0.43830216
-0.067693837 0.0065346472 0.43834388
-0.067247413 0.0065288148 0.4379667
-0.066846602 0.0065273698 0.43788376
-0.066494428 0.0065306844 0.43812007
-0.066178806 0.0065376488 0.43860108
-0.065822534 0.0065406561 0.43881664
-0.061544102 0.0064972439 0.436037
-0.06117022 0.0064983363 0.43612322
-0.060772169 0.0064968588 0.43603685
-0.060382135 0.0064962246 0.43600702
-0.059991021 0.0064954655 0.43596879
-0.059604671 0.0064952164 0.43596461
-0.05919065 0.0064919288 0.43575647
-0.058792233 0.0064903223 0.43566102
-0.058374882 0.00648659 0.43542281
-0.057985459 0.0064859325 0.43539092
-0.057580441 0.0064835101 0.43524051
-0.057197966 0.0064836112 0.43525937
-0.056788143 0.0064805923 0.43506876
-0.056373823 0.0064770165 0.43484062
-0.055986278 0.006476488 0.43481702
-0.055579185 0.0064736768 0.43464002
-0.055192944 0.0064732721 0.43462458
-0.0547892 0.0064707943 0.43446979
-0.054384135 0.0064681252 0.43430215
-0.053976867 0.0064651542 0.4341141
-0.053605657 0.0064664907 0.43421522
-0.053206719 0.0064644776 0.43409133
-0.05280254 0.006461795 0.43392238
-0.0523974 0.0064589544 0.43374276
-0.052005176 0.0064576757 0.43366796
-0.051604308 0.0064552976 0.43351921
-0.051217183 0.0064546154 0.43348429
-0.050826922 0.0064535257 0.43342191
-0.050421588 0.006450491 0.43322882
-0.050027918 0.0064489138 0.43313354
-0.049602527 0.0064431918 0.43275979
-0.04923277 0.0064446642 0.43286914
-0.04883755 0.0064428016 0.4327544
-0.048448469 0.0064417254 0.43269241
-0.04804321 0.006438463 0.43248355
-0.047665045 0.0064388099 0.43251696
-0.047272887 0.0064372569 0.43242273
-0.046867542 0.0064338678 0.43220508
-0.046482213 0.006433194 0.43216971
-0.046085276 0.0064308909 0.43202478
-0.045688387 0.0064285556 0.43187761
-0.04530327 0.0064278501 0.43183991
-0.044898577 0.006424333 0.43161318
-0.04451732 0.0064241374 0.43160954
-0.044111509 0.006420366 0.43136552
-0.043733038 0.006420542 0.43138671
-0.043342657 0.0064189583 0.43128949
-0.042937893 0.0064151967 0.43104592
-0.04255572 0.0064147743 0.43102664
-0.042170543 0.0064138882 0.43097603
-0.041761607 0.0064093387 0.43067923
-0.041379258 0.0064088241 0.43065348
-0.040994562 0.0064079333 0.43060237
-0.040606488 0.0064064926 0.43051422
-0.04020299 0.0064025694 0.43025917
-0.039822161 0.0064022164 0.43024394
-0.039438542 0.0064014029 0.43019763
-0.039048702 0.0063995556 0.43008181
-0.03865793 0.0063975169 0.42995304
-0.038255006 0.0063934075 0.429685
-0.037875105 0.006393102 0.42967254
-0.037491392 0.0063921427 0.42961606
-0.037105389 0.0063907672 0.42953151
-0.03671933 0.0063893553 0.4294444
-0.036325648 0.006386573 0.42926514
-0.035943262 0.0063857394 0.42921677
-0.035541408 0.0063813929 0.42893219
-0.035159662 0.0063806027 0.42888653
-0.03478292 0.0063807135 0.42890137
-0.03439194 0.0063781864 0.4287388
-0.033997811 0.0063750125 0.42853269
-0.033617407 0.0063743703 0.42849663
-0.033230357 0.0063724392 0.4283739
-0.032842122 0.0063702334 0.42823261
-0.032462828 0.0063697333 0.42820585
-0.032078009 0.006368123 0.4281044
-0.031690102 0.0063658543 0.42795858
-0.031310167 0.0063651521 0.42791799
-0.030919386 0.0063622012 0.42772618
-0.030535115 0.0063605341 0.42762053
-0.030157672 0.0063602654 0.42760888
-0.029761475 0.0063559846 0.42732739
-0.029385481 0.006355965 0.42733228
-0.029007386 0.0063554854 0.42730612
-0.02861275 0.0063513196 0.42703211
-0.028234934 0.0063508283 0.42700496
-0.027852058 0.0063491701 0.42689937
-0.027482716 0.0063505932 0.42700082
-0.027101703 0.0063493233 0.42692113
-0.074202269 0.0069520678 0.44004691
-0.073806196 0.0069513111 0.44001424
-0.07340923 0.0069504618 0.43997571
-0.072988637 0.0069473563 0.43979418
-0.072594978 0.0069467933 0.43977359
-0.072186887 0.0069448366 0.43966466
-0.071776107 0.0069425986 0.43953788
-0.071379028 0.0069416692 0.43949383
-0.070955157 0.0069381092 0.43928322
-0.070539005 0.0069352705 0.43911809
-0.070145428 0.0069346321 0.43909228
-0.069724411 0.0069312598 0.43889323
-0.069325656 0.0069300733 0.43883252
-0.068915784 0.0069277575 0.43870026
-0.068515584 0.0069263936 0.43862814
-0.06810315 0.0069237696 0.4384762
-0.067706995 0.0069227805 0.43842769
-0.067313224 0.0069220262 0.43839392
-0.066918321 0.0069211456 0.43835214
-0.06657885 0.0069260206 0.43867484
-0.066237934 0.0069308034 0.43899158
-0.061158627 0.0068816752 0.43603912
-0.060796812 0.0068842066 0.43621227
-0.06040521 0.0068833744 0.43617225
-0.060013935 0.0068825688 0.43613389
-0.059606589 0.0068798992 0.43597725
-0.059207179 0.0068781166 0.43587676
-0.058821082 0.006877867 0.43587336
-0.058410719 0.0068747592 0.43568873
-0.058006708 0.0068723625 0.43554908
-0.057618555 0.0068718242 0.43552715
-0.057213463 0.0068692463 0.43537587
-0.056820825 0.0068681398 0.4353177
-0.056409061 0.0068646902 0.43511102
-0.056003358 0.0068619363 0.43494824
-0.055629123 0.0068630264 0.43502915
-0.055208202 0.0068583321 0.43474329
-0.054803785 0.0068556373 0.43458405
-0.054406606 0.0068538175 0.43448016
-0.05401149 0.0068522324 0.43439114
-0.053620726 0.0068511809 0.43433589
-0.053220589 0.006848909 0.43420309
-0.052824855 0.0068471753 0.43410438
-0.052438572 0.0068466496 0.43408218
-0.05203462 0.0068437918 0.43391204
-0.051624142 0.0068400293 0.43368441
-0.051236164 0.006839213 0.43364355
-0.050830685 0.0068360316 0.43345258
-0.050439935 0.0068347971 0.43338504
-0.050055519 0.0068344097 0.4333711
-0.049651854 0.006831368 0.43318874
-0.049262755 0.0068302979 0.4331314
-0.048858613 0.0068271104 0.43293965
-0.048466504 0.0068255672 0.43285206
-0.048078541 0.0068245884 0.4328002
-0.047683559 0.0068225889 0.43268359
-0.047282629 0.0068197004 0.43251041
-0.046900861 0.0068195509 0.43251094
-0.046507072 0.0068176375 0.43239945
-0.046106625 0.0068147089 0.43222347
-0.045702539 0.0068111881 0.43200994
-0.045328066 0.0068120589 0.43207482
-0.044919558 0.0068077883 0.43181351
-0.044538047 0.0068075694 0.43180913
-0.044139493 0.006804721 0.43163779
-0.043750152 0.0068032555 0.43155414
-0.043362692 0.0068020592 0.43148747
-0.042963702 0.0067990171 0.43130365
-0.04257996 0.0067983549 0.43127075
-0.042180456 0.0067951432 0.43107596
-0.041792929 0.0067938198 0.43100086
-0.041402254 0.0067919549 0.43089142
-0.041008495 0.0067895469 0.43074733
-0.040613741 0.0067869262 0.43058974
-0.040228829 0.0067859171 0.43053427
-0.039846864 0.0067853909 0.43050936
-0.039456431 0.0067834002 0.43039146
-0.039057877 0.0067799594 0.43018141
-0.038675584 0.0067793024 0.43014798
-0.03827665 0.0067756874 0.42992672
-0.037896428 0.0067753452 0.4299131
-0.037504219 0.0067728325 0.42976162
-0.037117388 0.0067712483 0.42966899
-0.036732025 0.0067699025 0.42959142
-0.036335144 0.0067663854 0.42937595
-0.035959285 0.0067667505 0.4294067
-0.035568517 0.0067642867 0.42925793
-0.035168469 0.0067599867 0.42899251
-0.034794416 0.0067606452 0.42904171
-0.034395635 0.0067564608 0.42878345
-0.034016971 0.0067561795 0.42877281
-0.033635307 0.0067552887 0.42872342
-0.033242743 0.006752165 0.42853218
-0.032854918 0.0067499434 0.42839813
-0.032467809 0.0067478176 0.4282701
-0.032085266 0.0067466027 0.4281998
-0.031700306 0.0067448453 0.42809501
-0.031320013 0.0067440509 0.4280512
-0.030938307 0.0067429296 0.42798653
-0.030551869 0.0067407363 0.42785379
-0.030164601 0.0067383042 0.42770573
-0.029777048 0.0067357444 0.42754963
-0.029398117 0.0067350967 0.42751464
-0.029010279 0.0067323647 0.42734736
-0.028624674 0.0067300848 0.42720872
-0.028242214 0.0067284955 0.42711374
-0.027875286 0.0067306138 0.42725402
-0.027491432 0.0067286459 0.42713493
-0.073815443 0.0073406841 0.44006795
-0.073419891 0.0073399334 0.44003811
-0.073030405 0.0073397849 0.44004431
-0.072615258 0.0073370449 0.43989497
-0.0722275 0.0073370542 0.43991056
-0.071795747 0.0073325718 0.43965665
-0.071388595 0.007330568 0.43955129
-0.070980743 0.0073284698 0.43944016
-0.070572205 0.0073262765 0.43932331
-0.070161924 0.0073238779 0.43919405
-0.069751881 0.0073214783 0.43906462
-0.069333419 0.0073181628 0.43888021
-0.068935461 0.0073169875 0.43882403
-0.06854412 0.0073165051 0.43880937
-0.068153061 0.0073160469 0.43879607
-0.067738608 0.0073130573 0.43863091
-0.067347631 0.0073125833 0.43861651
-0.066992342 0.0073160017 0.4388355
-0.066625617 0.0073182043 0.4389815
-0.065885544 0.00732195 0.43923384
-0.060819305 0.0072716093 0.43637216
-0.060440663 0.0072723073 0.43642679
-0.060051046 0.0072716852 0.43640211
-0.059654377 0.0072701969 0.43632531
-0.059238128 0.0072662868 0.43610311
-0.058827713 0.0072630458 0.43592098
-0.058429677 0.0072613014 0.43582863
-0.058025707 0.0072587919 0.43569022
-0.057633374 0.0072577153 0.43563771
-0.057225917 0.0072547053 0.43546915
-0.05685021 0.0072557083 0.43554133
-0.056443356 0.0072527225 0.43537402
-0.056035753 0.0072495998 0.4351984
-0.055641353 0.0072481525 0.43512329
-0.055240735 0.0072458712 0.43499798
-0.054842189 0.0072438316 0.43488711
-0.05444359 0.0072417562 0.43477404
-0.054033097 0.0072380579 0.43456346
-0.053649724 0.0072379657 0.43456927
-0.053241853 0.007234545 0.43437508
-0.052839112 0.0072317752 0.43422005
-0.052459624 0.0072321729 0.43425497
-0.052053936 0.0072289351 0.43407166
-0.051651187 0.0072260643 0.43391016
-0.051253382 0.007223845 0.43378779
-0.050856356 0.0072217039 0.43366998
-0.05045446 0.0072188345 0.43350837
-0.050074805 0.0072191274 0.43353659
-0.049677186 0.0072168154 0.43340826
-0.049280968 0.0072146724 0.43329003
-0.048875775 0.0072111725 0.43309021
-0.048487362 0.0072101126 0.43303683
-0.048101217 0.0072093764 0.43300283
-0.047704972 0.0072071021 0.43287638
-0.047310073 0.0072049978 0.43276
-0.046916079 0.0072029978 0.43264982
-0.046514072 0.0071997242 0.43246308
-0.046127252 0.0071987663 0.43241534
-0.045726258 0.0071955635 0.43223268
-0.045337159 0.0071941945 0.43216008
-0.044938307 0.0071912422 0.43199226
-0.044549379 0.0071898405 0.43191752
-0.044155035 0.0071875327 0.43178827
-0.043774061 0.0071873809 0.43178844
-0.043365769 0.0071827015 0.43151656
-0.042980686 0.0071818186 0.43147266
-0.042599868 0.0071816389 0.4314709
-0.042198535 0.0071779666 0.43125921
-0.04181385 0.0071770842 0.43121511
-0.04141663 0.0071740155 0.43103954
-0.041019931 0.0071709813 0.43086597
-0.040634457 0.0071698707 0.43080789
-0.040244184 0.0071678851 0.43069711
-0.039858595 0.0071667046 0.43063465
-0.039471306 0.0071651922 0.43055215
-0.03908379 0.0071636098 0.43046537
-0.038692039 0.0071612131 0.43032956
-0.038291723 0.007157167 0.43009457
-0.037914693 0.0071574366 0.4301188
-0.037514016 0.0071532028 0.42987233
-0.037129175 0.0071519339 0.42980397
-0.036742706 0.0071503227 0.42971492
-0.036354337 0.007148304 0.42960128
-0.035970397 0.0071471222 0.42953792
-0.035576645 0.0071439459 0.42935455
-0.035189878 0.0071421191 0.42925224
-0.03480703 0.0071410565 0.42919576
-0.0344241 0.0071399547 0.42913684
-0.034036599 0.0071378695 0.42901871
-0.033643886 0.0071346331 0.42883131
-0.033259511 0.0071331104 0.42874685
-0.032861419 0.0071285791 0.42848146
-0.03248889 0.0071295509 0.42854673
-0.032102037 0.0071273665 0.42842218
-0.031714436 0.0071249623 0.42828438
-0.03133633 0.0071246587 0.42827272
-0.030945547 0.0071214307 0.42808524
-0.030560303 0.0071194139 0.42797047
-0.030175751 0.0071175112 0.42786241
-0.029784368 0.007113928 0.42765325
-0.029404221 0.007112971 0.42760196
-0.029027127 0.0071127382 0.42759407
-0.028636793 0.0071092127 0.42738816
-0.028272489 0.0071121417 0.42757016
-0.073430151 0.0077294763 0.44009808
-0.073040575 0.0077293166 0.44010407
-0.072644167 0.0077284295 0.44006851
-0.072241843 0.0077268993 0.43999633
-0.07183852 0.0077252463 0.43991706
-0.071421497 0.0077220933 0.43975225
-0.07100638 0.007719114 0.43959728
-0.070619203 0.0077191563 0.43961436
-0.070181958 0.0077136955 0.43931791
-0.069795668 0.0077138063 0.43933868
-0.069369934 0.0077095344 0.43910977
-0.068969063 0.007707994 0.43903634
-0.068571828 0.0077068442 0.43898514
-0.06818109 0.0077064172 0.43897495
-0.06776268 0.0077028386 0.43878523
-0.067373715 0.0077025867 0.43878487
-0.067031294 0.0077076824 0.43908915
-0.066679172 0.0077117155 0.43933278
-0.06632103 0.0077150958 0.43953922
-0.060065724 0.0076584169 0.43650717
-0.059663601 0.0076561621 0.4363912
-0.059265915 0.0076544504 0.43630609
-0.05884552 0.0076497649 0.43605143
-0.058448017 0.007648014 0.43596387
-0.058061481 0.0076476843 0.43595728
-0.057668135 0.0076464461 0.4358989
-0.057261758 0.0076434542 0.43574035
-0.056850325 0.0076397415 0.43554068
-0.056461696 0.0076390631 0.43551391
-0.056072388 0.0076382845 0.43548134
-0.055657756 0.0076340209 0.43525001
-0.055257749 0.0076317177 0.43513036
-0.0548696 0.0076310332 0.43510291
-0.05447768 0.0076298108 0.43504471
-0.054051343 0.0076237158 0.4347086
-0.053657603 0.0076221661 0.43463156
-0.053271968 0.0076217521 0.43461922
-0.052858729 0.0076173553 0.43437967
-0.052481391 0.007618106 0.43443358
-0.052097324 0.0076178838 0.43443191
-0.051682476 0.0076131243 0.43417141
-0.051283356 0.0076106275 0.43403992
-0.050889041 0.0076088132 0.43394718
-0.050490763 0.0076063732 0.43381873
-0.050106253 0.0076059867 0.43380731
-0.049677745 0.0075988644 0.4334116
-0.049290825 0.0075980425 0.43337515
-0.048896041 0.0075959857 0.43326822
-0.048513744 0.0075958529 0.4332709
-0.04811516 0.0075931479 0.43312681
-0.0477181 0.0075906422 0.43299398
-0.047332089 0.0075898664 0.43295979
-0.046937224 0.0075876485 0.43284324
-0.046536751 0.0075844801 0.43267235
-0.046141751 0.0075821597 0.43254974
-0.045753546 0.0075809257 0.43248907
-0.045349263 0.0075769844 0.43227386
-0.044977926 0.0075785285 0.4323715
-0.044579286 0.0075754593 0.43220589
-0.044176765 0.0075716735 0.43199924
-0.043786626 0.0075699617 0.43191081
-0.043396004 0.0075681359 0.43181589
-0.042991553 0.0075638448 0.43158016
-0.042607184 0.007563042 0.43154344
-0.04221594 0.0075609935 0.4314355
-0.04182804 0.0075595132 0.43135989
-0.041440096 0.0075579965 0.43128216
-0.041051205 0.0075562792 0.43119287
-0.040649507 0.0075521506 0.43096587
-0.040260978 0.0075504142 0.43087533
-0.039872456 0.0075486447 0.43078282
-0.03948972 0.007547948 0.43075147
-0.039103307 0.0075465282 0.43067876
-0.038710337 0.0075438046 0.4305315
-0.038319688 0.0075414823 0.43040711
-0.03792125 0.0075375671 0.4301917
-0.037539288 0.0075368797 0.4301604
-0.0371507 0.007534836 0.43005162
-0.036757652 0.0075318357 0.42988816
-0.036370754 0.0075300462 0.42979375
-0.035989314 0.0075293616 0.4297623
-0.03559782 0.0075265365 0.42960858
-0.035209566 0.0075243441 0.42949086
-0.034821846 0.0075222189 0.42937693
-0.034441482 0.0075216535 0.42935196
-0.034047183 0.007518 0.42915064
-0.03366489 0.0075169443 0.42909747
-0.033269424 0.0075128907 0.42887312
-0.032887448 0.0075118258 0.42881924
-0.032501761 0.0075098793 0.42871499
-0.032120243 0.0075088595 0.42866361
-0.031739447 0.0075079892 0.42862061
-0.031349439 0.0075048921 0.42845038
-0.030955737 0.0075008241 0.42822468
-0.030573778 0.007499537 0.42815766
-0.03019109 0.0074980375 0.42807838
-0.02980273 0.0074950727 0.42791539
-0.029414767 0.0074921343 0.42775381
-0.029048011 0.0074945907 0.42790014
-0.028666761 0.0074933236 0.42783383
-0.028313549 0.0074994504 0.42818958
-0.073046081 0.0081184385 0.44013563
-0.072653912 0.0081179831 0.44012591
-0.072262809 0.0081176432 0.4401224
-0.071859449 0.0081159165 0.4400436
-0.071466513 0.008115354 0.44002786
-0.071055479 0.0081127184 0.43989968
-0.070635624 0.0081090424 0.43971497
-0.070224591 0.0081063434 0.43958315
-0.069828004 0.0081052911 0.43954057
-0.069375381 0.0080976887 0.43914267
-0.069003075 0.0080994274 0.43925124
-0.06861186 0.0080989525 0.43923977
-0.068211697 0.008097413 0.43917042
-0.067818016 0.008096627 0.43914193
-0.067428708 0.0080963587 0.43914136
-0.06705676 0.0080981841 0.43925434
-0.066721939 0.0081045404 0.43961298
-0.06009002 0.0080466261 0.43668213
-0.059690043 0.008044567 0.43658295
-0.059284542 0.0080417339 0.4364416
-0.058898214 0.0080414796 0.43644023
-0.058487128 0.0080378214 0.43625396
-0.058091588 0.0080362651 0.43618166
-0.057692301 0.0080341659 0.43607989
-0.057296753 0.0080325631 0.43600497
-0.056885738 0.0080287578 0.43581033
-0.056478564 0.008025445 0.43564242
-0.056088474 0.0080245305 0.4356046
-0.055668801 0.008019343 0.43533474
-0.055300456 0.0080215288 0.43546507
-0.054895412 0.0080183847 0.43530598
-0.054498218 0.0080163516 0.43520707
-0.054077193 0.0080107599 0.43491489
-0.053688064 0.0080098463 0.43487662
-0.053300716 0.0080091879 0.43485212
-0.052892543 0.0080053685 0.4346559
-0.052495565 0.0080031995 0.43454921
-0.052116852 0.0080038039 0.43459311
-0.051711898 0.0080003599 0.43441695
-0.05130754 0.007996955 0.43424296
-0.050901242 0.0079931961 0.43404955
-0.050509866 0.0079917395 0.43398121
-0.0501028 0.0079877609 0.43377572
-0.04971388 0.0079866368 0.43372518
-0.049317908 0.0079843532 0.43361163
-0.0489095 0.0079800058 0.43338588
-0.048513293 0.0079775965 0.43326527
-0.048149511 0.0079805218 0.43343437
-0.047738671 0.0079756333 0.43317899
-0.047347933 0.0079740528 0.43310311
-0.046941146 0.0079697203 0.43287778
-0.046553105 0.0079685254 0.43282276
-0.046156872 0.0079658981 0.43268982
-0.045765389 0.0079640541 0.43259937
-0.045375507 0.0079624606 0.43252239
-0.044984505 0.0079606418 0.4324331
-0.044597294 0.0079594683 0.43237883
-0.044191737 0.0079549728 0.43214399
-0.043812737 0.0079552205 0.43216676
-0.043408323 0.0079508191 0.43193683
-0.043015566 0.0079484927 0.43181959
-0.042627346 0.0079469718 0.43174601
-0.042240728 0.0079457248 0.43168724
-0.041858278 0.0079452461 0.43167007
-0.041463658 0.0079424288 0.43152577
-0.041069325 0.0079396144 0.43138158
-0.040672023 0.0079361694 0.43120301
-0.040274892 0.0079326909 0.43102258
-0.039893869 0.007932351 0.43101254
-0.039490785 0.0079275751 0.43076146
-0.039114248 0.0079280892 0.43079764
-0.038716506 0.0079242727 0.43059847
-0.038338549 0.0079244711 0.43061733
-0.037938308 0.0079200203 0.43038353
-0.037548929 0.007917772 0.4302693
-0.037160665 0.0079157138 0.43016535
-0.036779985 0.0079152454 0.43014768
-0.036394618 0.0079137506 0.43007413
-0.036002733 0.0079107899 0.42992088
-0.035607032 0.0079069212 0.42971814
-0.035227679 0.0079066381 0.42971021
-0.034836601 0.0079036886 0.42955726
-0.034445073 0.0079005705 0.42939511
-0.034068577 0.0079008713 0.42941862
-0.033676438 0.0078975102 0.42924306
-0.033281844 0.0078934906 0.42903161
-0.032899145 0.0078922324 0.42897016
-0.03251062 0.0078895316 0.42883021
-0.032123264 0.0078870542 0.42870232
-0.031749528 0.0078879027 0.42875513
-0.031363569 0.0078856973 0.42864189
-0.030975053 0.0078827888 0.42849028
-0.030583529 0.0078790328 0.4282926
-0.030213021 0.0078806663 0.4283877
-0.029822817 0.0078771384 0.42820221
-0.029437942 0.0078749461 0.4280892
-0.029056717 0.007873686 0.42802683
-0.028691942 0.0078769093 0.42820808
-0.028317846 0.0078776255 0.42825297
-0.072266653 0.008506597 0.44014409
-0.071879223 0.0085066762 0.44016299
-0.071476676 0.0085049542 0.44008869
-0.071072042 0.0085029667 0.44000047
-0.070686989 0.0085033122 0.44003299
-0.070285335 0.0085016517 0.43996164
-0.069838963 0.0084945364 0.43960786
-0.069430456 0.0084919725 0.43948954
-0.069032982 0.0084907357 0.43943986
-0.068633914 0.0084892893 0.43937922
-0.068207398 0.0084844129 0.43914101
-0.067834355 0.0084861703 0.439246
-0.067440391 0.0084853154 0.43921575
-0.067102008 0.0084914826 0.43954894
-0.066757776 0.0084969793 0.43984735
-0.060109988 0.0084345378 0.43682551
-0.059728161 0.0084349625 0.43686002
-0.059318561 0.0084314458 0.4366903
-0.058911953 0.008428311 0.43654031
-0.05851591 0.0084266569 0.4364669
-0.058103532 0.0084226122 0.43626961
-0.057715543 0.0084220739 0.43625385
-0.057317145 0.008419998 0.43615842
-0.056922548 0.0084184576 0.43609059
-0.056508601 0.0084140161 0.43587235
-0.056112491 0.0084121879 0.43578944
-0.055701748 0.0084081246 0.43559065
-0.055310715 0.0084070005 0.4355441
-0.054917488 0.0084055262 0.43547928
-0.054509431 0.0084017459 0.4352949
-0.054109477 0.008399169 0.4351728
-0.05370694 0.0083961515 0.43502778
-0.053332753 0.008397555 0.43511176
-0.052914042 0.0083919186 0.43483087
-0.052531838 0.0083920304 0.43484777
-0.052140567 0.0083906874 0.43478912
-0.051726561 0.0083856378 0.43453839
-0.051329911 0.0083833467 0.43443054
-0.050922394 0.008379234 0.43422821
-0.050528824 0.0083773723 0.43414235
-0.050136395 0.0083756726 0.43406484
-0.049746923 0.0083744442 0.43401173
-0.049336925 0.0083697168 0.43377712
-0.048942983 0.0083676577 0.43368077
-0.048554845 0.0083665689 0.43363458
-0.048159868 0.0083642742 0.43352586
-0.047761563 0.008361361 0.43338495
-0.047361843 0.0083581507 0.43322861
-0.046970703 0.0083564157 0.43314859
-0.046571571 0.0083532194 0.43299273
-0.046174753 0.0083503872 0.43285576
-0.045772959 0.0083466014 0.43266919
-0.045384463 0.0083451988 0.43260607
-0.044996731 0.0083439127 0.43254894
-0.044602349 0.0083413608 0.43242612
-0.044218589 0.0083407704 0.43240485
-0.043823831 0.0083380761 0.43227443
-0.043426666 0.0083348732 0.43211761
-0.043034162 0.0083325161 0.43200451
-0.042642716 0.0083303247 0.43189994
-0.042255726 0.0083289724 0.43183878
-0.041862398 0.0083263349 0.43171087
-0.041477915 0.008325424 0.43167245
-0.041084956 0.008322781 0.43154407
-0.040691368 0.008319959 0.43140635
-0.040301763 0.0083179055 0.43130845
-0.03991114 0.0083156014 0.4311974
-0.039508946 0.0083108209 0.43095785
-0.039128624 0.0083105918 0.43095428
-0.038738389 0.0083082309 0.43084008
-0.038353786 0.0083070472 0.43078679
-0.037959296 0.0083036749 0.43061993
-0.037563358 0.0082999151 0.43043289
-0.037180673 0.0082990369 0.43039525
-0.036791757 0.0082967365 0.4302837
-0.03640769 0.0082954932 0.43022692
-0.036020767 0.0082935644 0.43013453
-0.035629086 0.0082904892 0.42998254
-0.0352301 0.0082856314 0.42973801
-0.034844544 0.0082838591 0.4296535
-0.034467109 0.0082840016 0.42966813
-0.034079239 0.0082816109 0.4295513
-0.033693526 0.008279697 0.42945918
-0.033301346 0.0082761329 0.42928132
-0.032912381 0.0082732942 0.42914101
-0.032525837 0.0082710069 0.4290292
-0.032137044 0.0082680862 0.42888454
-0.031753112 0.0082663633 0.42880177
-0.031369999 0.0082648154 0.42872807
-0.030984644 0.0082626306 0.42862126
-0.030603446 0.0082615148 0.42856982
-0.030216567 0.0082588186 0.42843631
-0.029827856 0.0082555469 0.42827284
-0.029457014 0.0082572009 0.42836487
-0.029080505 0.0082572903 0.42837554
-0.028699322 0.0082560349 0.4283165
-0.071912155 0.0088992761 0.44036281
-0.071484692 0.0088943997 0.44013628
-0.071101107 0.0088949604 0.44017866
-0.070715569 0.0088952798 0.44020909
-0.070285827 0.0088900123 0.43996295
-0.069882207 0.008888009 0.43987826
-0.069454551 0.0088829109 0.43964025
-0.069046922 0.0088803293 0.4395268
-0.068661198 0.0088805528 0.43955213
-0.068261594 0.0088789752 0.43948814
-0.067864157 0.008877662 0.43943718
-0.067482449 0.0088784024 0.43948784
-0.067132637 0.0088833719 0.43974781
-0.066784836 0.0088886693 0.44002387
-0.060122494 0.0088216113 0.43691459
-0.059747204 0.0088230334 0.4369975
-0.059328225 0.008817981 0.43675965
-0.05894053 0.0088175423 0.43675026
-0.058542438 0.0088155307 0.43666297
-0.058138408 0.0088125942 0.4365297
-0.057745811 0.008811363 0.43648082
-0.057344094 0.0088087153 0.4363617
-0.056939643 0.0088056084 0.43621978
-0.056532592 0.0088020554 0.4360556
-0.056142461 0.0088011054 0.43602034
-0.055730812 0.0087967468 0.43581614
-0.055343274 0.0087961601 0.4357987
-0.054926585 0.0087908991 0.43554962
-0.054543737 0.0087910183 0.43556702
-0.054120783 0.0087846294 0.43526191
-0.053737916 0.0087847048 0.4352769
-0.053332821 0.0087811202 0.43511054
-0.052931096 0.0087780431 0.43496919
-0.052543573 0.0087772934 0.43494311
-0.052154768 0.0087763174 0.4349058
-0.051742494 0.0087713478 0.43467042
-0.051346458 0.0087690782 0.43456879
-0.050944835 0.0087658139 0.43441775
-0.050545238 0.0087628514 0.43428162
-0.050153237 0.0087611703 0.4342089
-0.049754996 0.008758367 0.43408042
-0.049378175 0.008759317 0.43413797
-0.048963036 0.0087534338 0.4338567
-0.048567124 0.008750922 0.43374246
-0.048188612 0.0087515302 0.43378282
-0.047773506 0.0087454496 0.43349153
-0.047392201 0.0087455101 0.43350449
-0.047000624 0.0087436596 0.43342274
-0.046581816 0.0087366719 0.43308619
-0.046198927 0.0087363617 0.43308052
-0.045781061 0.0087293768 0.43274397
-0.045391966 0.0087278057 0.43267575
-0.045007408 0.0087270904 0.43264979
-0.044612549 0.0087243468 0.43252319
-0.044225134 0.0087230261 0.43246707
-0.043835815 0.0087213023 0.43239087
-0.043452486 0.0087207519 0.43237278
-0.043053005 0.0087169204 0.43219194
-0.042664263 0.0087152151 0.43211639
-0.042252563 0.008708748 0.43180466
-0.041883826 0.0087110987 0.43193009
-0.041485544 0.0087072914 0.43175009
-0.041094638 0.0087049762 0.43164399
-0.040709864 0.0087039303 0.43160069
-0.040319279 0.0087016085 0.43149412
-0.039926574 0.0086987829 0.43136242
-0.039529331 0.008694903 0.43117839
-0.039156448 0.0086963596 0.43125892
-0.038750853 0.0086905081 0.43097696
-0.038362272 0.0086883949 0.43088025
-0.03796906 0.0086851818 0.43072891
-0.037587985 0.0086847069 0.43071333
-0.037195385 0.0086815329 0.43056378
-0.036803983 0.008678576 0.43042487
-0.036421433 0.008677667 0.43038747
-0.036034238 0.00867562 0.43029362
-0.035638329 0.0086714113 0.43009233
-0.035256587 0.0086705955 0.43005928
-0.03486922 0.008668364 0.42995599
-0.034481153 0.0086659063 0.42984137
-0.034091484 0.0086629884 0.42970386
-0.033702906 0.0086602867 0.42957696
-0.033317387 0.0086583178 0.4294863
-0.032929037 0.0086555602 0.42935646
-0.032536753 0.0086516915 0.42917138
-0.032148223 0.0086487448 0.42903197
-0.031775016 0.0086498978 0.42909583
-0.031393901 0.0086489003 0.42905298
-0.031001339 0.008644687 0.42885047
-0.030616421 0.0086425263 0.42874974
-0.030224249 0.0086382413 0.42854345
-0.029843565 0.0086371731 0.42849666
-0.029473936 0.0086393151 0.42860919
-0.029099381 0.0086400528 0.42865187
-0.07152243 0.0092877923 0.44036677
-0.071124487 0.0092865294 0.44032153
-0.070726149 0.0092852004 0.44027311
-0.07032451 0.0092834197 0.44020322
-0.069905147 0.0092792679 0.44002077
-0.06951575 0.0092790695 0.44002575
-0.069094226 0.0092745563 0.43982601
-0.06869486 0.0092729861 0.43976575
-0.068278909 0.0092691453 0.43959773
-0.067883946 0.0092681255 0.43956345
-0.067513451 0.0092704548 0.43968788
-0.067153163 0.0092742192 0.43988037
-0.066769511 0.0092747826 0.43992093
-0.066420458 0.0092801889 0.44019112
-0.066014186 0.0092776148 0.44008276
-0.060166169 0.0092136189 0.43723008
-0.059773836 0.00921252 0.43719041
-0.059366927 0.0092091458 0.43704268
-0.058961853 0.0092060128 0.43690637
-0.058566988 0.0092044426 0.43684417
-0.058159146 0.0092008021 0.43668357
-0.057753585 0.0091974745 0.43653771
-0.057367045 0.0091971532 0.43653449
-0.05695932 0.0091934064 0.43636861
-0.056565382 0.0091918502 0.43630666
-0.056149427 0.009186672 0.43607259
-0.055761762 0.0091860807 0.43605629
-0.055363871 0.0091837877 0.43595901
-0.05496379 0.0091810944 0.43584275
-0.054559298 0.0091776215 0.43568939
-0.054174196 0.0091773858 0.43568957
-0.053752802 0.009170956 0.4353956
-0.053369239 0.0091709327 0.43540576
-0.052965365 0.0091673955 0.43524894
-0.05255748 0.0091631059 0.43505636
-0.052170075 0.0091623506 0.43503153
-0.051764298 0.0091583347 0.43485171
-0.051377006 0.0091575524 0.43482545
-0.050984256 0.009155781 0.43475202
-0.050577458 0.0091514401 0.43455654
-0.050187629 0.009150126 0.43450475
-0.049772922 0.0091442214 0.43423489
-0.049390651 0.0091442317 0.4342458
-0.048997924 0.0091422908 0.43416396
-0.048588011 0.0091370884 0.43392715
-0.048196223 0.0091352388 0.43384945
-0.047810815 0.0091345776 0.43382818
-0.047429439 0.0091346838 0.43384323
-0.04705321 0.0091357911 0.43390575
-0.046655867 0.0091327839 0.4337728
-0.045357361 0.0091020921 0.43234402
-0.045004904 0.0091077834 0.43262383
-0.044620465 0.0091070412 0.43259805
-0.044225723 0.009104168 0.43247092
-0.043844871 0.0091041289 0.43247834
-0.043464161 0.0091041196 0.43248707
-0.043066632 0.0091005554 0.43232685
-0.042683426 0.0090999817 0.43230861
-0.042275995 0.0090941871 0.43204224
-0.041897878 0.009094649 0.43207309
-0.041509021 0.0090927696 0.43199256
-0.041119989 0.0090908147 0.43190837
-0.040725883 0.009087692 0.43176863
-0.040330704 0.0090842694 0.43161449
-0.039939031 0.0090815779 0.4314951
-0.039551575 0.0090798046 0.43141919
