# .PCD v0.7 - Point Cloud Data file format
VERSION 0.7
FIELDS x y z
SIZE 4 4 4
TYPE F F F
COUNT 1 1 1
WIDTH 1380
HEIGHT 1
VIEWPOINT 0 0 0 1 0 0 0
POINTS 1380
DATA ascii
0.070207775 0.029930437 0.43492088
0.070594579 0.029931618 0.43492281
0.070977606 0.029931191 0.43490133
0.071368106 0.029933903 0.43492541
0.071687713 0.029907012 0.43451932
0.071921319 0.029844718 0.43359882
0.072300576 0.029843204 0.43356135
0.072672538 0.029838715 0.43348053
0.073055238 0.029838653 0.43346402
0.073430382 0.029835524 0.43340287
0.073784642 0.029823987 0.43321952
0.074134804 0.029810915 0.43301386
0.074488245 0.029799296 0.4328292
0.074850693 0.029791376 0.43269825
0.075228564 0.029789649 0.43265712
0.07558506 0.029779512 0.4324939
0.075960375 0.029776854 0.43243918
0.076330893 0.029772356 0.43235767
0.076689422 0.029763248 0.43220913
0.077082127 0.029767428 0.43225354
0.07740932 0.029746389 0.4319317
0.077796333 0.029748438 0.43194497
0.078156807 0.02974036 0.43181124
0.078508668 0.029729107 0.4316313
0.078890927 0.029729415 0.43161917
0.079269893 0.029728482 0.43158895
0.07964091 0.029724589 0.43151575
0.080022804 0.029724779 0.43150172
0.080419645 0.029730493 0.43156782
0.080818944 0.029737057 0.43164614
0.081167258 0.029724885 0.43145251
0.032108799 0.030976234 0.44558486
0.032491419 0.030966943 0.44544357
0.032852039 0.030937154 0.44500729
0.033236224 0.030929994 0.44489655
0.033624753 0.030927001 0.44484556
0.034009613 0.03092074 0.44474751
0.034383729 0.03090496 0.44451249
0.034768138 0.030898685 0.44441408
0.035156693 0.030896194 0.44437003
0.035536025 0.030885743 0.44421139
0.035923667 0.030882657 0.44415864
0.036305454 0.030874662 0.44403523
0.036694042 0.030872557 0.44399637
0.037060305 0.030851917 0.4436909
0.037443805 0.030845901 0.44359568
0.037828118 0.030840671 0.44351166
0.038212545 0.030835643 0.44343048
0.038604986 0.030837117 0.44344273
0.03898206 0.030826407 0.44327968
0.039367136 0.03082218 0.44320977
0.03974111 0.030809423 0.44301715
0.040120676 0.030801211 0.44288981
0.040501527 0.030794131 0.44277865
0.040883236 0.030787835 0.44267869
0.041276291 0.030790119 0.442702
0.041651428 0.030779118 0.44253424
0.042038575 0.030777117 0.44249582
0.042409252 0.030763201 0.44228598
0.042791683 0.030757988 0.44220123
0.043158822 0.03074198 0.44196117
0.04354845 0.030742127 0.44195333
0.04391814 0.030728329 0.44174486
0.044309214 0.030729601 0.44175303
0.044682257 0.030718453 0.44158256
0.045070477 0.03071784 0.44156346
0.04544979 0.030711222 0.44145796
0.04582075 0.030699119 0.44127351
0.046208411 0.030698311 0.44125137
0.046565816 0.030677587 0.44094288
0.046966542 0.030685509 0.44104606
0.047328979 0.030668491 0.44079071
0.047717057 0.030668225 0.44077605
0.048098702 0.030663868 0.4407025
0.048484925 0.030662471 0.44067144
0.048853446 0.030649994 0.44048107
0.049223769 0.030638831 0.44030949
0.049598847 0.03063078 0.44018263
0.049972709 0.030622113 0.44004676
0.050352044 0.030616904 0.43996054
0.050743174 0.030618893 0.43997768
0.051116183 0.030609999 0.43983832
0.051492803 0.030603381 0.43973166
0.05187295 0.03059895 0.43965632
0.05223928 0.03058649 0.43946555
0.052622437 0.030583993 0.43941781
0.052988999 0.03057196 0.43923306
0.05334717 0.030555293 0.43898165
0.053732865 0.030554518 0.43895847
0.054110751 0.030549346 0.43887207
0.054499947 0.030550586 0.43887767
0.054867171 0.03053958 0.43870729
0.055241473 0.030532639 0.43859524
0.055620905 0.030528611 0.43852499
0.055985171 0.030516371 0.4383367
0.056357294 0.030508552 0.43821186
0.056738734 0.030505849 0.43816039
0.057107914 0.030496635 0.43801534
0.057480462 0.030489329 0.43789768
0.057862606 0.030487176 0.4378539
0.058239039 0.030482067 0.4377676
0.05861181 0.030475117 0.43765482
0.058977589 0.030464649 0.43749142
0.059351739 0.030458611 0.43739158
0.059723794 0.030451586 0.4372775
0.060114514 0.030454101 0.43730038
0.060477458 0.03044261 0.43712199
0.060837701 0.030429909 0.43692622
0.061204616 0.030420681 0.43678024
0.061584014 0.030417737 0.43672442
0.061961595 0.030413939 0.43665624
0.062334709 0.030408008 0.43655744
0.062707067 0.030401779 0.4364543
0.063080087 0.030395955 0.43635678
0.063452922 0.030390102 0.43625888
0.063839272 0.030390758 0.43625432
0.064185269 0.03037231 0.43597549
0.064577967 0.030376047 0.43601504
0.064949706 0.030369945 0.43591323
0.065277688 0.030343568 0.43552044
0.065654986 0.030340292 0.43545911
0.066034593 0.03033812 0.43541354
0.066414393 0.030336052 0.43536943
0.066793069 0.030333504 0.43531835
0.067181073 0.030335195 0.43532807
0.067563303 0.030334275 0.43530017
0.067929439 0.03032618 0.43516931
0.06828174 0.030312037 0.43495157
0.068662845 0.030310761 0.43491843
0.069040649 0.030308055 0.4348647
0.069437407 0.030313652 0.43493
0.069814011 0.030310439 0.43486881
0.070200779 0.030311644 0.43487099
0.070587277 0.030312726 0.43487135
0.070961453 0.030308532 0.43479589
0.071333818 0.03030361 0.43470997
0.071645252 0.030272998 0.43425548
0.07191772 0.030226329 0.43357062
0.072288409 0.030221224 0.4334819
0.072685301 0.030227071 0.43355018
0.073078737 0.030231422 0.433597
0.073444888 0.030224502 0.43348202
0.073808782 0.030216729 0.43335482
0.074184276 0.030213758 0.43329641
0.074525364 0.030196877 0.43303844
0.074887924 0.030188831 0.4329071
0.075246148 0.030179117 0.43275186
0.075600065 0.030167792 0.43257338
0.075989284 0.030170588 0.43259737
0.076362915 0.030167203 0.43253267
0.076728083 0.030160526 0.43242067
0.07709641 0.03015515 0.4323273
0.077477135 0.030154651 0.43230379
0.077824339 0.030141173 0.43209416
0.078193583 0.030136324 0.43200812
0.078545034 0.030124694 0.43182489
0.078905433 0.030116595 0.43169221
0.079277985 0.03011319 0.43162671
0.079651952 0.03011035 0.43156931
0.080030128 0.030109122 0.43153495
0.080415331 0.030110536 0.43153834
0.080798738 0.03011127 0.43153197
0.081195846 0.030117076 0.43159819
0.081551634 0.030107576 0.431445
0.081973404 0.030122409 0.43164045
0.082374394 0.030129502 0.43172494
0.031742707 0.031394824 0.44595426
0.032122929 0.031382643 0.44577363
0.032489382 0.031357456 0.4454082
0.032868598 0.031345047 0.44522426
0.033260081 0.031344496 0.44520855
0.033631191 0.031324971 0.44492337
0.034027927 0.031329498 0.44497964
0.034397192 0.031308912 0.44467923
0.034786049 0.03130642 0.44463572
0.035176188 0.031305127 0.44460911
0.035553295 0.03129239 0.44441992
0.035967842 0.031312529 0.4446975
0.036373399 0.031324487 0.44485885
0.036758319 0.031318612 0.44476685
0.037450671 0.031242577 0.44366974
0.037823644 0.031227862 0.44345197
0.038215812 0.031229133 0.44346115
0.038612902 0.031234359 0.44352642
0.03899058 0.031223934 0.44336936
0.039385505 0.031227395 0.44340935
0.039760999 0.031215526 0.44323167
0.040130589 0.031199303 0.44299203
0.040537413 0.03121206 0.44316378
0.040900685 0.031191355 0.44286039
0.041277241 0.031181082 0.44270501
0.041671321 0.031184116 0.4427385
0.04204819 0.031174324 0.44258985
0.042443141 0.031178001 0.44263226
0.042810414 0.031161465 0.44238767
0.043193333 0.031156508 0.44230741
0.043572422 0.031148907 0.44218951
0.043945286 0.031137025 0.44201079
0.044319626 0.031126393 0.44184971
0.044699237 0.031119613 0.44174325
0.045093045 0.031122748 0.44177744
0.045467015 0.031112256 0.44161814
0.045840967 0.031101929 0.44146112
0.046219718 0.031095006 0.44135231
0.046595946 0.031086512 0.44122112
0.046982538 0.031085014 0.4411892
0.047353212 0.031073101 0.44100934
0.047732413 0.031066924 0.44091088
0.048114609 0.031062786 0.44084123
0.048494767 0.031057406 0.44075388
0.048881587 0.031056345 0.44072777
0.049242966 0.031039264 0.44047424
0.049608294 0.031024922 0.44025949
0.049988613 0.031020101 0.44017977
0.05037633 0.031019913 0.44016573
0.05075869 0.03101645 0.4401052
0.051131967 0.031007536 0.43996716
0.0515186 0.031006793 0.43994501
0.051898278 0.031001905 0.43986401
0.052261323 0.030987229 0.43964401
0.052628558 0.030975236 0.43946204
0.053013559 0.030973796 0.43942973
0.053374495 0.030958418 0.4391996
0.053770959 0.030963719 0.43926275
0.054129425 0.03094722 0.43901661
0.054501012 0.030938406 0.43887937
0.054885004 0.030936705 0.43884298
0.055273615 0.030937616 0.43884358
0.055635121 0.030923449 0.43863019
0.056013044 0.030918537 0.43854806
0.056375075 0.030904982 0.43834323
0.056758869 0.030903457 0.43830901
0.057138395 0.030899649 0.43824226
0.057515435 0.03089455 0.43815723
0.057890039 0.030888226 0.43805465
0.058248546 0.030873453 0.43783224
0.058630031 0.030870972 0.43778405
0.059002124 0.030863611 0.43766662
0.059359796 0.03084885 0.43744418
0.05975765 0.030855024 0.43751857
0.060125764 0.030845869 0.43737543
0.060512599 0.030846369 0.4373692
0.060887668 0.030840904 0.4372783
0.061242003 0.030825071 0.4370403
0.061627153 0.030824846 0.43702358
0.061981849 0.03080949 0.43679222
0.062370513 0.030811101 0.43680143
0.062729388 0.030798068 0.43660286
0.063104451 0.030793097 0.43651855
0.063481286 0.03078904 0.43644717
0.063853286 0.030782701 0.43634334
0.064236455 0.030781794 0.43631643
0.0646106 0.030776598 0.43622869
0.064974524 0.030766623 0.43607312
0.065325536 0.030750688 0.43583304
0.06569805 0.030745 0.43573809
0.066077471 0.030742588 0.43568954
0.066456482 0.030740021 0.4356387
0.066817574 0.03072924 0.43547145
0.067204937 0.030730598 0.43547609
0.067568496 0.030721113 0.43532702
0.06793981 0.030715238 0.43522909
0.068288669 0.030699339 0.43498901
0.068647183 0.030687938 0.43481264
0.069025524 0.030685473 0.43476278
0.069425255 0.030692488 0.43484724
0.069798231 0.030687673 0.43476394
0.070190609 0.030691389 0.43480146
0.070570305 0.030689547 0.43476018
0.070931658 0.03067979 0.43460673
0.071297832 0.030672219 0.43448412
0.07159546 0.03063539 0.43394712
0.071908563 0.030605543 0.4335089
0.072300717 0.030609481 0.43354923
0.072705247 0.030618586 0.43366262
0.073098585 0.030622911 0.43370828
0.073474519 0.030619936 0.43365046
0.073861055 0.030621383 0.4336552
0.07421086 0.030607672 0.43344519
0.074558444 0.030593185 0.43322417
0.074908465 0.030579843 0.43301931
0.075284749 0.030577308 0.43296739
0.075664192 0.030576069 0.43293384
0.076014966 0.030563317 0.43273714
0.076385893 0.030558754 0.43265638
0.076761529 0.030556111 0.4326027
0.077139623 0.030554472 0.43256322
0.077499755 0.030545766 0.43242356
0.077880338 0.030545164 0.43239865
0.078228846 0.030532053 0.43219653
0.078589007 0.030523591 0.43206021
0.078956969 0.03051823 0.43196774
0.079311877 0.030507898 0.43180484
0.07968358 0.030504096 0.43173432
0.08007627 0.030508326 0.43177739
0.080434151 0.030499311 0.43163297
0.080822542 0.0305019 0.43165272
0.081201166 0.030500798 0.43162012
0.081593081 0.03050467 0.43165791
0.081930242 0.030488135 0.43140683
0.082364209 0.030507609 0.43166521
0.03175696 0.031802017 0.44614699
0.032117683 0.031770218 0.44569328
0.032500457 0.031760734 0.44555262
0.032879364 0.031747743 0.4453626
0.033280343 0.031756118 0.4454723
0.033648331 0.031733181 0.44514266
0.034047753 0.031740081 0.44523144
0.034427617 0.031728797 0.44506508
0.03480773 0.031717997 0.44490546
0.035214283 0.031731255 0.4450832
0.035617974 0.031741675 0.44522101
0.039026484 0.031643838 0.44377032
0.039394706 0.031625614 0.44350564
0.039776877 0.03161883 0.44340137
0.040155485 0.031609382 0.4432596
0.04054258 0.031606723 0.44321296
0.040915377 0.031593084 0.44301224
0.041293297 0.031583615 0.44286993
0.041691557 0.031589732 0.44294614
0.04207053 0.031581264 0.44281772
0.042448316 0.031572066 0.44267902
0.042828828 0.03156504 0.44257069
0.043204334 0.03155449 0.44241285
0.043589614 0.031551205 0.44235677
0.043964442 0.031540476 0.44219628
0.044344801 0.031533867 0.44209349
0.044736166 0.031535126 0.44210097
0.045095053 0.031513676 0.44178995
0.045482893 0.031512648 0.44176516
0.045862395 0.031505913 0.44166028
0.04623612 0.031495355 0.44150174
0.046626866 0.031496469 0.44150674
0.046999931 0.031485721 0.44134539
0.047376163 0.031477254 0.44121596
0.047741536 0.031461764 0.440988
0.048130699 0.031462081 0.44098154
0.048507094 0.031454109 0.44085881
0.04889733 0.03145517 0.4408626
0.049258042 0.031437367 0.440602
0.049631592 0.031427976 0.44045913
0.050019305 0.031427629 0.44044298
0.050391842 0.031417821 0.44029418
0.050770275 0.031411815 0.44019857
0.051154774 0.031409625 0.44015634
0.051529773 0.031401679 0.44003338
0.051907942 0.031395763 0.43993884
0.052273314 0.031382263 0.43973789
0.052657228 0.031380001 0.4396944
0.053025138 0.031368308 0.43951869
0.053405009 0.031363811 0.43944368
0.053794403 0.031364925 0.43944725
0.054157499 0.031350803 0.4392373
0.054522235 0.031337827 0.43904331
0.054917067 0.031342208 0.4390924
0.055285849 0.031331759 0.43893373
0.05566429 0.031326897 0.43885317
0.056014914 0.031306557 0.43855575
0.056392569 0.031301495 0.43847233
0.056771077 0.031296972 0.43839633
0.057150312 0.031292908 0.43832669
0.057533097 0.031290833 0.43828487
0.057922434 0.031292323 0.43829292
0.058292639 0.031283524 0.43815672
0.058647837 0.031266842 0.43791014
0.059007686 0.031252846 0.43770102
0.059396442 0.031254232 0.43770733
0.059767243 0.031246217 0.4375819
0.060146131 0.031242512 0.43751672
0.060520645 0.031236589 0.43742046
0.060911067 0.031238904 0.43743944
0.061283901 0.031232225 0.43733242
0.061654184 0.031224338 0.43720844
0.062002555 0.031205522 0.43693134
0.062388461 0.03120571 0.43692029
0.06275025 0.031193908 0.43674129
0.063129082 0.031190675 0.43668216
0.063506424 0.031186737 0.43661317
0.063888967 0.031185394 0.43658039
0.064248264 0.031172786 0.43638986
0.06462767 0.031170031 0.43633717
0.064992234 0.031160187 0.43618521
0.065350063 0.031147249 0.43598983
0.065740332 0.031149833 0.43601173
0.066108905 0.031142171 0.43589008
0.066469088 0.031130662 0.4357146
0.066849127 0.031128541 0.43567035
0.067238979 0.031130977 0.43568987
0.067617767 0.031128297 0.43563771
0.067968488 0.031112799 0.43540612
0.068313301 0.031094788 0.43513927
0.068657443 0.031076668 0.43487087
0.069025449 0.031069499 0.43475565
0.069419004 0.03107384 0.43480146
0.069806971 0.031075647 0.43481168
0.070197038 0.031078363 0.4348346
0.070590407 0.031082503 0.43487734
0.070978478 0.031084282 0.43488693
0.071329437 0.031069877 0.43467006
0.071652159 0.031043384 0.43428412
0.07194335 0.031003593 0.43371204
0.072321966 0.031001698 0.43367004
0.072711065 0.031004289 0.43369076
0.073115595 0.031013399 0.43380255
0.073501848 0.031014703 0.43380511
0.073877275 0.031011447 0.43374383
0.074253909 0.031008732 0.43369004
0.074605338 0.030995572 0.4334901
0.074938834 0.030975133 0.43318835
0.075315438 0.030972632 0.43313733
0.075675383 0.030963335 0.4329913
0.07604596 0.030958464 0.43290704
0.076421164 0.030955512 0.43284965
0.076781884 0.030946758 0.43271095
0.077165321 0.030947195 0.43270078
0.077529587 0.030939976 0.43258345
0.077886544 0.030929932 0.4324266
0.078258157 0.030925773 0.43235198
0.078613333 0.030915191 0.43218753
0.078991264 0.030913616 0.4321489
0.079373322 0.030913664 0.4321329
0.079710588 0.030896349 0.43187416
0.080070749 0.030888032 0.43174112
0.080460906 0.030891314 0.43177012
0.080825336 0.030884724 0.43166116
0.081205532 0.030884204 0.4316369
0.08159782 0.030888254 0.43167651
0.081989929 0.030892214 0.43171471
0.082364358 0.030889492 0.43165958
0.082789302 0.030905658 0.43186826
0.031752683 0.032190777 0.44607931
0.032118805 0.032164045 0.44570124
0.032512289 0.032165024 0.44570717
0.03289777 0.032158162 0.44560441
0.033287589 0.032155648 0.44556171
0.033670858 0.032146934 0.44543311
0.03405292 0.03213729 0.44529146
0.034453772 0.032145392 0.44539568
0.034838334 0.032138288 0.44528908
0.035238542 0.032145612 0.4453823
0.035634454 0.032148898 0.44541952
0.036041729 0.032162245 0.4455961
0.03978879 0.032019258 0.4435268
0.040170945 0.032012422 0.44342279
0.040559132 0.032010481 0.44338652
0.040941153 0.032003753 0.44328398
0.041318946 0.031993881 0.44313768
0.041703954 0.031989723 0.44307056
0.042076275 0.031976007 0.44287086
0.04247969 0.03198595 0.44299886
0.04284 0.031963557 0.44267884
0.043224499 0.031959444 0.44261202
0.043604914 0.031952418 0.44250473
0.043984231 0.031944718 0.442388
0.04436573 0.031938724 0.44229487
0.044750821 0.031935394 0.44223854
0.045135181 0.031931609 0.44217578
0.045508265 0.031919979 0.44200435
0.045877397 0.031905793 0.44179752
0.046267681 0.031906433 0.44179586
0.046635911 0.031891987 0.44158518
0.047013074 0.031883832 0.44146159
0.047394119 0.031878423 0.44137594
0.047775909 0.031873599 0.44129834
0.048155989 0.03186772 0.44120604
0.048521936 0.031852655 0.44098648
0.048909437 0.031851877 0.44096458
0.04928093 0.031840757 0.44079953
0.049672648 0.031842779 0.44081631
0.050040197 0.031829398 0.44061974
0.050429638 0.031830039 0.44061729
0.050781816 0.03180733 0.44029149
0.051167388 0.031805728 0.44025776
0.051546313 0.031800043 0.44016752
0.051911745 0.031786181 0.439964
0.052301098 0.031787064 0.43996444
0.052688245 0.031786602 0.43994626
0.053049501 0.031770647 0.43971348
0.053425618 0.031763755 0.43960613
0.053811096 0.031762484 0.43957654
0.054181091 0.031752162 0.43942156
0.05455222 0.031742644 0.43927765
0.057175584 0.031693734 0.43851352
0.059791289 0.031645186 0.437751
0.060152978 0.031632304 0.43755955
0.060523797 0.031624362 0.43743631
0.060916338 0.031627793 0.43747038
0.061295286 0.031624168 0.43740675
0.061658815 0.031612683 0.43723434
0.062033992 0.031607274 0.43714595
0.062429264 0.031612109 0.43719909
0.062781289 0.031595122 0.43695042
0.063154101 0.031588737 0.43684825
0.063538991 0.031588431 0.43683016
0.063905671 0.031579137 0.43668768
0.064288922 0.031578094 0.43665919
0.064665221 0.031573661 0.43658379
0.06502527 0.031561393 0.4364
0.065383129 0.031548221 0.43620357
0.065750569 0.031539802 0.43607286
0.066131391 0.031537853 0.43603152
0.066498816 0.031529572 0.43590268
0.066868603 0.031522509 0.43579048
0.0672599 0.031525601 0.43581867
0.067650326 0.031528257 0.43584067
0.06800846 0.031515915 0.43565536
0.068361826 0.031501517 0.43544158
0.068709157 0.031484514 0.43519172
0.069047824 0.031463746 0.43488973
0.069439746 0.031467348 0.43492457
0.069831528 0.031470846 0.43495789
0.070223354 0.031474322 0.43499085
0.070599921 0.031470966 0.43492922
0.070984669 0.031471271 0.4349182
0.071359105 0.031467024 0.43484417
0.071694992 0.031445906 0.43453702
0.07200142 0.031412169 0.43405539
0.072421372 0.031428054 0.43425938
0.072743624 0.031401593 0.43387824
0.073129222 0.03140261 0.43387669
0.073510356 0.031401716 0.43384865
0.073890097 0.031400237 0.43381247
0.074275941 0.031401355 0.43381208
0.07462737 0.031387981 0.43361145
0.074991003 0.031379852 0.43348324
0.075359717 0.031373922 0.43338534
0.075719714 0.031364441 0.4332383
0.076086156 0.031357717 0.43312928
0.076464929 0.031356107 0.4330909
0.076816529 0.03134343 0.43289953
0.077166103 0.031330056 0.43269852
0.077547006 0.031329468 0.43267408
0.077922575 0.031326748 0.43262005
0.07827694 0.031315569 0.43244919
0.078666613 0.031318553 0.43247384
0.079031795 0.031311803 0.43236405
0.079379961 0.03129841 0.43216246
0.079773948 0.03130313 0.43221089
0.080121353 0.031289611 0.43200743
0.080477089 0.03127946 0.43185046
0.080857404 0.031278908 0.43182597
0.081220329 0.031271666 0.43170902
0.081612885 0.031275846 0.43174973
0.082013302 0.031282991 0.43183124
0.082395442 0.031283129 0.43181601
0.082776837 0.031282984 0.43179682
0.083186708 0.031293545 0.43192536
0.031398751 0.032624222 0.44663224
0.031749904 0.032580968 0.44603255
0.032138862 0.03257709 0.44597197
0.032534983 0.03258048 0.44601068
0.032908071 0.032560993 0.4457362
0.033301607 0.032561962 0.44574168
0.033683445 0.032551609 0.44559202
0.03407478 0.032550562 0.44556969
0.034460906 0.032544624 0.44548032
0.036062382 0.032573599 0.44584388
0.04017837 0.032409284 0.4434973
0.040570933 0.032410752 0.44350809
0.040942527 0.032395609 0.4432914
0.041339811 0.032400876 0.44335398
0.041716699 0.032390215 0.44319847
0.042110622 0.032392856 0.44322494
0.042488933 0.03238355 0.44308782
0.042862482 0.032370809 0.44290376
0.04323817 0.032359906 0.44274464
0.043612305 0.03234804 0.44257233
0.044010177 0.032353837 0.44264156
0.044377953 0.032337602 0.44240931
0.044763293 0.032334343 0.44235447
0.045147769 0.032330509 0.44229174
0.045520317 0.032318279 0.44211408
0.045910291 0.032318521 0.4421069
0.046286155 0.03230891 0.44196492
0.046669275 0.032304484 0.44189373
0.047029898 0.032284684 0.44161221
0.047417223 0.032283392 0.44158381
0.047804508 0.032282092 0.44155517
0.048177756 0.032271408 0.44139817
0.048542496 0.032255244 0.44116604
0.048943393 0.032263171 0.44126344
0.049307499 0.032246914 0.44102991
0.049685597 0.032239985 0.44092396
0.050069924 0.03223718 0.44087428
0.050432958 0.032220811 0.44063905
0.050821055 0.03222058 0.44062448
0.051197704 0.032213155 0.44051135
0.05158028 0.032209538 0.44045031
0.051969588 0.032210149 0.440447
0.052334439 0.032195702 0.44023773
0.05270255 0.032183465 0.44005853
0.053026237 0.032144472 0.43951347
0.053408585 0.032141343 0.43945879
0.053801548 0.032144606 0.43949136
0.061686441 0.032013014 0.43742323
0.062053155 0.03200309 0.43727398
0.062424924 0.031995878 0.43716171
0.062812425 0.031996764 0.4371601
0.06318941 0.031992316 0.43708548
0.063552476 0.031980924 0.43691596
0.063941196 0.031982493 0.43692344
0.064317085 0.031977668 0.43684345
0.064665921 0.03195953 0.43658158
0.065030456 0.031949323 0.43642792
0.065394096 0.031938791 0.43626988
0.065775156 0.031936843 0.43622893
0.066138715 0.031926468 0.43607289
0.066514663 0.031922165 0.43599963
0.066893741 0.031919397 0.43594733
0.067296095 0.031927709 0.4360463
0.067666061 0.031920649 0.43593517
0.068043761 0.031917296 0.43587467
0.068380132 0.031894699 0.43555129
0.068736181 0.031881481 0.43535599
0.069109149 0.031876218 0.43526921
0.069476597 0.031868484 0.4351486
0.069852263 0.031864576 0.43508023
0.070225388 0.031859558 0.4349966
0.070625521 0.031866781 0.43508008
0.071000516 0.031862654 0.43500847
0.071359374 0.031851359 0.43483895
0.071713731 0.03183819 0.43464381
0.072056681 0.031820122 0.43438172
0.072423786 0.031812858 0.43426707
0.072813936 0.031815741 0.43429086
0.073161475 0.031800069 0.43406135
0.073571861 0.031811737 0.43420491
0.073930517 0.03180103 0.43404302
0.07427302 0.031783521 0.43378824
0.074655131 0.031783052 0.43376598
0.075033948 0.0317812 0.43372476
0.075394161 0.031771526 0.4335767
0.075756297 0.031762749 0.43344089
0.076114401 0.031752385 0.43328336
0.076478139 0.031744462 0.43315905
0.076855794 0.03174236 0.43311417
0.077217594 0.031733766 0.4329806
0.077595994 0.031732045 0.43294075
0.077983484 0.031734038 0.43295154
0.078325212 0.031717487 0.43270919
0.078683719 0.031707853 0.43256122
0.079048477 0.03170082 0.43244869
0.079423793 0.03169807 0.4323945
0.07978484 0.031689674 0.43226331
0.080160633 0.031687193 0.43221265
0.080508679 0.031673815 0.43201336
0.080891624 0.031674232 0.4320021
0.081242852 0.031662282 0.43182218
0.081615999 0.031658944 0.43175966
0.08200708 0.031662565 0.43179193
0.082390122 0.031663056 0.43178156
0.082791671 0.031670626 0.43186763
0.031401996 0.033021159 0.44667059
0.031757832 0.032982208 0.44613618
0.032151189 0.032982692 0.44613519
0.032542884 0.032981489 0.44611123
0.032927103 0.03297282 0.4459863
0.033313978 0.03296699 0.44589961
0.033712085 0.032972276 0.44596317
0.034105912 0.032973304 0.44596907
0.0344726 0.032948367 0.44562376
0.040178362 0.03280022 0.44348967
0.040577695 0.032807183 0.44357443
0.040967587 0.032806449 0.44355515
0.041350599 0.032800283 0.44346219
0.041744262 0.032802589 0.44348383
0.042128615 0.032797612 0.44340682
0.042509381 0.032789953 0.44329354
0.042887762 0.032780614 0.44315746
0.04325185 0.032760613 0.44287717
0.043627683 0.032749791 0.44272089
0.044020895 0.032752085 0.44274187
0.044402082 0.032745481 0.44264239
0.044782333 0.032738302 0.44253513
0.045161992 0.03273081 0.44242361
0.045548242 0.032728191 0.44237781
0.045927759 0.032720819 0.44226769
0.046294067 0.032704234 0.44203305
0.046678931 0.03270093 0.44197777
0.047055602 0.032691985 0.44184619
0.047433365 0.032683946 0.44172671
0.047815125 0.032678761 0.44164583
0.048194319 0.032671921 0.44154251
0.048578877 0.032668799 0.44148931
0.04895461 0.03265984 0.44135717
0.049324587 0.032647215 0.44117537
0.049686812 0.032629687 0.44092739
0.050079416 0.032632235 0.44095051
0.050454598 0.032623477 0.44082078
0.05084759 0.032626282 0.44084722
0.051226337 0.032619964 0.44075039
0.051638003 0.032634556 0.44093591
0.062459912 0.03239999 0.43739966
0.062827371 0.032390445 0.43725705
0.063200288 0.032383818 0.43715376
0.063580491 0.032380972 0.43710148
0.063952714 0.032374129 0.43699512
0.064330034 0.03236993 0.43692437
0.064701498 0.032362852 0.43681476
0.06506373 0.032351267 0.43664417
0.065439962 0.032346737 0.43656883
0.065801427 0.032335006 0.43639615
0.066188961 0.032336142 0.43639719
0.06655515 0.032326903 0.43625805
0.066935256 0.032324485 0.4362109
0.067308627 0.032318868 0.43612048
0.0676976 0.032320764 0.43613139
0.068058997 0.03230954 0.43596524
0.068441056 0.032308202 0.43593237
0.068751588 0.0322733 0.43544662
0.069118038 0.032264885 0.4353182
0.069487244 0.032257847 0.43520829
0.069868043 0.032256238 0.43517154
0.070255339 0.032257639 0.43517527
0.070632122 0.032254208 0.43511388
0.0710233 0.032257359 0.43514112
0.071403958 0.03225572 0.43510377
0.071755826 0.032241173 0.43489209
0.072097249 0.032222103 0.43461946
0.072443612 0.032205429 0.4343791
0.072832532 0.032207757 0.43439493
0.073216453 0.032207858 0.43438068
0.073586851 0.032202043 0.43428653
0.073964879 0.032199603 0.43423796
0.074339993 0.032195929 0.43417257
0.074671738 0.032173611 0.43385571
0.075058013 0.032174893 0.43385708
0.075416684 0.032164387 0.43369943
0.075783737 0.032157544 0.4335911
0.076151483 0.032151066 0.43348762
0.076543398 0.032154806 0.43352184
0.076900475 0.032143939 0.43335918
0.077259727 0.032134093 0.43321007
0.07764034 0.032133184 0.43318143
0.078000262 0.032123759 0.43303797
0.078326494 0.032100618 0.43270954
0.0787227 0.032106243 0.43276885
0.079092175 0.032100964 0.43268108
0.079447716 0.032090101 0.43251804
0.079835393 0.03209227 0.43253052
0.080185451 0.032079361 0.43233976
0.080567069 0.032079145 0.43232
0.080924436 0.032069322 0.43217069
0.081285574 0.03206107 0.43204257
0.081660211 0.032058202 0.43198687
0.082020983 0.032049939 0.43185848
0.082423434 0.03205796 0.43194947
0.08282546 0.032065753 0.43203723
0.083206996 0.03206557 0.43201753
0.083637618 0.032084219 0.43225145
0.031035818 0.033443991 0.44706136
0.031383842 0.033395406 0.44640446
0.03177074 0.033388872 0.4463096
0.032168813 0.033394095 0.44637185
0.032555841 0.033387866 0.44628096
0.03293141 0.033370174 0.44603676
0.033336855 0.033382822 0.44619793
0.033747848 0.033400655 0.44642842
0.034149211 0.03340866 0.44652742
0.040214144 0.03322072 0.44387695
0.040586188 0.033205155 0.44365966
0.040991083 0.033216503 0.44380188
0.04136318 0.033201318 0.44358945
0.04175733 0.033203948 0.44361502
0.042141203 0.033198431 0.44353163
0.042523887 0.033192098 0.44343722
0.04290881 0.033187598 0.4433673
0.043273699 0.033167832 0.44309333
0.04364324 0.033151947 0.44287115
0.044022992 0.033144038 0.44275543
0.044423085 0.033151444 0.44284421
0.044797476 0.033139709 0.44267726
0.045183238 0.033136513 0.44262424
0.045561615 0.033127997 0.44250017
0.045953609 0.03312945 0.44250908
0.046332821 0.033121739 0.44239557
0.046712682 0.033114616 0.44228983
0.047074836 0.033095166 0.44201931
0.047462456 0.033093788 0.44199014
0.047831655 0.033079688 0.44179106
0.048214126 0.033074923 0.44171652
0.048600782 0.033073086 0.44168094
0.048966896 0.03305741 0.44146052
0.049355552 0.033057071 0.44144487
0.049720775 0.033041175 0.44122136
0.050107069 0.033039413 0.44118655
0.050488487 0.033034489 0.44110945
0.050864436 0.033026092 0.44098583
0.06396585 0.032766726 0.4370777
0.06434641 0.032764092 0.4370285
0.064723663 0.032759808 0.43695724
0.065097176 0.032753687 0.43686149
0.065466717 0.032745667 0.43674022
0.065822154 0.032730717 0.43652651
0.066201545 0.032727785 0.43647307
0.066556573 0.032712914 0.43626028
0.06695123 0.032717578 0.43630803
0.067350976 0.032724656 0.43638778
0.067706726 0.032710407 0.43618312
0.068108827 0.032718576 0.43627742
0.068440035 0.032692794 0.43591884
0.068814933 0.032688059 0.43584082
0.069182806 0.032680053 0.43571913
0.069517545 0.032656569 0.43539107
0.069894917 0.032653265 0.43533197
0.070273466 0.032650538 0.43528056
0.070662305 0.032652598 0.43529281
0.071040727 0.032649845 0.43524086
0.07142619 0.032650344 0.43523225
0.071780115 0.032636497 0.43503225
0.072135493 0.032623455 0.43484297
0.072477661 0.032604605 0.4345763
0.072870843 0.032608788 0.43461645
0.073231667 0.032598518 0.43446395
0.073593594 0.032588847 0.43431941
0.073979668 0.032589912 0.43431783
0.074362576 0.032589577 0.43429762
0.074737445 0.03258574 0.43423057
0.075087965 0.032571379 0.43402329
0.075426921 0.032552179 0.4337514
0.075810112 0.03255216 0.43373516
0.076195702 0.03255317 0.43373245
0.076552995 0.032542139 0.43356934
0.076925904 0.032537825 0.43349561
0.077304564 0.032535978 0.43345466
0.077666089 0.032526966 0.43331829
0.078045458 0.03252548 0.43328205
0.078376792 0.032504089 0.43298063
0.078742787 0.032497216 0.43287247
0.079130292 0.032499231 0.43288279
0.079483248 0.032487113 0.43270469
0.079868764 0.032488357 0.43270454
0.080236241 0.032482289 0.43260688
0.08060053 0.032474983 0.43249279
0.080955319 0.032463945 0.43232888
0.081332818 0.032462068 0.43228692
0.081693754 0.032453634 0.43215761
0.082063124 0.032448608 0.43207365
0.082445249 0.032448653 0.43205711
0.082843445 0.032454994 0.43212432
0.083233342 0.032458041 0.43214765
0.08363387 0.032465182 0.43222544
0.0310298 0.033831343 0.44696674
0.03140156 0.033807814 0.44664848
0.031793978 0.033806838 0.44662809
0.032179553 0.033798702 0.446513
0.032572426 0.03379833 0.44650039
0.032948397 0.033780638 0.44625893
0.033354424 0.033793811 0.44642517
0.033766836 0.033813067 0.44667163
0.034170989 0.033823717 0.44680429
0.0403485 0.033724304 0.4453522
0.040590238 0.033599608 0.4436962
0.040992379 0.033608805 0.4438082
0.041383047 0.033608507 0.44379476
0.041769501 0.033604834 0.44373664
0.042150579 0.033596937 0.44362262
0.042545386 0.033600025 0.4436537
0.042932644 0.033597149 0.4436059
0.043310776 0.033587255 0.44346529
0.043675315 0.033567082 0.443189
0.044059433 0.03356218 0.44311425
0.0444442 0.033557858 0.44304702
0.044815581 0.033543594 0.44284847
0.045201346 0.033540249 0.442794
0.045586929 0.033536822 0.44273841
0.045967389 0.033529721 0.44263417
0.046347309 0.033522345 0.44252628
0.046720397 0.03351019 0.44235525
0.047103781 0.033505566 0.44228351
0.047476318 0.033493362 0.44211164
0.047865815 0.033493225 0.44209898
0.04824537 0.033486184 0.44199514
0.048620097 0.033475939 0.44184893
0.049017549 0.033481374 0.44190958
0.049371678 0.033457369 0.44158161
0.049736097 0.033440657 0.44134983
0.050091147 0.033417955 0.44103888
0.065113947 0.033148028 0.4369669
0.06548965 0.033142973 0.43688598
0.06585563 0.033133086 0.43674138
0.06624493 0.033134978 0.43675193
0.066618435 0.033128992 0.43665859
0.066978052 0.03311621 0.4364756
0.06735222 0.033110727 0.43638873
0.067734696 0.033109367 0.43635616
0.068126388 0.0331125 0.43638274
0.068487786 0.033100955 0.43621588
0.068849638 0.033089764 0.43605348
0.069225058 0.033085179 0.43597814
0.069579355 0.033070602 0.43577108
0.069925107 0.03305215 0.43551293
0.070320882 0.033057407 0.43556714
0.070679501 0.033045243 0.43539166
0.071073666 0.03304974 0.43543568
0.071441114 0.033041827 0.43531615
0.071799375 0.033029776 0.43514198
0.072175361 0.033025961 0.4350763
0.072529368 0.033012182 0.43487927
0.072880976 0.032997463 0.43466985
0.073264055 0.032997079 0.43464914
0.073648266 0.032997198 0.43463507
0.074012823 0.032988556 0.43450549
0.074392617 0.032986764 0.43446603
0.07478033 0.032988477 0.43447271
0.075107314 0.032963526 0.43412817
0.075484656 0.032960817 0.43407649
0.075842641 0.032949723 0.43391433
0.076214656 0.032944802 0.43383342
0.076570235 0.032932863 0.43366003
0.076974034 0.03294168 0.43375996
0.077327088 0.032928802 0.43357402
0.077697523 0.032923415 0.43348676
0.078069501 0.032918733 0.43340865
0.078427285 0.032908134 0.43325269
0.078799687 0.032903753 0.43317837
0.079149216 0.032889895 0.4329794
0.079493895 0.032874174 0.4327558
0.079898953 0.032883458 0.43286124
0.080254138 0.032872211 0.43269646
0.0806114 0.032861926 0.43254426
0.080984361 0.032858107 0.43247712
0.081361681 0.032856088 0.43243352
0.081710644 0.032842685 0.43224013
0.082102574 0.0328466 0.43227458
0.082475618 0.032842953 0.43220946
0.082846336 0.032838415 0.4321326
0.083251432 0.032847494 0.43223476
0.08364857 0.032853354 0.43229458
0.084067382 0.03286764 0.43246517
0.031032134 0.034227747 0.44699222
0.031417504 0.03421874 0.4468672
0.031809464 0.034217045 0.44683754
0.032197811 0.034211546 0.44675824
0.032589801 0.034210015 0.44673049
0.032977737 0.034204304 0.44664821
0.033370636 0.034203824 0.44663408
0.03378975 0.034229904 0.44696677
0.034188271 0.034234766 0.44702223
0.040356811 0.034123927 0.44543609
0.040605895 0.034003865 0.44385949
0.041011635 0.034016024 0.44400886
0.041405804 0.034018461 0.44403103
0.041788902 0.034011826 0.44393489
0.042175274 0.034007963 0.44387475
0.042553514 0.033997666 0.44373065
0.042942561 0.033996116 0.44370058
0.043324184 0.03398877 0.44359478
0.043708865 0.033983935 0.44352174
0.044081271 0.033969723 0.44332618
0.044459634 0.033960309 0.44319314
0.044829153 0.033944357 0.44297484
0.045217309 0.033942681 0.44294262
0.045605786 0.033941269 0.44291383
0.045981023 0.033930112 0.44275776
0.046356801 0.033919536 0.44260922
0.04674045 0.033914853 0.44253746
0.047119781 0.03390713 0.44242606
0.047487985 0.033891596 0.44221261
0.04788053 0.033893548 0.44222724
0.048260085 0.033886343 0.44212234
0.048649222 0.033885933 0.44210595
0.049043674 0.033889197 0.44213748
0.065861307 0.033521693 0.43677172
0.066260673 0.033528686 0.43684846
0.066640332 0.033525683 0.43679488
0.067012548 0.033518989 0.43669313
0.067383252 0.03351162 0.4365826
0.067771174 0.033512853 0.43658397
0.068148576 0.033508897 0.43651769
0.0685127 0.033498488 0.43636736
0.068850823 0.033475555 0.43605378
0.069243968 0.033479486 0.43609005
0.06961716 0.033473771 0.43600065
0.069967464 0.033457175 0.4357695
0.070347734 0.033455022 0.43572626
0.070726387 0.03345212 0.4356733
0.071100503 0.033447113 0.43559289
0.071485467 0.03344724 0.43557921
0.071842983 0.033434588 0.43539912
0.072197296 0.033420589 0.43520141
0.072578058 0.033418916 0.43516409
0.072943993 0.033410475 0.4350386
0.073310889 0.033402555 0.43491986
0.073678024 0.033394825 0.43480355
0.074043684 0.033386514 0.4346796
0.074414842 0.033380751 0.43458873
0.074797519 0.033380188 0.43456554
0.075152807 0.03336747 0.43438408
0.075525798 0.033362705 0.434306
0.075872503 0.033346433 0.43407813
0.076249197 0.033343438 0.43402305
0.076627478 0.033341158 0.43397725
0.076982267 0.033328738 0.4337993
0.077362701 0.033327486 0.43376669
0.077735335 0.033322908 0.4336907
0.078091383 0.033311293 0.43352315
0.078465864 0.033307616 0.43345881
0.078829616 0.033299439 0.43333587
0.079183668 0.033287268 0.43316093
0.079540901 0.033276547 0.43300474
0.07992743 0.033278123 0.43300852
0.080278516 0.033265002 0.43282101
0.080649614 0.033260256 0.43274239
0.081013575 0.033252619 0.43262619
0.081375547 0.033244252 0.4325003
0.081742182 0.033237848 0.43240005
0.082123205 0.033237338 0.43237633
0.082498811 0.033234637 0.43232411
0.082877651 0.03323327 0.43228906
0.083259173 0.033232979 0.43226805
0.083622918 0.033225633 0.43215516
0.084065199 0.033249408 0.43244708
0.084472515 0.033259206 0.43255708
0.030686023 0.034675315 0.44768479
0.031047391 0.034638628 0.44720381
0.031436305 0.034633212 0.44712651
0.031827994 0.034630947 0.44708976
0.032203451 0.034611285 0.44682834
0.032593593 0.034607701 0.44677439
0.032983441 0.034603879 0.44671735
0.033381846 0.034609031 0.44677603
0.033787545 0.034621533 0.44692948
0.034194324 0.034634843 0.44709328
0.040361475 0.034520593 0.44547963
0.04102863 0.03442172 0.44418493
0.041417316 0.034419484 0.44414657
0.041799955 0.034412313 0.44404444
0.04218876 0.034410298 0.4440088
0.042567097 0.034399863 0.44386441
0.042959552 0.034400929 0.44386828
0.043336529 0.03438969 0.44371334
0.043718334 0.034382444 0.44360989
0.044099711 0.034374997 0.44350377
0.044475637 0.034363464 0.44334483
0.044861399 0.034359671 0.44328567
0.045247916 0.034356512 0.44323465
0.045627262 0.034348015 0.44311458
0.046004333 0.03433796 0.44297439
0.046386719 0.034332003 0.44288707
0.04675518 0.034315929 0.44266912
0.047136854 0.034309741 0.44257858
0.047518708 0.034303784 0.44249094
0.047893789 0.03429307 0.44234192
0.048275378 0.034287151 0.44225469
0.048687045 0.034302521 0.44244191
0.066663139 0.03392309 0.436937
0.067038909 0.033918049 0.43685761
0.067402817 0.033907101 0.43670201
0.067787282 0.03390656 0.43668041
0.06818974 0.033914976 0.43677405
0.068536699 0.033895839 0.43651289
0.068913862 0.033891786 0.43644577
0.06925492 0.033870108 0.43615174
0.069628142 0.033864319 0.43606222
0.070002064 0.033858929 0.43597779
0.070366651 0.033849113 0.43583626
0.070758499 0.033852436 0.43586388
0.071129605 0.033845864 0.43576401
0.071492508 0.033835467 0.43561488
0.071866088 0.033830218 0.43553194
0.072230928 0.033820927 0.43539691
0.072601974 0.033814628 0.43530032
0.072964564 0.033804476 0.43515408
0.073332839 0.033797052 0.43504289
0.073711075 0.033794273 0.43499145
0.074072726 0.033783954 0.43484285
0.074439809 0.033776216 0.43472743
0.074833192 0.033780422 0.4347657
0.075183243 0.033765122 0.43455285
0.075559847 0.033761844 0.4344947
0.075921625 0.033752006 0.43435201
0.076254763 0.033729598 0.43404758
0.076629303 0.033725642 0.43398046
0.077015094 0.033726647 0.43397719
0.077386744 0.033721481 0.4338944
0.077764817 0.03371916 0.43384811
0.078161567 0.033724908 0.43390566
0.078490928 0.033701673 0.43359023
0.078859895 0.033695575 0.43349531
0.079201728 0.03367801 0.43325269
0.079588078 0.033679448 0.43325451
0.079964273 0.033676594 0.43320107
0.080330901 0.033669759 0.43309641
0.080681033 0.033656105 0.43290395
0.081061639 0.033655234 0.43287584
0.081416972 0.033643927 0.43271348
0.081780933 0.033636276 0.43259805
0.082156725 0.033633541 0.43254578
0.082515925 0.033624064 0.43240684
0.082896091 0.033623185 0.43237829
0.083279476 0.033623606 0.43236652
0.083668888 0.033626452 0.4323858
0.084037811 0.033621076 0.43229929
0.084481783 0.033645634 0.43259761
0.084881112 0.033652272 0.43266547
0.030677963 0.035060566 0.44755891
0.031055799 0.035042163 0.44731665
0.031448197 0.035040449 0.44728732
0.031836547 0.035034318 0.44720158
0.032219075 0.035022009 0.44703689
0.032605063 0.035013717 0.4469234
0.033001438 0.035016641 0.44695294
0.033396345 0.035017949 0.44696185
0.033788409 0.035016283 0.4469327
0.034213405 0.035048399 0.44733456
0.039992757 0.034934077 0.44574592
0.0403671 0.03491817 0.44553363
0.041054938 0.034835637 0.44446176
0.041439064 0.03482933 0.44437179
0.041820318 0.034820754 0.44425276
0.042215705 0.034823995 0.44428441
0.042601991 0.034819733 0.4442203
0.042979755 0.034808651 0.44406906
0.043364428 0.034803309 0.44399109
0.043729875 0.034782771 0.44371909
0.044123672 0.03478495 0.44373679
0.044493034 0.034767993 0.44351038
0.044879247 0.034764387 0.44345409
0.045264389 0.034760021 0.44338813
0.045638911 0.034747642 0.44321981
0.046028189 0.034746613 0.44319624
0.046386831 0.034722663 0.44288024
0.04678588 0.034729116 0.44295195
0.047159605 0.034716807 0.44278431
0.047526225 0.034699529 0.4425531
0.047903284 0.034690082 0.44242182
0.048310909 0.034702741 0.44257236
0.067047812 0.034308478 0.43690825
0.067432724 0.034308065 0.43688837
0.067810044 0.034303814 0.43681961
0.068180069 0.034295946 0.43670473
0.068577051 0.03430165 0.43676254
0.068946898 0.034293789 0.43664762
0.069293231 0.034274388 0.43638563
0.069664642 0.034267534 0.43628344
0.070019439 0.034252632 0.43607864
0.070383474 0.034242384 0.43593311
0.070776917 0.034246478 0.43597004
0.071146958 0.034239262 0.43586296
0.071541399 0.034243807 0.43590552
0.071899459 0.034230985 0.43572691
0.072288692 0.034233052 0.43573779
0.072623357 0.0342094 0.43542126
0.07299266 0.034202229 0.43531439
0.07334698 0.034188144 0.43511954
0.073742218 0.034193181 0.43516797
0.074099824 0.034180805 0.43499473
0.074477084 0.034177579 0.43493783
0.074864842 0.034179181 0.43494236
0.075215548 0.03416393 0.43473232
0.075590275 0.034159694 0.43466243
0.075931691 0.03414052 0.43440244
0.076318659 0.034141917 0.4344041
0.076698348 0.034140065 0.43436432
0.077050991 0.034126248 0.4341723
0.077429041 0.034123763 0.43412441
0.077806264 0.034120943 0.4340722
0.078177363 0.034115478 0.43398625
0.07852333 0.034099154 0.43376207
0.078896575 0.034094777 0.43368983
0.079246588 0.034080449 0.43349096
0.079621732 0.034077011 0.43343064
0.079980351 0.034066573 0.43328115
0.080366232 0.034067787 0.43327978
0.080709428 0.034050979 0.43304923
0.081118435 0.034061968 0.43317208
0.081457816 0.034043755 0.4329235
0.081811704 0.034031745 0.43275377
0.08219891 0.034033649 0.43276089
0.082562298 0.034025706 0.43264279
0.082920492 0.034015715 0.4324986
0.083313338 0.034019962 0.43253532
0.083684325 0.034015287 0.43245858
0.084100768 0.034029044 0.43261611
0.084498353 0.034035087 0.43267548
0.084901884 0.03404345 0.43276435
0.030332031 0.035511374 0.44827029
0.030688161 0.035466716 0.44769931
0.031080386 0.035464376 0.44766241
0.031460777 0.03544876 0.44745791
0.031846531 0.035439495 0.44733346
0.032234456 0.035432845 0.44724193
0.032627247 0.035431642 0.44721907
0.033016644 0.035426822 0.44715053
0.033397797 0.035413381 0.446973
0.033810303 0.035433106 0.44721404
0.034216329 0.035445653 0.44736445
0.034627229 0.035462916 0.44757426
0.040014889 0.035346579 0.44598442
0.040386554 0.035327964 0.44574025
0.040742457 0.035296049 0.44532821
0.041081566 0.035250328 0.4447419
0.041457407 0.035236698 0.44456047
0.041846074 0.035234116 0.44451827
0.042221282 0.035220362 0.44433507
0.042613953 0.035221286 0.44433701
0.043002103 0.035218496 0.44429192
0.043392655 0.035217699 0.44427201
0.043751784 0.035191651 0.44393337
0.044134229 0.035184644 0.44383493
0.044510722 0.035173059 0.44367868
0.044881549 0.035157233 0.44346887
0.045286603 0.035168268 0.4435977
0.045657761 0.035153013 0.4433949
0.046042889 0.035148676 0.44332981
0.046432357 0.035147704 0.44330701
0.046804994 0.035134114 0.44312495
0.047192436 0.035131767 0.44308466
0.067829281 0.034699537 0.43693614
0.068198428 0.034691066 0.43681479
0.06859792 0.034698054 0.43688801
0.068977863 0.034695126 0.43683627
0.069332838 0.034679741 0.43662766
0.069685891 0.034663569 0.43640909
0.070071176 0.034663517 0.43639341
0.07042288 0.034646951 0.43616974
0.070824578 0.034655027 0.4362562
0.071177684 0.034639362 0.43604377
0.071540892 0.03462876 0.43589503
0.071923926 0.034627814 0.43586776
0.072307438 0.034627106 0.43584344
0.072658055 0.034610741 0.43562195
0.073008537 0.03459448 0.43540174
0.073391378 0.034593645 0.4353756
0.073754169 0.034583412 0.43523115
0.074129432 0.034579109 0.43516123
0.074513033 0.034578711 0.43514046
0.074890822 0.034575645 0.43508598
0.07524696 0.034562659 0.43490666
0.075640067 0.034566697 0.43494144
0.075976059 0.034544729 0.43464896
0.076344758 0.034537777 0.43454537
0.076718278 0.034533065 0.43446994
0.07707455 0.034520674 0.4342978
0.077464379 0.034523357 0.43431526
0.077806622 0.03450492 0.43406695
0.07820496 0.03451141 0.43413216
0.078571998 0.034504097 0.43402368
0.078938372 0.034496564 0.43391237
0.079290979 0.034483112 0.43372658
0.079664633 0.034478899 0.43365699
0.080017731 0.034465875 0.43347642
0.080393001 0.034462478 0.43341693
0.080755658 0.034453735 0.43329015
0.08113683 0.03445293 0.43326315
0.081497528 0.03444349 0.43312743
0.081826016 0.03442058 0.43282235
0.082222879 0.034426514 0.43287992
0.082600549 0.034424398 0.43283615
0.08295808 0.034413937 0.43268746
0.08333686 0.034412358 0.43265033
0.083715744 0.034410831 0.43261385
0.084117822 0.034418803 0.43269676
0.084481671 0.03441114 0.43258297
0.084902376 0.034426592 0.43275979
0.085321449 0.034441255 0.43292651
0.030324452 0.035897393 0.4481498
0.030704735 0.035880577 0.44793263
0.031094974 0.035875674 0.44786412
0.031483855 0.035869349 0.44777772
0.031868424 0.035858322 0.44763258
0.032236811 0.035829585 0.44726622
0.032634526 0.035833739 0.44731045
0.033025891 0.035830911 0.44726735
0.033422824 0.035834111 0.44729954
0.033818204 0.035835594 0.44731012
0.03421523 0.035838764 0.44734174
0.03462635 0.035856459 0.44755453
0.035024006 0.035859972 0.44759017
0.035432007 0.035873879 0.44775549
0.039652035 0.035766892 0.4463242
0.040018942 0.035743367 0.44602144
0.040383212 0.035717964 0.44569513
0.040743176 0.035689279 0.44532782
0.041100334 0.03565871 0.44493696
0.041478574 0.03564683 0.44477925
0.04185456 0.035633259 0.44460028
0.04223362 0.035622533 0.44445676
0.042633522 0.035629414 0.44453287
0.043017004 0.035622574 0.44443771
0.043405414 0.035619903 0.4443945
0.043777335 0.035603873 0.44418451
0.044148266 0.035587326 0.443968
0.044520944 0.035572466 0.44377244
0.044908278 0.035569474 0.4437249
0.04529395 0.03556522 0.44366157
0.045683388 0.035563979 0.4436357
0.046055973 0.035549752 0.44344771
0.04645095 0.035552893 0.44347644
0.046832368 0.035545696 0.443376
0.047232553 0.035552744 0.44345325
0.068220027 0.035088062 0.43694559
0.06860245 0.03508633 0.43690926
0.068980314 0.035082303 0.43684426
0.069359876 0.035079174 0.43679041
0.069737807 0.035075258 0.43672669
0.07008335 0.03505519 0.43646175
0.070451081 0.035046376 0.4363369
0.070844688 0.035050459 0.43637258
0.071216226 0.035043642 0.43627244
0.071588531 0.035037272 0.43617785
0.071950033 0.035025712 0.43601856
0.072334945 0.035025604 0.43600181
0.072707444 0.035019521 0.43591058
0.073034309 0.034991641 0.43554801
0.073419139 0.034991678 0.43553284
0.073780112 0.034980405 0.43537682
0.074157909 0.034977175 0.43532094
0.074544355 0.034978051 0.435316
0.074933417 0.034980129 0.43532601
0.075276449 0.03496081 0.43506968
0.075655974 0.034958553 0.43502557
0.076018631 0.034948561 0.43488517
0.076375008 0.034935795 0.43471023
0.076757021 0.03493483 0.43468201
0.077110782 0.034921072 0.43449458
0.077498056 0.034922559 0.43449676
0.077842727 0.034904923 0.43426102
0.078229807 0.034906387 0.43426281
0.078601912 0.034901187 0.4341816
0.078971855 0.034895081 0.43408912
0.079353712 0.034894273 0.43406248
0.079681702 0.034869898 0.43374261
0.080058508 0.034867022 0.4336901
0.080435649 0.034864306 0.43363959
0.080794305 0.034853652 0.43349025
0.081167124 0.034849182 0.43341771
0.081532173 0.034841426 0.43330428
0.081892349 0.034831677 0.43316603
0.082251824 0.034821711 0.43302509
0.082618907 0.034815051 0.43292513
0.082991794 0.034810886 0.43285617
0.083368465 0.034808341 0.43280724
0.08375334 0.034809232 0.43280101
0.084122926 0.034803778 0.43271589
0.084528394 0.034813158 0.4328151
0.084944978 0.034827009 0.43296975
0.085295469 0.034813762 0.43278754
0.030326163 0.03629433 0.44816655
0.030718757 0.036291849 0.44812861
0.031110283 0.036288176 0.44807601
0.03149949 0.036281932 0.44799149
0.031883992 0.036270492 0.44784272
0.032272302 0.036263607 0.44775012
0.032645453 0.03624006 0.44745171
0.033032164 0.03623195 0.44734386
0.033427753 0.036233645 0.447357
0.033822671 0.036234591 0.44736072
0.034220729 0.036238838 0.44740519
0.034626491 0.036251053 0.44754788
0.035030622 0.036261298 0.44766626
0.035427418 0.036263816 0.44768906
0.03582187 0.036263902 0.44768175
0.036216266 0.036263928 0.44767371
0.039293859 0.036192659 0.4467237
0.039644718 0.036153685 0.44623351
0.040032014 0.036148373 0.44615877
0.040400263 0.036126141 0.44587502
0.040749449 0.036087446 0.44538811
0.041109663 0.036059167 0.44502965
0.041494992 0.03605324 0.44494703
0.041866008 0.036035109 0.44471365
0.042252399 0.036030423 0.44464612
0.042643998 0.036030222 0.44463387
0.04302806 0.036023717 0.44454375
0.043412909 0.036017977 0.44446304
0.043795738 0.036010679 0.444363
0.044173568 0.03599944 0.44421425
0.044536099 0.035976041 0.44391534
0.044935495 0.03598256 0.44398558
0.045320857 0.035977833 0.44391701
0.0457073 0.035974037 0.44385979
0.046079125 0.035958894 0.44366246
0.046479322 0.03596596 0.44373915
0.04689743 0.035986658 0.44398385
0.068995185 0.035475895 0.43693078
0.069374211 0.035472419 0.43687311
0.069761053 0.035472952 0.43686464
0.070140339 0.035469662 0.43680912
