# .PCD v0.7 - Point Cloud Data file format
VERSION 0.7
FIELDS x y z
SIZE 4 4 4
TYPE F F F
COUNT 1 1 1
WIDTH 1374
HEIGHT 1
VIEWPOINT 0 0 0 1 0 0 0
POINTS 1374
DATA ascii
0.0057368004 0.076702289 0.40959409
0.0060973717 0.076687895 0.40951553
0.0064567728 0.076661214 0.40937132
0.0068151597 0.076625973 0.40918121
0.007175874 0.076619104 0.40914261
0.0075354055 0.076600894 0.40904331
0.007891424 0.076550238 0.40877074
0.0082529075 0.076554723 0.40879259
0.0086142775 0.076557815 0.40880683
0.0089732828 0.076540478 0.40871191
0.0093301069 0.0765066 0.40852866
0.009685277 0.076462179 0.40828905
0.010042752 0.076438494 0.40816
0.010401762 0.076427713 0.40809986
0.010762388 0.076429129 0.40810478
0.011123325 0.076432593 0.40812048
0.011474758 0.076372579 0.40779728
0.011831793 0.076352365 0.40768644
0.012186635 0.07631962 0.40750861
0.012542341 0.07629399 0.40736875
0.012901133 0.07628803 0.40733382
0.013259581 0.076280452 0.40729013
0.013617601 0.076270834 0.40723556
0.013971586 0.076239705 0.40706605
0.014322 0.076191142 0.40680331
0.014685511 0.076212913 0.40691611
0.015037154 0.076173529 0.40670231
0.015394833 0.076165833 0.40665764
0.01575158 0.076153994 0.4065907
0.016108058 0.076141402 0.40651974
0.016457444 0.07609655 0.40627649
0.016811501 0.076074779 0.4061563
0.017169926 0.076073259 0.40614423
0.017526556 0.076063998 0.40609077
0.017887063 0.076071613 0.40612727
0.018245213 0.076069079 0.40610957
0.018605562 0.076075636 0.40614036
0.018965498 0.076080292 0.40616086
0.019328391 0.076096423 0.40624255
0.019693073 0.076118864 0.40635791
0.020059936 0.076148793 0.40651315
0.039215084 0.075006559 0.40006152
0.039574582 0.075017437 0.4001112
0.039899908 0.074963927 0.39981738
0.040216397 0.074894898 0.39944074
0.040541388 0.074842766 0.39915419
0.04088036 0.074817114 0.39900878
0.041211318 0.074777365 0.39878815
0.041540064 0.074734308 0.3985498
0.04189628 0.074740969 0.39857656
0.042240664 0.074726604 0.39849111
0.04258329 0.074709378 0.39839038
0.042924736 0.074690394 0.39828014
0.043268885 0.074676387 0.3981964
0.043605771 0.074650146 0.39804742
0.043945983 0.07463 0.39793083
0.044274218 0.074589983 0.3977083
0.044622641 0.074584335 0.3976689
0.044968892 0.074575171 0.39761072
0.045335114 0.07459902 0.39772844
0.045648884 0.07453686 0.39738753
0.045992121 0.074523397 0.39730623
0.046381447 0.074584238 0.39762104
0.051756117 0.074220337 0.3955197
0.052079257 0.074181989 0.39530474
0.052440815 0.074198507 0.39538211
0.052784745 0.074190035 0.39532623
0.053116202 0.074164249 0.39517805
0.053450104 0.074142188 0.39504969
0.053802796 0.074146323 0.39506081
0.054143172 0.07413353 0.39498168
0.05447543 0.07410986 0.39484456
0.054802563 0.074079566 0.3946721
0.055121951 0.074039251 0.39444619
0.055473484 0.074042343 0.39445147
0.055821553 0.074040808 0.39443207
0.056174509 0.074045733 0.394447
0.056560554 0.074093938 0.39469245
0.002487377 0.077247418 0.41056392
0.0028501691 0.077253424 0.41059473
0.0032127209 0.077252284 0.41058752
0.0035742675 0.077229634 0.41046599
0.0039355424 0.077205837 0.41033819
0.0042976588 0.077201135 0.41031188
0.0046585193 0.07717637 0.41017881
0.0050172447 0.077122353 0.40989023
0.0053786747 0.077114366 0.40984619
0.005740277 0.077109687 0.40981972
0.0061006262 0.077089734 0.40971196
0.0064579183 0.077035546 0.40942219
0.0068168226 0.077005319 0.40925962
0.0071787462 0.077010505 0.40928525
0.0075398991 0.077007316 0.40926629
0.0079009384 0.077003308 0.40924296
0.0082563143 0.076946877 0.40894085
0.0086180586 0.076952033 0.408966
0.0089736711 0.076904222 0.40870962
0.0093338704 0.076897882 0.40867355
0.0096913241 0.076870248 0.40852425
0.010053261 0.076878868 0.40856755
0.010406966 0.076826125 0.40828466
0.010765971 0.076814719 0.40822133
0.011125146 0.076805234 0.40816826
0.011480854 0.076773144 0.40799487
0.011836858 0.076744936 0.40784207
0.012194427 0.076728225 0.40775031
0.01255003 0.076700464 0.40759975
0.012907798 0.07668712 0.40752572
0.01326395 0.076665148 0.40740576
0.013623415 0.07666298 0.40739098
0.013979519 0.076642483 0.40727878
0.014329603 0.076590843 0.40700099
0.014689542 0.076593116 0.4070096
0.015043627 0.076565482 0.40685922
0.015401268 0.076556809 0.40680951
0.01575793 0.076543778 0.40673661
0.016114758 0.076532111 0.40667084
0.016469426 0.076510929 0.40655443
0.016821342 0.076478116 0.40637624
0.017172012 0.076441146 0.40617582
0.017529555 0.076435633 0.40614247
0.017888816 0.076437704 0.40614939
0.018246857 0.07643456 0.4061285
0.018606927 0.076439895 0.40615258
0.018967953 0.07644885 0.40619585
0.019325947 0.076445505 0.40617368
0.019690478 0.076467648 0.4062869
0.02005126 0.076474719 0.40631986
0.020413384 0.07648655 0.40637812
0.020777399 0.076504938 0.4064711
0.038904175 0.075443462 0.40049496
0.039229777 0.07538861 0.40019551
0.039565954 0.075354882 0.40000811
0.039878435 0.075277008 0.39958632
0.040223219 0.075260937 0.39949262
0.040566057 0.075241551 0.39938119
0.040901795 0.075209439 0.39920214
0.041222531 0.075150535 0.39888084
0.041565508 0.075132824 0.39877814
0.041915484 0.075127959 0.39874354
0.042258322 0.075110488 0.39864197
0.042616647 0.075120598 0.39868674
0.042937655 0.075065307 0.39838433
0.043286748 0.075059615 0.39834508
0.04362338 0.075032577 0.3981925
0.043946341 0.074982658 0.39791843
0.044305749 0.074995212 0.39797586
0.04465773 0.074995093 0.39796597
0.045003913 0.074985325 0.39790478
0.045348573 0.074973181 0.39783093
0.045680132 0.074939735 0.39764401
0.046022691 0.074924715 0.39755479
0.051768698 0.074588604 0.39560068
0.052110448 0.074576594 0.39552635
0.05245591 0.074570008 0.39548078
0.052818287 0.074587397 0.39556226
0.053147819 0.074558489 0.39539817
0.053491902 0.074550226 0.39534351
0.053837266 0.074543841 0.39529878
0.054160938 0.074507706 0.39509621
0.054483172 0.07447008 0.39488566
0.054844633 0.074486189 0.39496002
0.055165317 0.074447066 0.39474148
0.055496566 0.074422613 0.39460063
0.055851206 0.074429631 0.39462662
0.056222975 0.074459247 0.39477232
0.05657766 0.074466005 0.39479682
0.00285092 0.077634141 0.41067326
0.0032135856 0.077633724 0.41066992
0.0035762019 0.077632308 0.41066125
0.003937311 0.077601448 0.41049671
0.0042977636 0.077563927 0.41029689
0.0046609137 0.077577159 0.4103654
0.0050214585 0.077548213 0.41021082
0.0053811455 0.077510796 0.41001135
0.005742338 0.077498421 0.40994424
0.0061017205 0.077464528 0.40976325
0.0064627402 0.077454053 0.40970603
0.0068224012 0.07742925 0.40957296
0.0071820412 0.077406719 0.40945184
0.0075412472 0.077381887 0.40931851
0.0079009905 0.077364594 0.40922493
0.0082621267 0.077361844 0.40920824
0.0086238887 0.077364951 0.40922242
0.0089799026 0.077318281 0.40897331
0.0093409391 0.077316821 0.40896317
0.0096975071 0.077279828 0.40876505
0.010051011 0.07722196 0.40845644
0.010415645 0.077250667 0.40860566
0.01076677 0.077180579 0.4082323
0.01112874 0.077190273 0.40828082
0.011488633 0.077185385 0.40825221
0.011843748 0.077149689 0.40806046
0.012205201 0.077156149 0.40809166
0.012555945 0.077096477 0.40777305
0.012914705 0.077087998 0.40772507
0.013269868 0.077059068 0.4075689
0.013633505 0.077079572 0.40767413
0.013984434 0.077029042 0.40740353
0.014341081 0.077011727 0.40730861
0.014697395 0.076993532 0.40720886
0.015051383 0.076964296 0.40705073
0.015404303 0.076931097 0.40687153
0.015763268 0.076928906 0.40685627
0.016121458 0.076923117 0.40682191
0.016477456 0.076907352 0.40673468
0.016826743 0.076861598 0.40648881
0.017183824 0.076852597 0.40643725
0.017535303 0.076819442 0.40625787
0.017892659 0.076812834 0.40621883
0.018249281 0.076803401 0.40616477
0.01860751 0.07680095 0.40614757
0.018967459 0.076805577 0.40616769
0.019327465 0.076810241 0.40618798
0.019686971 0.076812796 0.40619701
0.020048937 0.076824658 0.40625525
0.020407019 0.076821506 0.40623391
0.020769235 0.07683374 0.40629399
0.021130053 0.076840483 0.40632486
0.03821886 0.075843245 0.40073618
0.038576722 0.075850137 0.40076444
0.038896997 0.075783662 0.40040499
0.039225452 0.075734191 0.40013537
0.039572515 0.075721197 0.40005839
0.039915606 0.075700901 0.39994282
0.040228974 0.075625099 0.39953384
0.040564846 0.075592555 0.39935336
0.04091467 0.075586334 0.39931196
0.041247167 0.075548485 0.39910334
0.041589044 0.075528316 0.39898807
0.041939531 0.07552398 0.39895642
0.042283624 0.075508311 0.39886481
0.042638205 0.075511478 0.39887261
0.042983145 0.075497635 0.3987906
0.043303922 0.075441942 0.39848736
0.043647103 0.075425856 0.39839333
0.043978676 0.07539013 0.39819551
0.044335786 0.0753984 0.39822996
0.044670522 0.075368792 0.39806426
0.045026936 0.075375929 0.39809269
0.045377742 0.075373642 0.3980712
0.04572374 0.075363465 0.39800799
0.046084289 0.075377248 0.39807126
0.046470188 0.075431965 0.39835063
0.046864714 0.075499766 0.39869899
0.051764775 0.074933149 0.39555541
0.052130867 0.074956119 0.39566603
0.052484449 0.07496091 0.39568067
0.052828126 0.074951567 0.3956207
0.053183466 0.074958809 0.39564812
0.053522162 0.074942641 0.39555198
0.053864844 0.074932232 0.39548615
0.054205827 0.074919596 0.39540851
0.054519314 0.074869379 0.39513245
0.054865263 0.074864089 0.39509347
0.055199258 0.074842662 0.39496925
0.055538543 0.074828617 0.39488399
0.055873659 0.074809179 0.39477021
0.0032147896 0.07802356 0.41079554
0.0035767097 0.078004241 0.4106926
0.0039394819 0.078005344 0.4106971
0.004300768 0.077979304 0.41055864
0.0046624099 0.07796324 0.41047272
0.0050226939 0.077928446 0.41028798
0.0053849644 0.07792706 0.41027912
0.0057461476 0.077911101 0.41019344
0.0061050756 0.077868253 0.4099662
0.0064654094 0.077847145 0.40985325
0.0068270992 0.077843726 0.40983337
0.0071865255 0.077816121 0.40968612
0.0075459885 0.077791564 0.40955478
0.0079051815 0.077766582 0.40942121
0.0082653929 0.077753358 0.40934938
0.0086238254 0.077725202 0.40919894
0.0089845387 0.077719048 0.40916425
0.009342785 0.077692844 0.40902388
0.0096997945 0.077658691 0.40884167
0.010060373 0.077654518 0.40881717
0.010420091 0.077644236 0.40876043
0.010775981 0.07760708 0.40856215
0.011131356 0.07756871 0.40835744
0.011492935 0.077574648 0.40838587
0.011849368 0.077546522 0.40823495
0.012207177 0.077528812 0.40813875
0.012564657 0.077510081 0.4080371
0.012920761 0.077484138 0.40789744
0.013275581 0.077452116 0.40772572
0.013633552 0.077439666 0.40765691
0.013990836 0.077424072 0.40757149
0.014348684 0.077412285 0.40750608
0.014703065 0.077382833 0.40734756
0.015060709 0.077371545 0.40728465
0.015410844 0.077323101 0.40702602
0.015771033 0.077326171 0.40703851
0.016125578 0.077302046 0.40690774
0.016485324 0.07730335 0.40691084
0.016841168 0.077286698 0.40681925
0.017191254 0.077244863 0.40659508
0.017543942 0.077216193 0.40644014
0.017902911 0.077215761 0.40643376
0.018251691 0.077172272 0.40620065
0.01861191 0.077177882 0.40622592
0.018968532 0.077168643 0.40617296
0.019328753 0.077174112 0.4061974
0.019688819 0.077178769 0.40621746
0.020048087 0.077180207 0.4062205
0.020408845 0.07718721 0.40625271
0.020768041 0.077188171 0.4062531
0.021127807 0.077191181 0.40626419
0.021484636 0.077183537 0.40621915
0.021849955 0.077206142 0.40633318
0.022210224 0.077210449 0.40635094
0.037557304 0.076293431 0.40123987
0.037892006 0.076252982 0.40101916
0.038244132 0.076248027 0.40098497
0.038572777 0.076196767 0.4007073
0.03889107 0.076126188 0.40032795
0.039234132 0.076104917 0.40020782
0.03956316 0.076057062 0.39994782
0.039904069 0.076032676 0.39981121
0.040238179 0.07599587 0.39960927
0.040579565 0.075973347 0.39948231
0.040928643 0.075965479 0.39943233
0.041270196 0.075943902 0.39931023
0.041616891 0.075932071 0.39923933
0.041958775 0.075911723 0.39912361
0.042302761 0.075895503 0.39902949
0.042654466 0.075893268 0.39900884
0.042984959 0.075853646 0.39879158
0.043309268 0.075803839 0.39852074
0.043668415 0.075815327 0.39857206
0.04400393 0.075785935 0.39840838
0.044362724 0.075796776 0.39845619
0.044690683 0.075755179 0.39822823
0.045036163 0.07574369 0.39815855
0.045394126 0.075753219 0.39819926
0.045755375 0.075768046 0.39826766
0.04612964 0.075804025 0.3984473
0.046528704 0.075879909 0.39883655
0.052507021 0.075343624 0.39583555
0.052850429 0.075333655 0.39577246
0.053193606 0.075323485 0.39570832
0.053527575 0.0753005 0.39557672
0.053881612 0.075305864 0.395594
0.054225467 0.075297005 0.39553657
0.054556597 0.07527072 0.39538744
0.054877568 0.075230829 0.39516687
0.055212267 0.075210162 0.39504719
0.055561405 0.075209275 0.39503139
0.0559012 0.075195849 0.39494964
0.056245171 0.075188175 0.39489803
0.0032152387 0.078395233 0.41082457
0.0035785926 0.078406364 0.4108817
0.0039405022 0.078386709 0.41077745
0.0043036342 0.078392617 0.41080701
0.0046653235 0.07837338 0.41070476
0.0050263922 0.078347214 0.41056615
0.0053865695 0.078311615 0.41037804
0.0057477392 0.078294024 0.41028422
0.0061094346 0.07828524 0.41023648
0.0064692241 0.078254387 0.41007301
0.0068300338 0.07823848 0.40998781
0.0071892748 0.078207113 0.40982148
0.0075512617 0.078207187 0.40981981
0.0079110675 0.078185685 0.40970507
0.0082699619 0.078157447 0.40955499
0.008631655 0.078156911 0.40954995
0.0089891711 0.078120135 0.4093549
0.0093478635 0.07809601 0.40922612
0.0097071417 0.078078389 0.40913135
0.010064421 0.078046538 0.40896192
0.01042401 0.078034163 0.40889451
0.010781965 0.07801082 0.40876946
0.011140152 0.077990584 0.40866074
0.01149505 0.077949323 0.40844175
0.011853843 0.07793618 0.40836996
0.012212021 0.077919893 0.40828165
0.012570278 0.077905014 0.40820068
0.012925383 0.077871986 0.40802452
0.013282224 0.077850901 0.40791088
0.013641157 0.077842884 0.40786564
0.014001359 0.077842332 0.40785941
0.014363081 0.077850036 0.4078964
0.014711655 0.077787846 0.40756708
0.015068095 0.077769227 0.40746599
0.015419039 0.077723764 0.40722418
0.015778337 0.077721521 0.40720874
0.016131645 0.077690519 0.40704262
0.016486347 0.07766746 0.40691793
0.016843861 0.077658333 0.40686625
0.017202955 0.077656716 0.40685382
0.017561538 0.077652901 0.4068298
0.017911738 0.077612914 0.40661621
0.018259313 0.077563353 0.40635243
0.018614924 0.077549182 0.4062739
0.018971043 0.077537611 0.40620899
0.019330317 0.077539131 0.40621254
0.019688681 0.077537008 0.40619695
0.020047901 0.077538267 0.40619904
0.020408088 0.077543169 0.40622008
0.020766163 0.077540003 0.40619883
0.02112698 0.077547006 0.40623078
0.021484347 0.077541314 0.40619615
0.021843271 0.077541351 0.40619144
0.022202356 0.07754194 0.40618956
0.022565324 0.077555865 0.40625745
0.022922406 0.077549413 0.40621859
0.036866341 0.076687045 0.40144238
0.037231285 0.076707572 0.40154198
0.0375847 0.076704189 0.40151632
0.037912939 0.076649956 0.40122443
0.03823996 0.076594301 0.40092504
0.038569607 0.076544866 0.40065816
0.038906574 0.076510742 0.40047139
0.039238524 0.076467447 0.40023652
0.039581235 0.076445706 0.40011439
0.039928976 0.076433994 0.40004468
0.040276527 0.076422103 0.39997402
0.040592156 0.076350391 0.39959019
0.040943891 0.076347239 0.39956513
0.041286279 0.076326862 0.39944983
0.041642707 0.076332562 0.39947101
0.041964646 0.076275475 0.39916348
0.04232002 0.076279618 0.39917633
0.042667668 0.076269865 0.39911643
0.043014973 0.07625968 0.39905417
0.04336727 0.076258436 0.39903864
0.043702647 0.076227687 0.39886865
0.044035163 0.076192476 0.39867529
0.044373978 0.076168649 0.39854142
0.044722825 0.076162279 0.3984988
0.045066688 0.076147586 0.39841262
0.045424931 0.076157227 0.39845368
0.04578504 0.076169819 0.3985101
0.046162728 0.076211244 0.39871731
0.046535816 0.076244503 0.39888173
0.046911065 0.07628078 0.39906186
0.052518204 0.075710222 0.39590448
0.052866694 0.075707376 0.39587894
0.053209145 0.075695977 0.39580858
0.053560585 0.075697437 0.39580536
0.053900387 0.075682528 0.39571652
0.054240108 0.075667694 0.39562809
0.054575846 0.07564754 0.39551169
0.05492083 0.075640365 0.39546317
0.055259969 0.0756253 0.39537326
0.055583283 0.075588882 0.39517176
0.055930793 0.075585641 0.39514357
0.0035791392 0.078779437 0.41091722
0.0039416612 0.07877101 0.41087201
0.0043043988 0.078767948 0.4108547
0.0046673184 0.078768417 0.41085574
0.0050282204 0.078737222 0.41069153
0.0053901416 0.078725114 0.41062677
0.0057515209 0.078707092 0.41053116
0.00611358 0.078699969 0.41049224
0.0064727189 0.078658141 0.41027233
0.0068334914 0.078639545 0.41017348
0.0071935914 0.078615479 0.41004598
0.0075573265 0.07863152 0.4101277
0.0079147657 0.078583591 0.40987557
0.0082726507 0.07854408 0.40966737
0.0086337496 0.078537107 0.40962878
0.008993471 0.078518674 0.40953034
0.0093486831 0.078463815 0.40924183
0.0097105773 0.078467019 0.40925607
0.010068152 0.078436352 0.40909362
0.010427578 0.078421727 0.40901473
0.010787424 0.078411132 0.40895683
0.011147141 0.078400314 0.40889764
0.011505387 0.078380138 0.4087896
0.011865662 0.078374609 0.4087579
0.012219174 0.078326032 0.40850163
0.012575558 0.078298151 0.40835312
0.012934872 0.078289531 0.40830508
0.013288486 0.0782478 0.40808433
0.013650523 0.078256592 0.40812689
0.014007246 0.078235231 0.40801218
0.014362272 0.078205712 0.40785483
0.014719337 0.078188449 0.40776137
0.015075662 0.078168184 0.40765217
0.015429498 0.078136243 0.407482
0.015790146 0.078139484 0.40749517
0.016141331 0.078096777 0.40726873
0.016496005 0.078072451 0.40713805
0.016853182 0.078060769 0.40707323
0.017208328 0.078040347 0.40696281
0.017560989 0.078009725 0.40679908
0.017922284 0.078017905 0.40683764
0.018269163 0.077964254 0.40655369
0.018621547 0.077935711 0.40640056
0.018979181 0.077929787 0.40636542
0.01933413 0.077913262 0.40627486
0.019691868 0.077908389 0.40624493
0.020050047 0.077905387 0.40622482
0.020406663 0.077896543 0.40617406
0.020765038 0.077894576 0.40615916
0.021124892 0.077898137 0.40617299
0.021483596 0.077897415 0.40616444
0.021841547 0.077894017 0.40614185
0.02219951 0.077890784 0.40612
0.022560783 0.077899076 0.40615821
0.022920208 0.077900827 0.40616223
0.023279976 0.077903673 0.40617189
0.023638602 0.077902667 0.4061614
0.036205724 0.077147178 0.40198934
0.036573086 0.077172287 0.40211245
0.036904376 0.077121526 0.40184018
0.037241373 0.077083565 0.40163445
0.037575465 0.077040344 0.40140134
0.037918374 0.07701584 0.40126568
0.03823825 0.076945439 0.40089083
0.03858225 0.076924436 0.40077329
0.038917635 0.076886795 0.40056896
0.039240003 0.076824337 0.40023538
0.039582536 0.076802142 0.40011138
0.039941672 0.07681226 0.40015572
0.040284082 0.076790303 0.40003294
0.040628839 0.076773182 0.39993519
0.04096384 0.076738067 0.39974374
0.04129843 0.076702796 0.39955136
0.041639127 0.076679356 0.39942062
0.041993186 0.076680735 0.39941898
0.042342696 0.076673828 0.39937422
0.04269243 0.076667443 0.39933208
0.043030001 0.076639511 0.39917761
0.043375034 0.076625191 0.39909405
0.043707069 0.07658834 0.39889306
0.044054776 0.076579325 0.39883694
0.044394512 0.076556705 0.39870995
0.044753276 0.076567002 0.3987543
0.045097396 0.076552264 0.39866823
0.045451637 0.076554805 0.39867207
0.045824058 0.076587692 0.39883393
0.046182819 0.076597422 0.39887506
0.046554618 0.076628461 0.39902714
0.046909984 0.076632187 0.39903685
0.052882735 0.076080985 0.39598364
0.053239178 0.076089375 0.39601657
0.053576414 0.076070391 0.39590693
0.053931881 0.076077372 0.39593241
0.054251857 0.076034524 0.39569849
0.054588374 0.076015249 0.39558721
0.054938186 0.076014616 0.39557287
0.055246398 0.075956799 0.3952609
0.0039433283 0.079165697 0.4110195
0.0043060808 0.079160243 0.41098982
0.004667385 0.079131067 0.41083691
0.0050302297 0.079130314 0.41083154
0.0053922073 0.07911694 0.41076055
0.0057555689 0.079124287 0.41079706
0.0061150561 0.079080641 0.41056871
0.0064746714 0.079043455 0.41037387
0.0068373252 0.079045311 0.41038164
0.0071973228 0.079017833 0.41023704
0.0075579975 0.079000063 0.41014275
0.0079176407 0.078973621 0.41000339
0.0082769608 0.078946397 0.40985993
0.008638626 0.078942887 0.40983948
0.0089982497 0.07892175 0.40972745
0.0093594398 0.078915462 0.40969238
0.0097205462 0.078908935 0.40965611
0.010073573 0.078839652 0.40929392
0.010435171 0.078839935 0.40929276
0.010789905 0.078790054 0.40903115
0.011152041 0.078795724 0.40905783
0.011510754 0.078777596 0.40896091
0.011870641 0.078768365 0.4089101
0.012225259 0.078725733 0.40868586
0.012580188 0.078687489 0.40848431
0.012936192 0.078657925 0.40832773
0.013297611 0.078661986 0.40834567
0.013655216 0.078643873 0.40824839
0.014013158 0.078628577 0.40816566
0.014370965 0.078613304 0.40808299
0.01472919 0.078601003 0.4080157
0.015087013 0.078587204 0.40794048
0.015441918 0.078559197 0.4077915
0.015791811 0.078507543 0.40751976
0.01614555 0.078476891 0.40735686
0.016508326 0.07849054 0.40742391
0.01685529 0.078430027 0.40710586
0.01721647 0.078436822 0.40713722
0.017571127 0.078414209 0.4070158
0.017925024 0.078389175 0.40688178
0.018279511 0.078367665 0.406766
0.018635828 0.078354664 0.40669423
0.018980961 0.078296028 0.4063856
0.01934642 0.078321859 0.4065153
0.01969563 0.078282155 0.40630478
0.020054022 0.078279726 0.40628761
0.020411264 0.078272954 0.40624788
0.020766718 0.078259684 0.4061743
0.021123843 0.078253061 0.4061352
0.021481883 0.078249976 0.40611437
0.021841187 0.078251526 0.40611756
0.022200411 0.078252748 0.40611893
0.022558551 0.07825017 0.40610051
0.022918718 0.07825458 0.40611833
0.023277018 0.078252576 0.40610281
0.023635115 0.078249969 0.406084
0.023993038 0.078246869 0.40606263
0.024352735 0.078249559 0.40607119
0.024713265 0.078254804 0.406093
0.025072141 0.078254737 0.4060871
0.035218246 0.077676699 0.40289834
0.035541654 0.077604964 0.40251878
0.035874471 0.077555001 0.40225199
0.036229022 0.07755255 0.4022316
0.036568541 0.077518255 0.40204602
0.036897458 0.077462383 0.40174842
0.037228797 0.077412613 0.40148243
0.037578933 0.077402487 0.40142199
0.037918866 0.077371731 0.4012545
0.038243305 0.077310234 0.40092751
0.038585361 0.077285148 0.40078932
0.038915429 0.077236727 0.40053001
0.039254952 0.077207766 0.40037161
0.039599977 0.077190049 0.40027142
0.039957128 0.077196077 0.4002943
0.040302102 0.077178679 0.40019569
0.04064801 0.077163368 0.40010777
0.04097411 0.077111021 0.39982778
0.041331455 0.077117875 0.39985472
0.041663181 0.077077217 0.39963523
0.042009924 0.077064797 0.39956203
0.042367801 0.077072836 0.39959493
0.042716082 0.077063434 0.3995373
0.043059185 0.077044912 0.3994323
0.043388214 0.077001698 0.39919934
0.043725539 0.076973811 0.39904565
0.044078719 0.076974049 0.39903775
0.044417445 0.076949239 0.39889997
0.044763111 0.076936752 0.398826
0.045115653 0.076936178 0.39881372
0.045468643 0.076936379 0.39880532
0.045830932 0.076952189 0.39887786
0.046204254 0.076986127 0.39904428
0.046572782 0.077011637 0.39916691
0.052902408 0.076460063 0.39611548
0.053253248 0.076460265 0.3961058
0.053613201 0.07647346 0.39616334
0.053963326 0.076472558 0.39614782
0.054285754 0.076432675 0.39593029
0.054651082 0.076453313 0.39602622
0.054957021 0.076391138 0.39569312
0.055316038 0.076403059 0.39574379
0.05568894 0.076433882 0.39589229
0.0043079271 0.079555817 0.41114044
0.004670911 0.079552606 0.41112244
0.0050331666 0.079538345 0.41104725
0.0053946362 0.079514407 0.41092196
0.0057576452 0.079514742 0.41092205
0.0061175614 0.079474859 0.41071424
0.0064790309 0.079458475 0.41062778
0.0068394002 0.07943105 0.41048419
0.0071996162 0.079404697 0.41034603
0.0075620352 0.079403989 0.41034043
0.0079186419 0.0793451 0.410034
0.0082808398 0.079344943 0.41003102
0.0086420067 0.079335332 0.40997913
0.0090010921 0.079308137 0.40983629
0.0093607567 0.079287961 0.40972966
0.0097199269 0.079265237 0.40960979
0.01007944 0.079246849 0.40951225
0.010436381 0.079210207 0.40932032
0.010796262 0.079197578 0.40925238
0.01115636 0.079187304 0.40919656
0.011513921 0.079160243 0.40905389
0.011876262 0.079166673 0.40908426
0.012235014 0.079149514 0.40899262
0.012589029 0.079103559 0.40875217
0.012950288 0.079104424 0.40875354
0.013303992 0.079060338 0.40852258
0.013663707 0.079053365 0.40848327
0.014022031 0.079038903 0.40840521
0.014378381 0.079014316 0.40827477
0.01473502 0.078992471 0.40815848
0.015090717 0.078966752 0.40802205
0.015448092 0.0789508 0.40793604
0.015803806 0.078927279 0.40781081
0.016159831 0.078906313 0.40769875
0.016509602 0.078856394 0.40743703
0.016870743 0.078861758 0.40746081
0.017228842 0.078852966 0.40741146
0.01758134 0.078819424 0.40723416
0.017934453 0.078789927 0.40707764
0.018300343 0.078816622 0.40721139
0.018644955 0.078752413 0.4068754
0.019001823 0.078741416 0.40681428
0.019353971 0.078711621 0.40665597
0.019707998 0.078690425 0.406542
0.020064585 0.078680024 0.40648374
0.02041867 0.078660347 0.40637749
0.020774662 0.078648567 0.40631196
0.021125561 0.078618228 0.40615049
0.021481965 0.078609049 0.40609828
0.021839935 0.078605816 0.40607667
0.022199282 0.078607537 0.40608066
0.022558885 0.078610107 0.40608892
0.022914337 0.078598365 0.40602317
0.023274589 0.078603186 0.4060429
0.023632534 0.078600191 0.40602219
0.023991063 0.078599192 0.40601176
0.024348579 0.078594945 0.40598446
0.024702445 0.078579217 0.40589777
0.025061978 0.078581721 0.40590516
0.025415989 0.078567065 0.40582386
0.025784999 0.078598544 0.4059808
0.026126474 0.078546382 0.40570566
0.026490403 0.078562208 0.40578166
0.03349141 0.078160025 0.40357447
0.033840626 0.078142434 0.40347642
0.03416124 0.07805986 0.40304276
0.034522109 0.078070007 0.40308779
0.034869969 0.078050829 0.40298137
0.03520605 0.078005955 0.40274221
0.035549335 0.077977769 0.40258917
0.035877787 0.077917926 0.40227258
0.036213607 0.077875108 0.40204391
0.036557265 0.077849805 0.40190557
0.036892138 0.077806473 0.40167403
0.037240688 0.077792525 0.40159419
0.037585713 0.077771544 0.40147796
0.037916686 0.077722169 0.40121505
0.038247246 0.077672854 0.40095246
0.038582787 0.077634469 0.4007462
0.038947973 0.077655897 0.40084863
0.039271127 0.07759387 0.40052024
0.039619423 0.07758221 0.40045172
0.039971653 0.077578373 0.40042359
0.040326305 0.077579267 0.40041977
0.0406592 0.077538654 0.40020162
0.040994931 0.077504098 0.40001473
0.041341942 0.077491291 0.39994001
0.041700177 0.077499531 0.3999739
0.042042676 0.077478662 0.3998574
0.042371001 0.07743223 0.39960897
0.042720661 0.077425227 0.39956397
0.043071926 0.077421226 0.3995344
0.043411903 0.07739716 0.39940122
0.043757536 0.077383481 0.39932156
0.044101357 0.077366859 0.39922667
0.04442713 0.077319086 0.39897096
0.044781961 0.077322222 0.39897788
0.045133121 0.077319041 0.39895216
0.045490708 0.077326819 0.39898291
0.045849759 0.077336945 0.39902574
0.046219546 0.077364892 0.39916044
0.052678213 0.076995723 0.39706412
0.052932654 0.076854743 0.39632642
0.053283289 0.076854371 0.39631376
0.05362476 0.076840855 0.39623329
0.053973567 0.076837972 0.39620754
0.054326389 0.076840796 0.39621121
0.054651268 0.076804325 0.39601216
0.055021986 0.076832317 0.39614543
0.05533272 0.076776728 0.39584771
0.0046720174 0.079933278 0.41119492
0.0050352886 0.07993383 0.41119626
0.0053989184 0.079939611 0.41122442
0.0057583852 0.079886898 0.41095164
0.0061237193 0.079917014 0.4111048
0.0064834305 0.079874471 0.41088414
0.0068448698 0.079856589 0.41079032
0.0072027766 0.079801366 0.41050434
0.0075639267 0.079785652 0.41042149
0.007924187 0.079762414 0.41029987
0.0082876272 0.079771809 0.41034603
0.0086470628 0.079743482 0.41019812
0.0090086628 0.079736605 0.41016036
0.0093660979 0.079694785 0.40994292
0.0097278301 0.079691298 0.40992254
0.010084054 0.079644538 0.4096795
0.010444 0.079629406 0.4095991
0.010803645 0.079613067 0.4095124
0.011157485 0.079556398 0.4092181
0.011517342 0.079544827 0.40915582
0.01187552 0.079522714 0.4090392
0.012236277 0.079518668 0.40901542
0.012596036 0.07950855 0.4089604
0.012955295 0.079495929 0.40889233
0.013310487 0.079459719 0.40870291
0.013669748 0.079449058 0.40864483
0.014026023 0.079422042 0.40850261
0.014381412 0.079391479 0.40834197
0.014740312 0.079381317 0.40828627
0.01509781 0.07936427 0.40819511
0.015454323 0.079342961 0.40808189
0.015810668 0.079321779 0.40796927
0.016165195 0.079292625 0.40781558
0.01652451 0.079287715 0.40778649
0.016881647 0.079272784 0.40770581
0.017235771 0.079244614 0.40755701
0.01759446 0.079238154 0.40751976
0.017950192 0.079218909 0.4074167
0.018302267 0.079184592 0.40723601
0.018659659 0.079174154 0.40717813
0.019012079 0.079143435 0.40701577
0.019365974 0.079119861 0.40689015
0.019715682 0.079080343 0.40668252
0.020079605 0.079098254 0.40677008
0.020440724 0.079104662 0.40679845
0.020786315 0.079051822 0.40652204
0.021134119 0.079009026 0.40629724
0.021484504 0.078977138 0.40612847
0.021843238 0.078976497 0.4061203
0.022199564 0.07896731 0.40606812
0.022557914 0.0789655 0.40605381
0.022915993 0.078962795 0.40603486
0.023273539 0.078958392 0.40600699
0.023632051 0.078957334 0.40599635
0.02398698 0.078944519 0.40592515
0.02434529 0.078943029 0.4059121
0.024701023 0.078933358 0.40585697
0.025055707 0.078920648 0.40578613
0.025416508 0.078927308 0.40581477
0.025770256 0.078912169 0.40573129
0.026123118 0.078894779 0.40563616
0.026481118 0.078893147 0.40562201
0.026836613 0.078884222 0.40557024
0.027187426 0.078861929 0.40544972
0.027542565 0.078852624 0.40539584
0.027895762 0.078838043 0.40531486
0.028251097 0.078829803 0.40526634
0.028600723 0.078806043 0.40513805
0.031759955 0.07864739 0.40426359
0.032106407 0.078620531 0.40411863
0.032456499 0.078603059 0.40402189
0.032789592 0.078545265 0.40371782
0.033138569 0.078526333 0.40361345
0.033485532 0.078503087 0.40348682
0.033832569 0.078480512 0.40336359
0.034170773 0.078438118 0.40313843
0.034515996 0.078412555 0.4029997
0.034863025 0.078391582 0.40288448
0.035211958 0.07837525 0.40279311
0.035539232 0.078311533 0.4024581
0.035880562 0.078279741 0.4022871
0.036223944 0.078253008 0.40214208
0.036559146 0.078209274 0.40190965
0.036891542 0.07816045 0.40165094
0.037242871 0.078152291 0.4016012
0.037586372 0.07812801 0.40146852
0.03793323 0.078111097 0.40137362
0.038281836 0.078098066 0.40129861
0.038622268 0.078068748 0.40113986
0.038955249 0.078025043 0.40090707
0.039307136 0.078019641 0.40087113
0.039645355 0.077987455 0.40069744
0.039995208 0.077978522 0.4006432
0.040330723 0.077942029 0.40044731
0.040675506 0.077923946 0.40034586
0.041024365 0.077913895 0.40028566
0.041366577 0.077891499 0.40016204
0.04170721 0.077866547 0.40002516
0.042072531 0.077887721 0.40012515
0.042384926 0.07781136 0.3997241
0.042739745 0.077813514 0.3997263
0.0430912 0.077809557 0.39969701
0.043430571 0.077784009 0.39955679
0.043774743 0.077767409 0.39946246
0.044122361 0.07775715 0.39940065
0.044461787 0.077732734 0.39926609
0.044807222 0.077719115 0.39918688
0.045153949 0.077707946 0.39912021
0.045503929 0.077702492 0.39908284
0.045876246 0.077734977 0.39924023
0.046232231 0.0777395 0.39925396
0.052464459 0.077551007 0.39810467
0.052712478 0.077397652 0.3973068
0.052947629 0.077227548 0.39642292
0.053306855 0.077239469 0.39647338
0.053659294 0.07724148 0.3964729
0.054008015 0.077238128 0.39644486
0.054335192 0.077204213 0.39625987
0.054690406 0.077210315 0.3962802
0.055027381 0.077190749 0.3961688
0.05539507 0.077214248 0.39627829
0.0050361087 0.080308832 0.41123879
0.0054006055 0.080326766 0.41132906
0.0057624145 0.080304973 0.41121578
0.0061246953 0.080291942 0.41114736
0.0064857597 0.080265313 0.41100922
0.0068479376 0.080254547 0.41095224
0.0072077154 0.080218151 0.41076395
0.0075686714 0.080197722 0.41065732
0.0079290932 0.080173761 0.41053253
0.0082914829 0.080170915 0.41051582
0.0086508133 0.080139965 0.41035506
0.009014057 0.08014629 0.41038522
0.0093737515 0.080121793 0.4102574
0.0097322473 0.080089241 0.41008827
0.010091534 0.08006531 0.40996319
0.010449676 0.080034256 0.4098016
0.010806673 0.079996809 0.4096072
0.011162549 0.07995376 0.40938404
0.011524438 0.079955123 0.40938821
0.011884782 0.079946004 0.40933865
0.01224163 0.0799146 0.40917489
0.012604523 0.079923324 0.40921658
0.012960328 0.079887874 0.40903193
0.013318178 0.07986661 0.4089199
0.013674131 0.079835378 0.40875676
0.014033568 0.07982558 0.40870327
0.014391655 0.079808779 0.40861386
0.014748172 0.079784304 0.40848514
0.015107851 0.079777703 0.40844777
0.015461915 0.079742439 0.40826365
0.015817292 0.079715401 0.40812156
0.016172443 0.079688445 0.40797982
0.01652935 0.079671144 0.40788743
0.016885653 0.079651728 0.4077841
0.017243832 0.079641767 0.40772921
0.017607616 0.079657584 0.40780616
0.017959639 0.079620622 0.4076128
0.018310964 0.079582088 0.40741134
0.018663479 0.079550087 0.40724331
0.01901863 0.079530329 0.40713784
0.019372843 0.079507455 0.4070164
0.019732067 0.079505607 0.40700248
0.020089323 0.079496033 0.40694895
0.020446703 0.079487272 0.40689954
0.020797992 0.079455554 0.40673244
0.021151179 0.079432026 0.4066073
0.021504533 0.079409905 0.40648925
0.021852849 0.079370208 0.40628123
0.022204395 0.079343349 0.40613872
0.022561438 0.079336658 0.40609953
0.022916935 0.079324819 0.40603384
0.023271497 0.079310179 0.40595374
0.023627939 0.079302274 0.40590808
0.023985341 0.079297781 0.4058798
0.024340235 0.079285257 0.4058103
0.02470066 0.079290837 0.40583345
0.025055284 0.079277918 0.40576181
0.025411539 0.079270437 0.40571797
0.025768507 0.079265356 0.40568635
0.026122196 0.07925047 0.40560442
0.026480105 0.079248615 0.40558913
0.02683432 0.079235904 0.40551826
0.02718946 0.079226218 0.40546274
0.027540548 0.079205133 0.40534881
0.027892541 0.079187147 0.40525079
0.028246954 0.079176411 0.40518969
0.028599897 0.079161875 0.40510911
0.028956812 0.079158545 0.40508577
0.029308477 0.079141125 0.40499032
0.029653382 0.079106092 0.40480465
0.03000842 0.079098605 0.40475985
0.030356124 0.079072185 0.40461814
0.030707037 0.079054631 0.40452176
0.031057298 0.079035841 0.40441892
0.031401765 0.079002894 0.40424356
0.031749085 0.078977786 0.40410829
0.032097559 0.07895606 0.4039903
0.032439291 0.078918435 0.4037908
0.032789838 0.078902803 0.40370387
0.033137541 0.078880772 0.40358406
0.033484198 0.078856729 0.40345392
0.033827621 0.078825668 0.40328777
0.034171157 0.0787955 0.40312618
0.034517549 0.078772478 0.40300107
0.034857564 0.078735515 0.40280458
0.035203099 0.078711644 0.40267506
0.035530053 0.078647129 0.40233743
0.035879496 0.078633189 0.40225852
0.036213707 0.078586444 0.40201175
0.036555685 0.078557305 0.40185502
0.036901627 0.078537166 0.40174416
0.037259459 0.078542471 0.4017635
0.037604235 0.078520425 0.4016428
0.037947401 0.078495443 0.40150705
0.038300391 0.078491069 0.40147662
0.038635749 0.078450963 0.40126339
0.038973298 0.078415982 0.40107632
0.039319053 0.078398019 0.40097621
0.039672308 0.078395188 0.40095344
0.040009752 0.078361437 0.40077245
0.040359847 0.078352846 0.40072009
0.040696014 0.078317598 0.40053135
0.041049041 0.078315116 0.4005101
0.041401867 0.0783123 0.4004871
0.041743878 0.078289255 0.40036052
0.042062093 0.078222327 0.40000954
0.042433176 0.078254029 0.40016288
0.042774197 0.078230225 0.40003225
0.043115951 0.078208119 0.39991033
0.043451067 0.078174457 0.39972919
0.043794241 0.078155704 0.39962423
0.044130981 0.078125864 0.39946255
0.044474866 0.078109033 0.39936733
0.044830468 0.078112893 0.39937785
0.045167457 0.078084521 0.39922348
0.045526218 0.078093924 0.39926222
0.045879308 0.078093536 0.39925081
0.046249382 0.078121841 0.39938602
0.052462459 0.077900574 0.39807376
0.052697286 0.077727072 0.39717653
0.053011518 0.077672228 0.39688563
0.053342063 0.077641845 0.39671966
0.053697355 0.077647634 0.39673847
0.05402464 0.077613123 0.39655128
0.054358099 0.077587858 0.39641133
0.054709837 0.077588856 0.39640543
0.055046286 0.0775683 0.39628938
0.055424914 0.077607051 0.39647627
0.0050395252 0.080725543 0.41149333
0.0054005845 0.080688611 0.41130352
0.0057645314 0.080696762 0.41134343
0.0061266017 0.080679223 0.41125229
0.0064888969 0.080666438 0.41118532
0.0068520112 0.080664657 0.41117439
0.0072121476 0.080629744 0.4109945
0.0075740903 0.080617405 0.41092962
0.0079316562 0.080561735 0.41064376
0.0082934331 0.080551825 0.4105911
0.0086559532 0.080549672 0.41057792
0.0090156058 0.080522075 0.41043487
0.0093754502 0.080498248 0.41031107
0.0097391736 0.080508254 0.41035965
0.010097815 0.080477037 0.410198
0.010450791 0.080404393 0.40982518
0.010813279 0.080407351 0.40983754
0.011171439 0.080378957 0.40969014
0.011532003 0.080369122 0.40963718
0.011893223 0.080364294 0.40960971
0.012250536 0.080334134 0.40945303
0.012613175 0.080339625 0.40947801
0.012961859 0.080258399 0.4090609
0.013323194 0.080257788 0.40905464
0.013680616 0.080234267 0.40893149
0.01404093 0.080228448 0.40889856
0.014399337 0.080212317 0.40881297
0.014757428 0.080195248 0.40872252
0.015111602 0.080158226 0.40853029
0.015469516 0.080142304 0.40844554
0.015826128 0.080120511 0.40833083
0.016181657 0.08009433 0.40819365
0.016532345 0.080045849 0.40794274
0.01689516 0.080056891 0.40799513
0.017253561 0.080046989 0.40794078
0.017615493 0.080053553 0.40797016
0.017972646 0.080038562 0.40788963
0.018321428 0.0799876 0.40762582
0.018675188 0.079959922 0.40748054
0.01903021 0.079938598 0.40736756
0.019382086 0.0799051 0.40719241
0.019736715 0.079883955 0.40708023
0.020095723 0.079880968 0.40706047
0.020452086 0.07986775 0.40698859
0.020812957 0.079872303 0.40700707
0.021162285 0.079833142 0.40680286
0.021519786 0.07982561 0.40675965
0.021862647 0.079764917 0.4064455
0.022219099 0.079754964 0.40638986
0.022567734 0.079717711 0.40619501
0.022926517 0.079716913 0.4061859
0.023279762 0.079697177 0.40608016
0.023635721 0.079687186 0.40602407
0.023987241 0.079662755 0.40589428
0.024341561 0.079648204 0.40581477
0.02469752 0.07963936 0.40576428
0.025053127 0.079629637 0.4057093
0.02541085 0.079626836 0.40568945
0.025765553 0.079614766 0.4056223
0.026123095 0.079611681 0.40560091
0.02647518 0.079592288 0.40549627
0.02682746 0.079573967 0.40539712
0.027186073 0.079574682 0.40539485
0.027541773 0.079566956 0.40534952
0.027889855 0.079537705 0.40519443
0.028243763 0.079525582 0.4051266
0.028599275 0.079518251 0.405083
0.028950086 0.079498172 0.40497449
0.029303607 0.079485923 0.4049058
0.02965503 0.079468369 0.40480992
0.030007433 0.079453811 0.40472937
0.030352082 0.079419322 0.40454713
0.03070399 0.079404399 0.40446451
0.031051297 0.079378054 0.40432367
0.03139969 0.079355054 0.40419981
0.03175199 0.079342321 0.40412816
0.03210146 0.079322897 0.40402237
0.032440986 0.079279594 0.40379485
0.032783777 0.079245128 0.40361232
0.033135366 0.079232432 0.40354055
0.033477582 0.079197831 0.40335727
0.033818275 0.079160407 0.40315944
0.034169059 0.07914713 0.40308461
0.034509253 0.079109848 0.4028874
0.034861717 0.07910116 0.40283579
0.03519335 0.079045869 0.40254676
0.035535071 0.079014115 0.40237755
0.035886239 0.079003789 0.40231735
0.036235631 0.078989781 0.40223837
0.036563739 0.078930117 0.40192682
0.036921524 0.078935035 0.4019441
0.037261702 0.078902587 0.40177104
0.037617307 0.078903094 0.4017657
0.037952226 0.078860618 0.40154144
0.03831052 0.078867048 0.40156621
0.038645755 0.078826316 0.40135071
0.038992628 0.078809865 0.4012588
0.039342124 0.07879895 0.40119499
0.039680347 0.078765854 0.40101817
0.040024456 0.078744918 0.40090325
0.040378854 0.078744434 0.40089235
0.040708076 0.078695267 0.40063357
0.041061938 0.07869418 0.40061951
0.041412365 0.078686588 0.40057224
0.041752305 0.078659363 0.40042496
0.042102419 0.0786516 0.40037671
0.042447269 0.078634217 0.40027943
0.042791095 0.078615233 0.40017396
0.043142885 0.078611076 0.40014386
0.043474644 0.078570783 0.39992979
0.043815516 0.078547485 0.39980212
0.044155069 0.078522198 0.39966434
0.04449996 0.078506738 0.39957649
0.044849385 0.078499459 0.39953017
0.045187041 0.078471854 0.39938042
0.045535196 0.078462772 0.3993248
0.045892656 0.078469723 0.39935079
0.046260271 0.078493819 0.39946392
0.046607524 0.078483246 0.39940056
0.046956383 0.078475527 0.39935166
0.052451123 0.078236178 0.39797193
0.05272964 0.078126743 0.39740467
0.05303023 0.078051262 0.39701
0.053368088 0.078031249 0.39689752
0.0537039 0.078008533 0.39677116
0.054043561 0.07799165 0.39667445
0.054383609 0.077975549 0.39658174
0.054751147 0.077998824 0.39668912
0.055114128 0.07801535 0.39676213
0.0057671722 0.081096165 0.41150829
0.0061302134 0.081089273 0.41147158
0.0064895465 0.081036851 0.4112038
0.006853289 0.081042103 0.41122863
0.0072158016 0.081033029 0.41118065
0.007576385 0.081004187 0.41103226
0.0079371594 0.080979936 0.41090709
0.0082985247 0.080963552 0.41082186
0.0086577032 0.080928117 0.41063979
0.009021231 0.080934532 0.41067004
0.0093788477 0.080889463 0.41043901
0.0097414227 0.080888934 0.41043386
0.010098502 0.080844432 0.41020554
0.010465728 0.080881424 0.41039068
0.010820903 0.080825917 0.41010639
0.011174734 0.080764301 0.40979102
0.011537369 0.08076819 0.40980792
0.011896982 0.080751307 0.40971938
0.012257813 0.080743454 0.40967661
0.012615865 0.080718264 0.40954578
0.012974431 0.080697671 0.40943819
0.013330618 0.0806638 0.40926322
0.013687314 0.080634713 0.40911236
0.014046249 0.080619983 0.40903431
0.014405194 0.080606028 0.40896013
0.014764369 0.080594026 0.40889579
0.015124403 0.080587156 0.40885743
0.015473479 0.080523588 0.40853134
0.01583158 0.080508813 0.40845269
0.016186254 0.080477655 0.40829089
0.016543049 0.080458157 0.40818816
0.016901698 0.080448337 0.40813443
0.017260676 0.080440432 0.40809038
0.017619696 0.080433063 0.40804896
0.01797618 0.08041463 0.40795138
0.018332371 0.080395639 0.40785089
0.018681558 0.080347262 0.40760121
0.019037573 0.080329508 0.40750685
0.0193928 0.080309153 0.40739924
0.019750591 0.080299981 0.40734825
0.020111457 0.080303386 0.40736103
0.020464558 0.080276221 0.40721866
0.020817395 0.080249004 0.40707585
0.021171868 0.080228865 0.40696904
0.021528209 0.080216371 0.40690085
0.021873273 0.08016298 0.40662512
0.022232043 0.080160707 0.40660867
0.022588113 0.080148935 0.40654397
0.02294294 0.080133185 0.406459
0.023290757 0.080093808 0.40625414
0.023644863 0.08007694 0.40616336
0.024003325 0.080075093 0.4061487
0.024356116 0.080054663 0.40603974
0.024699282 0.080003656 0.40577558
0.025056837 0.080000035 0.40575173
0.025406839 0.079972759 0.40560782
0.025769075 0.079984203 0.40566021
0.026123326 0.079970881 0.40558699
0.026474172 0.079947643 0.40546334
0.026827293 0.079931796 0.40537715
0.027183404 0.079925165 0.4053376
0.027535945 0.079908349 0.40524635
0.027888283 0.079891369 0.40515417
0.028240213 0.079873666 0.40505832
0.028599255 0.079876274 0.40506536
0.028946508 0.0798463 0.40490711
0.02930063 0.079835765 0.40484738
0.029650534 0.079814136 0.4047313
0.030004669 0.079804271 0.40467483
0.030347493 0.07976491 0.40446872
0.03070025 0.079752274 0.40439805
0.031049063 0.079729795 0.40427741
0.031404927 0.07972572 0.40425006
0.031751577 0.079698615 0.40410581
0.032093689 0.079660848 0.40390748
0.032434247 0.079620093 0.40369391
0.032777969 0.079587922 0.40352377
0.033133853 0.079585642 0.40350518
0.033481214 0.079563148 0.40338403
0.033825036 0.079532824 0.4032231
0.034171585 0.079509459 0.40309742
0.03451553 0.079480596 0.40294376
0.034868173 0.079472132 0.40289345
0.03521404 0.079448566 0.4027665
0.035559356 0.079424232 0.40263569
0.035893358 0.079375356 0.40238035
0.036231287 0.07933604 0.40217337
0.036592484 0.079347946 0.402226
0.036938809 0.07932768 0.40211555
0.037278522 0.07929375 0.40193567
0.037620265 0.079264715 0.40178064
0.037980549 0.079274923 0.40182444
0.03832487 0.079251952 0.40169996
0.038658872 0.079208247 0.4014703
0.039011624 0.079203404 0.40143761
0.039360661 0.079191171 0.4013674
0.039704729 0.079169251 0.40124801
0.040046349 0.079142883 0.40110603
0.040399451 0.079139464 0.40108031
0.040736038 0.079104044 0.40089232
0.041084219 0.079091534 0.40082037
0.041431203 0.079076968 0.40073794
0.041777253 0.079060882 0.40064776
0.042117536 0.079034239 0.40050402
0.042459946 0.079011999 0.40038255
0.042806502 0.078997791 0.40030167
0.04316055 0.078997508 0.40029132
0.043486454 0.078946143 0.40002209
0.043832056 0.078931086 0.39993674
0.044193402 0.078944378 0.399995
0.044523843 0.078902692 0.39977464
0.044875301 0.078898631 0.39974481
0.04521082 0.078866817 0.39957431
0.045557659 0.07885509 0.39950556
0.045907661 0.078848973 0.39946517
0.04625985 0.078846678 0.39944407
0.046622682 0.078862421 0.39951429
0.046976853 0.07886339 0.39950958
0.047330655 0.078863725 0.39950162
0.047692683 0.078877665 0.39956251
0.051863108 0.078765914 0.39887497
0.052137647 0.078647293 0.39826375
0.052449025 0.078585483 0.39794019
0.052719373 0.07846342 0.39731148
0.053053591 0.078437403 0.39716908
0.053367339 0.078381665 0.39687616
0.053738873 0.078410976 0.39701378
0.054070275 0.078381725 0.39685485
0.054424394 0.078385569 0.39686343
0.054766655 0.078372389 0.3967858
0.0057696053 0.081492946 0.4116582
0.0061333245 0.08149308 0.41165718
0.006496185 0.081482418 0.41160154
0.0068568485 0.081446789 0.41141975
0.0072182636 0.081423208 0.41129869
0.0075784964 0.081389204 0.41112491
0.0079420786 0.081392638 0.41114017
0.0083028851 0.081368543 0.41101629
0.0086624278 0.081334613 0.41084269
0.0090258867 0.081338674 0.41086093
0.0093840575 0.08129663 0.41064614
0.0097468765 0.081296489 0.41064298
0.010108887 0.081289843 0.41060689
0.010464666 0.081235275 0.41032872
0.010820205 0.081182562 0.41005978
0.011183643 0.081190601 0.41009766
0.011544451 0.081179634 0.41003948
0.011901544 0.081144027 0.40985671
0.012264677 0.08115045 0.40988627
0.012624677 0.081136398 0.40981221
0.012980268 0.081095576 0.40960294
0.013334394 0.081048042 0.40935972
0.013696392 0.081049614 0.4093644
0.014054424 0.081028238 0.40925315
0.014409078 0.080988944 0.4090513
0.014772782 0.081001185 0.40910968
0.015129355 0.080974676 0.40897226
0.015491749 0.080979839 0.40899476
0.015837751 0.080901019 0.408593
0.016193064 0.08087223 0.40844384
0.016550811 0.080856577 0.40836099
0.016909927 0.080848128 0.40831447
0.017263919 0.080816045 0.4081485
0.017625256 0.080818951 0.40815914
0.017987303 0.080824934 0.40818527
0.018339412 0.080786906 0.40798905
0.01869175 0.08075133 0.40780511
0.019043941 0.080716476 0.40762484
0.019401483 0.080705173 0.40756336
0.019760462 0.080700144 0.4075335
0.020114265 0.080674537 0.40739971
0.020470666 0.08066006 0.40732202
0.020829897 0.08065705 0.40730214
0.021184046 0.080634788 0.40718502
0.021539828 0.080619387 0.40710241
0.021887153 0.080573358 0.40686515
0.022242168 0.080556661 0.40677592
0.022594145 0.08052966 0.40663457
0.022951949 0.08052396 0.40660074
0.023308672 0.080514692 0.4065488
0.023656577 0.08047571 0.40634671
0.024015987 0.080476455 0.40634519
0.024369339 0.080457158 0.40624243
0.024720259 0.080430523 0.40610248
0.025066905 0.08039093 0.40589708
0.025420211 0.080373511 0.40580362
0.02577639 0.080365539 0.40575773
0.026123827 0.080330908 0.40557718
0.026477559 0.08031629 0.40549761
0.026826436 0.080287546 0.40534666
0.027183538 0.080283843 0.40532207
0.02753792 0.080272309 0.40525788
0.027889917 0.080254212 0.40516046
0.028244078 0.080242723 0.40509635
0.028596377 0.080226287 0.40500721
0.02894762 0.080207333 0.40490529
0.02930495 0.0802055 0.4048897
0.029652312 0.080176763 0.40473828
0.02999685 0.080141157 0.4045521
0.030348277 0.080124579 0.40446189
0.030697213 0.0801019 0.40434083
0.031050574 0.080091141 0.40427986
0.031398766 0.080067448 0.40415359
0.031750374 0.080052912 0.40407336
0.032102156 0.080039121 0.40399694
0.032438375 0.07998725 0.40372822
0.032786511 0.079965577 0.40361184
0.03312381 0.079918228 0.40336582
0.033477318 0.079910576 0.40332007
0.033831339 0.079904296 0.40328121
0.034175128 0.079874247 0.40312228
0.034543686 0.079902083 0.40325546
0.034882203 0.079860583 0.40303868
0.035234492 0.079851136 0.40298352
0.035570823 0.079806067 0.40274858
0.035899397 0.079744674 0.40243122
0.03625467 0.079743192 0.40241608
0.036600366 0.079720892 0.40229586
0.036964957 0.079739779 0.40238339
0.037304495 0.079704776 0.40219891
0.037652299 0.079687923 0.40210599
0.037997793 0.079666547 0.40199018
0.038349241 0.07965792 0.40193862
0.038677815 0.079602391 0.40165034
0.039032716 0.079601556 0.40163797
0.039375249 0.07957574 0.40149948
0.039727788 0.079570428 0.4014644
0.040073477 0.079551615 0.40136111
0.040414847 0.079524629 0.4012166
0.040755846 0.079497375 0.40107062
0.041113567 0.079502948 0.40109017
0.041452654 0.079472676 0.40092888
0.04179889 0.079456538 0.40083876
0.042147465 0.079445064 0.40077215
0.042487394 0.079417601 0.4006249
0.042845 0.07942339 0.40064523
0.043156955 0.079345137 0.40024158
0.043511186 0.079345256 0.40023318
