# .PCD v0.7 - Point Cloud Data file format
VERSION 0.7
FIELDS x y z
SIZE 4 4 4
TYPE F F F
COUNT 1 1 1
WIDTH 1304
HEIGHT 1
VIEWPOINT 0 0 0 1 0 0 0
POINTS 1304
DATA ascii
-0.032425992 -0.029250592 0.30116412
-0.032173004 -0.029261902 0.30128706
-0.031913608 -0.029267525 0.30135134
-0.031646114 -0.029265748 0.30133945
-0.031381104 -0.029266266 0.30135107
-0.031124113 -0.029274328 0.30144033
-0.030876225 -0.029291164 0.30161995
-0.025998678 -0.028892152 0.29760724
-0.025736483 -0.028892128 0.29761219
-0.025472369 -0.028889928 0.29759464
-0.025209928 -0.028889604 0.29759634
-0.024947491 -0.028889272 0.29759797
-0.024675805 -0.028878117 0.29748797
-0.024415536 -0.028880218 0.29751453
-0.024133656 -0.028856529 0.29727533
-0.023872448 -0.028857311 0.29728818
-0.023609156 -0.028855562 0.29727489
-0.023345841 -0.028853746 0.29726085
-0.023083817 -0.028853506 0.297263
-0.022820996 -0.02885225 0.29725465
-0.022557963 -0.028850693 0.29724309
-0.02229757 -0.028852521 0.29726639
-0.022038115 -0.028855611 0.29730263
-0.021777267 -0.028856937 0.29732066
-0.068083204 -0.030702269 0.31782264
-0.06779895 -0.030700849 0.31782055
-0.067460909 -0.030674957 0.31756508
-0.06719213 -0.030680485 0.31763482
-0.066868536 -0.030660914 0.31744471
-0.066560328 -0.030648267 0.31732619
-0.06628231 -0.030649478 0.3173511
-0.065953173 -0.030626949 0.31713021
-0.065614775 -0.03059992 0.31686264
-0.06531243 -0.030589538 0.31676739
-0.065027073 -0.03058706 0.31675395
-0.064695403 -0.030562684 0.31651366
-0.064413927 -0.030561911 0.3165178
-0.064096205 -0.030543854 0.31634286
-0.063820042 -0.030545536 0.31637231
-0.063531421 -0.030541239 0.31633982
-0.06325911 -0.030544784 0.31638849
-0.062999889 -0.030554706 0.31650317
-0.057198696 -0.030151311 0.31252918
-0.056930576 -0.030155528 0.31258386
-0.056646697 -0.030151399 0.31255198
-0.056369279 -0.030150685 0.31255546
-0.056089938 -0.030148931 0.3125481
-0.055783693 -0.030132627 0.31238982
-0.055459563 -0.030106453 0.3121292
-0.055164665 -0.030095963 0.31203112
-0.054875147 -0.030088319 0.31196249
-0.054555528 -0.030064011 0.31172103
-0.054208238 -0.030024128 0.31131801
-0.053942259 -0.030029109 0.31138012
-0.053636719 -0.030011997 0.31121314
-0.05336456 -0.03001349 0.31123897
-0.053034678 -0.029982362 0.31092653
-0.052757196 -0.029980689 0.31091943
-0.052453563 -0.02996406 0.31075719
-0.052119792 -0.029929953 0.31041363
-0.051834878 -0.029923685 0.31035873
-0.051546585 -0.029915391 0.31028277
-0.051238451 -0.029895434 0.31008577
-0.050928269 -0.029874057 0.30987403
-0.05063678 -0.029863479 0.30977419
-0.050354999 -0.029858537 0.30973282
-0.050084531 -0.029860288 0.30976081
-0.04978282 -0.029843332 0.30959466
-0.049440406 -0.029801652 0.30917197
-0.049170606 -0.02980352 0.30920103
-0.048854619 -0.029777262 0.30893821
-0.048595678 -0.02978567 0.309035
-0.048265155 -0.029750057 0.30867499
-0.047951579 -0.029724542 0.30841967
-0.047679313 -0.029724492 0.30842853
-0.047383163 -0.029709462 0.30828193
-0.047082469 -0.029691396 0.30810377
-0.046804268 -0.029687382 0.30807135
-0.04652255 -0.029681079 0.30801514
-0.046211604 -0.029655952 0.30776349
-0.045927387 -0.029647777 0.30768773
-0.04562505 -0.029627739 0.3074888
-0.045349602 -0.029625027 0.30746964
-0.045037456 -0.029598165 0.30719978
-0.044734061 -0.029576764 0.30698651
-0.044435561 -0.029558359 0.3068043
-0.044160217 -0.029555226 0.30678052
-0.04387483 -0.029545292 0.3066861
-0.043568645 -0.029521141 0.30644405
-0.043272406 -0.029503474 0.30626926
-0.042991035 -0.029495781 0.30619797
-0.042716656 -0.029492823 0.30617571
-0.042435277 -0.029484956 0.30610251
-0.042129584 -0.029459991 0.30585173
-0.041860424 -0.029460415 0.30586448
-0.041564636 -0.029441984 0.30568141
-0.041246384 -0.029407296 0.30532947
-0.040970195 -0.029402342 0.3052862
-0.040707454 -0.029407032 0.30534303
-0.040398549 -0.029378219 0.30505189
-0.040081855 -0.029343313 0.30469745
-0.039805524 -0.029337687 0.30464697
-0.03953813 -0.029338619 0.30466455
-0.039244931 -0.029320274 0.30448189
-0.038949139 -0.029299738 0.30427644
-0.038673803 -0.029294407 0.30422878
-0.038384315 -0.029278208 0.30406824
-0.03809806 -0.029264266 0.30393106
-0.037799492 -0.029240599 0.30369285
-0.037520792 -0.029232075 0.30361181
-0.037241388 -0.029222872 0.30352372
-0.036960538 -0.029212398 0.30342233
-0.036685098 -0.029206078 0.30336401
-0.036381394 -0.029177001 0.30306926
-0.036109451 -0.029173149 0.30303654
-0.035834894 -0.029167112 0.30298102
-0.035529047 -0.02913533 0.30265799
-0.035250958 -0.029125994 0.30256811
-0.034982502 -0.029124545 0.30256006
-0.034698863 -0.029110335 0.30241939
-0.034389533 -0.029074179 0.30205071
-0.034105849 -0.029059315 0.30190313
-0.03383733 -0.029057238 0.30188838
-0.033565067 -0.029051887 0.30183953
-0.033274077 -0.029030116 0.30162004
-0.032989725 -0.029013835 0.30145746
-0.032725755 -0.029015353 0.30147982
-0.032451216 -0.029007452 0.30140427
-0.032188531 -0.029010102 0.3014383
-0.031923849 -0.029010985 0.30145389
-0.031658366 -0.029011147 0.30146194
-0.031391293 -0.029009845 0.30145472
-0.03114176 -0.029024867 0.30161709
-0.025740499 -0.028634159 0.2976644
-0.025476472 -0.028632121 0.29764834
-0.025214205 -0.028632041 0.2976526
-0.024954801 -0.028635249 0.29769093
-0.024683809 -0.028625084 0.2975902
-0.024420436 -0.028623633 0.29758
-0.024150234 -0.028614055 0.29748532
-0.023883162 -0.028608017 0.29742733
-0.023606189 -0.028589858 0.29724327
-0.023347249 -0.028593378 0.29728454
-0.023082495 -0.028589776 0.2972517
-0.022819862 -0.028588746 0.29724556
-0.022557907 -0.028588554 0.2972481
-0.022295257 -0.028587464 0.29724124
-0.022033308 -0.028587259 0.29724351
-0.021773852 -0.028590327 0.29727975
-0.021513637 -0.028592456 0.29730621
-0.068085998 -0.030422097 0.31784135
-0.06780538 -0.030422328 0.31785637
-0.067535803 -0.030427534 0.31792337
-0.067195758 -0.0304009 0.31765762
-0.066880085 -0.03038512 0.31750521
-0.066583663 -0.030377991 0.31744316
-0.066271022 -0.030363366 0.31730273
-0.065963998 -0.030351203 0.31718799
-0.065623574 -0.0303235 0.3169108
-0.065331012 -0.030317774 0.31686321
-0.065020099 -0.03030345 0.3167257
-0.064705744 -0.030287383 0.31656998
-0.064427152 -0.030287996 0.31658849
-0.064122491 -0.030276299 0.31647834
-0.063816667 -0.030263949 0.31636131
-0.06353233 -0.030261731 0.3163501
-0.063261256 -0.030265832 0.31640494
-0.062999293 -0.03027435 0.31650591
-0.057476178 -0.02987567 0.31253156
-0.057219982 -0.029886059 0.31265125
-0.056930672 -0.02987917 0.31259015
-0.05665328 -0.029878499 0.31259406
-0.056358296 -0.029868502 0.31250033
-0.056088805 -0.029871982 0.31254756
-0.055748671 -0.029837687 0.31219953
-0.055486552 -0.02984501 0.31228688
-0.055160131 -0.029817648 0.31201127
-0.054873385 -0.029811569 0.31195828
-0.05457088 -0.029796822 0.31181455
-0.054278582 -0.029787531 0.31172785
-0.053959724 -0.029763492 0.31148675
-0.053649291 -0.029743876 0.3112919
-0.053344913 -0.029727433 0.3111302
-0.053066716 -0.029725488 0.31112015
-0.052747235 -0.029700274 0.3108665
-0.052454282 -0.029689813 0.31076726
-0.052166179 -0.029682003 0.31069568
-0.051846128 -0.029655835 0.3104319
-0.051560804 -0.029649358 0.31037417
-0.051265366 -0.029636966 0.31025448
-0.050984807 -0.029633088 0.31022385
-0.050664965 -0.029606216 0.30995247
-0.050385665 -0.029602867 0.30992728
-0.050083429 -0.029585933 0.3097598
-0.049723312 -0.029534435 0.30923039
-0.049457408 -0.029538641 0.30928412
-0.049176816 -0.02953407 0.30924591
-0.048872735 -0.029515259 0.30905858
-0.048561994 -0.029492198 0.30882663
-0.048278734 -0.029485654 0.30876765
-0.047986869 -0.029473759 0.30865249
-0.047695536 -0.029462049 0.30853927
-0.047384109 -0.029437726 0.30829391
-0.04711419 -0.029439056 0.3083171
-0.046792798 -0.029408054 0.30800167
-0.046495333 -0.029391816 0.30784079
-0.04623019 -0.02939594 0.3078931
-0.045943644 -0.02938642 0.3078025
-0.04564612 -0.029369723 0.30763662
-0.045343652 -0.029349627 0.30743513
-0.045048032 -0.029333752 0.30727774
-0.044751301 -0.029316954 0.30711067
-0.044484187 -0.029319473 0.30714586
-0.044182602 -0.029299162 0.30694187
-0.043883123 -0.029280005 0.30674988
-0.043597192 -0.029269706 0.30665067
-0.043298405 -0.029250599 0.30645907
-0.043023452 -0.029247453 0.30643466
-0.042715341 -0.029221581 0.3061721
-0.042440951 -0.029218599 0.3061493
-0.042164583 -0.029214201 0.30611163
-0.041860338 -0.029190317 0.3058697
-0.041556183 -0.029166179 0.30562505
-0.041264288 -0.029150395 0.30546787
-0.040980391 -0.029140085 0.30536801
-0.040698599 -0.029131144 0.30528244
-0.040418223 -0.029123105 0.30520627
-0.040101752 -0.029088777 0.30485451
-0.039828498 -0.029085547 0.30482861
-0.039518993 -0.029055618 0.30452287
-0.039253388 -0.029057782 0.30455339
-0.038991418 -0.029062679 0.30461252
-0.038656481 -0.029012883 0.30409834
-0.038403518 -0.029024351 0.30422619
-0.038124338 -0.029016016 0.3041465
-0.037799511 -0.028972583 0.30369878
-0.037529327 -0.028970711 0.30368668
-0.037242252 -0.028955681 0.30353659
-0.0369622 -0.02894593 0.30344179
-0.036671478 -0.028927621 0.3032572
-0.036397945 -0.028922701 0.30321294
-0.036135636 -0.028926697 0.30326208
-0.035822302 -0.0288896 0.30288038
-0.035544269 -0.028880632 0.30279344
-0.03524841 -0.028856931 0.30255207
-0.034978356 -0.028854158 0.30252999
-0.03469675 -0.028841741 0.30240679
-0.034426853 -0.028838938 0.30238432
-0.034126274 -0.028810186 0.30208972
-0.033837344 -0.0287909 0.30189428
-0.033566818 -0.028787088 0.30186108
-0.033282619 -0.028771399 0.30170324
-0.033002764 -0.028759243 0.3015824
-0.032728177 -0.028751509 0.30150789
-0.032459319 -0.028748734 0.30148533
-0.032193784 -0.028748875 0.30149329
-0.031927783 -0.0287486 0.30149683
-0.031660642 -0.028747285 0.30148941
-0.031399798 -0.028751716 0.30154219
-0.031148911 -0.028765414 0.30169213
-0.025745498 -0.028377187 0.29772791
-0.025481204 -0.028374927 0.29770932
-0.025216926 -0.028372642 0.29769039
-0.024956141 -0.028374281 0.29771262
-0.024685381 -0.028364489 0.29761484
-0.024421424 -0.028362388 0.29759771
-0.024143375 -0.028343704 0.29740649
-0.023881203 -0.028343448 0.29740864
-0.02361007 -0.028332442 0.29729787
-0.0233432 -0.028326353 0.29723865
-0.023081293 -0.028326223 0.29724193
-0.022818359 -0.028324813 0.2972317
-0.022556925 -0.028325252 0.29724082
-0.022293566 -0.028323259 0.29722437
-0.02202981 -0.028320707 0.29720199
-0.021770451 -0.028323818 0.29723898
-0.02150959 -0.028325021 0.29725593
-0.068421938 -0.03016483 0.3180891
-0.068103597 -0.030148456 0.31792915
-0.067829892 -0.030151792 0.31797692
-0.067516282 -0.030137341 0.31783709
-0.067246467 -0.030142399 0.31790301
-0.066878326 -0.03010324 0.3175025
-0.066620924 -0.030113807 0.31762645
-0.066293225 -0.030092562 0.31741473
-0.065960325 -0.030068757 0.31717598
-0.065641105 -0.030051008 0.31700113
-0.065313868 -0.030029429 0.31678572
-0.065037638 -0.030031212 0.31681681
-0.064733192 -0.030019931 0.31670997
-0.064415358 -0.030002309 0.31653619
-0.06413465 -0.030001907 0.31654403
-0.063832812 -0.029991567 0.31644702
-0.063547403 -0.0299889 0.31643084
-0.063264735 -0.029987495 0.31642804
-0.062998585 -0.029993951 0.31650808
-0.062770799 -0.030018812 0.31678233
-0.057509761 -0.029616589 0.31271988
-0.057237681 -0.029618746 0.31275371
-0.056963153 -0.029619651 0.31277424
-0.056682531 -0.029617382 0.31276119
-0.056373484 -0.029600168 0.3125903
-0.056086507 -0.029594425 0.3125405
-0.055775885 -0.029576087 0.31235763
-0.055474363 -0.029562417 0.312224
-0.055167593 -0.029545806 0.31205922
-0.054893088 -0.029546393 0.31207606
-0.054563459 -0.029517163 0.31177789
-0.05426342 -0.029503724 0.31164649
-0.053945173 -0.029480198 0.31140849
-0.053674385 -0.029482501 0.31144324
-0.053363979 -0.029462958 0.31124717
-0.053077474 -0.02945647 0.31118897
-0.052749231 -0.029426634 0.31088406
-0.05245873 -0.029417651 0.31079939
-0.052157786 -0.029402686 0.31065145
-0.051853746 -0.029385811 0.31048328
-0.051571265 -0.029381037 0.31044292
-0.051274609 -0.029368091 0.31031618
-0.050995421 -0.029365068 0.31029421
-0.050654538 -0.02932629 0.30989438
-0.050385345 -0.029328825 0.30993107
-0.050068732 -0.029303636 0.30967468
-0.049798418 -0.029305412 0.30970323
-0.049477607 -0.029277332 0.3094162
-0.049179871 -0.029262668 0.30927089
-0.048877969 -0.029245347 0.30909741
-0.048571754 -0.02922524 0.30889446
-0.048274565 -0.029210364 0.30874676
-0.048000049 -0.029209118 0.30874303
-0.047713064 -0.029200222 0.30865842
-0.047400039 -0.029175205 0.30840331
-0.047116801 -0.029168336 0.30833998
-0.046826176 -0.029156785 0.30822718
-0.046516828 -0.029133374 0.30798885
-0.046224754 -0.029120572 0.30786267
-0.04594823 -0.029117472 0.30783898
-0.045669734 -0.029113077 0.30780157
-0.045338601 -0.029074876 0.30740663
-0.045079987 -0.029082999 0.30750147
-0.044773746 -0.029060308 0.30727044
-0.044484302 -0.029048309 0.30715239
-0.044167932 -0.029018475 0.30684569
-0.043899089 -0.029019691 0.30686727
-0.043602169 -0.029002246 0.30669147
-0.043322053 -0.028995831 0.30663222
-0.04301995 -0.028974526 0.3064155
-0.042719591 -0.028954133 0.30620834
-0.042440325 -0.028947867 0.30615056
-0.042159241 -0.028940275 0.30607864
-0.041878235 -0.02893264 0.30600622
-0.041555434 -0.028895844 0.30562535
-0.041285269 -0.028895404 0.30562893
-0.040988751 -0.028876394 0.30543604
-0.040702544 -0.028864449 0.30531782
-0.040407781 -0.028846232 0.30513316
-0.040110927 -0.028826268 0.30493006
-0.039831895 -0.028818931 0.30486038
-0.039549876 -0.028809322 0.30476663
-0.039276224 -0.028805716 0.30473632
-0.038964584 -0.028774004 0.30440867
-0.03868835 -0.02876818 0.30435479
-0.038409203 -0.028760098 0.30427697
-0.038134668 -0.028755376 0.30423468
-0.037822977 -0.028722376 0.30389309
-0.03755004 -0.028718544 0.30386007
-0.037247952 -0.028692199 0.30358881
-0.03696065 -0.028676949 0.30343485
-0.036694348 -0.028677883 0.3034521
-0.036406852 -0.028662145 0.3032929
-0.036127184 -0.028652389 0.30319691
-0.035823498 -0.028623296 0.30289623
-0.035556834 -0.028623572 0.30290627
-0.035274964 -0.028611513 0.30278575
-0.034989819 -0.028596593 0.30263492
-0.034712613 -0.028587982 0.30255079
-0.03440794 -0.028556446 0.30222395
-0.034135479 -0.028551359 0.30217698
-0.033847976 -0.028533515 0.30199489
-0.033569112 -0.028522722 0.30188745
-0.033299558 -0.028519735 0.30186251
-0.033035152 -0.028521145 0.30188408
-0.03272742 -0.02848487 0.30150673
-0.032463495 -0.028486436 0.30152985
-0.032201994 -0.028490176 0.30157593
-0.031936351 -0.028490286 0.3015835
-0.031667899 -0.028487867 0.30156428
-0.031406853 -0.028492127 0.30161569
-0.031154504 -0.028504418 0.30175206
-0.025761938 -0.028132606 0.29792365
-0.025495503 -0.028128192 0.29788202
-0.025224583 -0.028118687 0.29778644
-0.024951981 -0.028107088 0.29766861
-0.024698207 -0.028116677 0.29777515
-0.024423441 -0.028102316 0.29762796
-0.024148343 -0.028087262 0.29747337
-0.023875207 -0.028074175 0.29733956
-0.023611909 -0.028072504 0.29732659
-0.023346657 -0.028068447 0.2972883
-0.023081126 -0.028063953 0.29724535
-0.02281669 -0.028060706 0.29721555
-0.022553936 -0.028059481 0.29720706
-0.02229234 -0.028059676 0.29721361
-0.022030504 -0.028059578 0.29721698
-0.021767849 -0.028058417 0.29720905
-0.021508211 -0.028061166 0.29724246
-0.068469793 -0.029904075 0.31831717
-0.068149552 -0.029887106 0.31814924
-0.067834854 -0.029872442 0.31800577
-0.067571588 -0.029880397 0.31810305
-0.067282438 -0.029876929 0.31807867
-0.066954419 -0.029856093 0.3178694
-0.06660331 -0.029824743 0.31754807
-0.066314422 -0.029821107 0.31752178
-0.066036105 -0.029822215 0.31754595
-0.065655038 -0.029776737 0.31707403
-0.065330617 -0.029756669 0.31687263
-0.065042503 -0.029753031 0.3168461
-0.06475018 -0.029747432 0.31679869
-0.064431481 -0.029729612 0.31662107
-0.064143002 -0.029725645 0.31659091
-0.063830398 -0.029710405 0.31644067
-0.063551888 -0.02971098 0.31645879
-0.063267991 -0.029709028 0.31644997
-0.062999189 -0.029714178 0.31651679
-0.062742695 -0.029725203 0.31664613
-0.057541586 -0.029356288 0.31289861
-0.057274505 -0.029361065 0.31296057
-0.056992758 -0.029358337 0.31294248
-0.056697652 -0.029348666 0.3128503
-0.056392394 -0.029333619 0.31270084
-0.056079742 -0.029314561 0.31250849
-0.055810872 -0.029318312 0.31255928
-0.055483658 -0.029291295 0.31228203
-0.055171523 -0.029272014 0.31208715
-0.05490645 -0.029277632 0.31215769
-0.054585744 -0.029253494 0.31191093
-0.054285657 -0.029240217 0.31177992
-0.053995498 -0.029232182 0.31170473
-0.053689167 -0.029215261 0.31153473
-0.053372607 -0.029192572 0.31130317
-0.053095713 -0.029191453 0.31130162
-0.052801032 -0.029180499 0.31119508
-0.052515488 -0.029174499 0.31114137
-0.052157134 -0.029127782 0.3106533
-0.051876646 -0.02912428 0.31062609
-0.051582035 -0.029112773 0.31051347
-0.051270425 -0.029091496 0.31029654
-0.050970968 -0.029076926 0.31015113
-0.050694462 -0.029075364 0.31014436
-0.050365824 -0.029043721 0.30981672
-0.050101135 -0.029048806 0.30988079
-0.049819518 -0.029044084 0.3098402
-0.04952421 -0.029031279 0.30971333
-0.049205806 -0.029004723 0.30943969
-0.048883833 -0.028975753 0.30914026
-0.048604596 -0.028971929 0.30910903
-0.048310142 -0.028958946 0.30898002
-0.048010543 -0.02894271 0.30881625
-0.047710959 -0.0289263 0.30865058
-0.047433343 -0.028923092 0.3086257
-0.047106165 -0.028889459 0.30827612
-0.046830993 -0.02888751 0.30826458
-0.046525177 -0.028866526 0.30804986
-0.046258107 -0.028869478 0.30809051
-0.045945887 -0.028844118 0.30782899
-0.045675691 -0.028844999 0.30784744
-0.045345075 -0.028807506 0.30745625
-0.045047782 -0.02879086 0.30728754
-0.044775665 -0.0287902 0.30728936
-0.044502188 -0.028788647 0.30728164
-0.04420837 -0.028773842 0.30713239
-0.043873783 -0.028732151 0.30669612
-0.043608211 -0.028735422 0.30673969
-0.043322571 -0.02872543 0.30664164
-0.043032862 -0.028712593 0.30651319
-0.042745814 -0.028701385 0.30640203
-0.042453881 -0.02868673 0.30625403
-0.042177934 -0.028682765 0.30622008
-0.041848 -0.028641794 0.30579105
-0.041572474 -0.028637774 0.30575642
-0.041282192 -0.028623465 0.30561188
-0.04099723 -0.028612684 0.30550498
-0.040723395 -0.028609579 0.30547994
-0.040420953 -0.0285862 0.30523837
-0.040147059 -0.02858283 0.30521044
-0.039831698 -0.028549699 0.30486462
-0.039551809 -0.028541712 0.30478725
-0.039271072 -0.028532997 0.30470204
-0.038981911 -0.028518004 0.30454975
-0.038689628 -0.028500503 0.30437061
-0.038406305 -0.028489402 0.30425975
-0.038121305 -0.028476894 0.3041338
-0.037844982 -0.028470738 0.30407563
-0.037573751 -0.02846835 0.30405766
-0.037275992 -0.028445683 0.30382305
-0.036982875 -0.02842626 0.30362302
-0.036691606 -0.028407978 0.30343512
-0.036414027 -0.028400114 0.30335844
-0.036143947 -0.02839802 0.30334333
-0.035848591 -0.028375886 0.30311412
-0.035584431 -0.028378302 0.30314708
-0.035265565 -0.028336795 0.30271074
-0.034987889 -0.028328009 0.30262393
-0.034714699 -0.028322745 0.30257466
-0.0344419 -0.028317722 0.30252793
-0.034140103 -0.028288592 0.30222359
-0.033862766 -0.028279433 0.30213255
-0.033582997 -0.028268076 0.30201802
-0.033301439 -0.028255029 0.30188528
-0.033030745 -0.028251059 0.30184951
-0.032744687 -0.028233778 0.30167148
-0.032466739 -0.028223263 0.30156568
-0.032213848 -0.02823454 0.30169263
-0.031942956 -0.028230092 0.30165154
-0.031672038 -0.028225549 0.30160937
-0.031411882 -0.0282306 0.30166972
-0.03115714 -0.028240643 0.30178329
-0.030906299 -0.028254427 0.30193684
-0.025496511 -0.027866639 0.29789945
-0.025229473 -0.027861521 0.2978498
-0.024957236 -0.027850492 0.29773691
-0.024696892 -0.027852641 0.29776487
-0.024424519 -0.027841127 0.29764667
-0.024158781 -0.027837012 0.29760751
-0.023879562 -0.027817102 0.29739943
-0.023611609 -0.027810015 0.29732844
-0.023344904 -0.027804259 0.29727158
-0.02308074 -0.027801432 0.29724598
-0.022815675 -0.02779744 0.29720789
-0.022551859 -0.027794899 0.29718524
-0.022290228 -0.027795024 0.29719105
-0.02202858 -0.027795129 0.29719657
-0.021764819 -0.027792536 0.29717323
-0.021504061 -0.027793769 0.29719067
-0.021245543 -0.027797958 0.29723975
-0.068470813 -0.029622663 0.31832743
-0.068164364 -0.02961185 0.31822389
-0.06785877 -0.029601324 0.31812343
-0.067602694 -0.02961239 0.31825501
-0.067249946 -0.02958104 0.31793061
-0.066976227 -0.029584326 0.31797844
-0.066648208 -0.029563554 0.31776768
-0.066311158 -0.029538583 0.31751171
-0.066015452 -0.029531898 0.31745225
-0.065706857 -0.029519364 0.31732982
-0.065363675 -0.029491121 0.31703851
-0.065052681 -0.029477211 0.31690124
-0.064752899 -0.029468292 0.31681752
-0.064442694 -0.029454529 0.31668174
-0.064170025 -0.029457878 0.31672984
-0.063831858 -0.029431054 0.31645352
-0.063555621 -0.029432677 0.31648296
-0.063273661 -0.029431652 0.31648394
-0.063008115 -0.029438283 0.31656721
-0.062732704 -0.029440347 0.31660128
-0.062479094 -0.029452708 0.31674609
-0.057565723 -0.029091794 0.31303549
-0.057283904 -0.029089103 0.31301755
-0.057014577 -0.029092761 0.31306791
-0.056694835 -0.029070605 0.31284043
-0.056403164 -0.02906269 0.31276616
-0.056100532 -0.029049026 0.31262997
-0.055821419 -0.029047465 0.31262395
-0.05551672 -0.02903251 0.31247374
-0.055213422 -0.029018138 0.31232977
-0.054898176 -0.028997315 0.3121163
-0.05460963 -0.028990455 0.31205308
-0.054297268 -0.028970817 0.31185225
-0.053992461 -0.028955033 0.3116928
-0.053703152 -0.028947435 0.31162152
-0.053391874 -0.028927861 0.31142119
-0.053094476 -0.028915644 0.31129998
-0.052796196 -0.028902818 0.31117222
-0.052472465 -0.028875848 0.31089213
-0.052163903 -0.028856989 0.31069925
-0.051882565 -0.02885307 0.31066722
-0.051599178 -0.028847963 0.3106223
-0.051309988 -0.02883954 0.31054166
-0.050973766 -0.028804451 0.31017381
-0.050697677 -0.028803146 0.3101697
-0.05041562 -0.028798418 0.31012866
-0.050081048 -0.028763475 0.30976221
-0.049796592 -0.028757093 0.30970329
-0.049509276 -0.02874898 0.3096256
-0.049207408 -0.028732279 0.30945542
-0.048890956 -0.02870683 0.30919096
-0.048614543 -0.028704735 0.30917796
-0.048313305 -0.028687878 0.30900592
-0.048003923 -0.028665962 0.30877933
-0.047718186 -0.028657999 0.30870298
-0.047429111 -0.028647931 0.30860388
-0.047143269 -0.028639708 0.30852461
-0.046809703 -0.028602226 0.30813009
-0.046540342 -0.028603772 0.30815595
-0.046262637 -0.028600175 0.30812636
-0.045958698 -0.028580226 0.30792055
-0.045662247 -0.028564714 0.30776247
-0.045361631 -0.028546404 0.30757418
-0.045060974 -0.028527847 0.30738318
-0.044778507 -0.028520651 0.30731452
-0.044491705 -0.028510584 0.30721492
-0.044197623 -0.028495708 0.30706337
-0.043892656 -0.028473582 0.30683368
-0.043600775 -0.02845973 0.30669308
-0.043309525 -0.028446112 0.30655497
-0.043019708 -0.028433273 0.30642518
-0.042751852 -0.028434884 0.30645102
-0.042454585 -0.02841682 0.30626482
-0.042166058 -0.028404415 0.30613953
-0.041897099 -0.028405121 0.30615547
-0.041585151 -0.028376497 0.30585527
-0.041297808 -0.028364403 0.30573314
-0.041014571 -0.028354988 0.30563986
-0.040722795 -0.0283395 0.30548108
-0.040437229 -0.028328162 0.30536693
-0.040132217 -0.028302958 0.30510327
-0.039830282 -0.028279603 0.30485946
-0.039551001 -0.02827212 0.30478671
-0.039279349 -0.028270023 0.30477196
-0.039001796 -0.028263623 0.30471078
-0.038715754 -0.02825094 0.30458182
-0.038448144 -0.028251622 0.30459687
-0.038141627 -0.028223529 0.30430165
-0.037872009 -0.028222531 0.30429846
-0.037588276 -0.028210925 0.30418089
-0.037276585 -0.028178021 0.30383354
-0.036978777 -0.028155209 0.30359504
-0.036705226 -0.028150667 0.30355343
-0.036427591 -0.028142909 0.30347708
-0.036173355 -0.028153244 0.30359578
-0.03586904 -0.028124468 0.30329269
-0.035554547 -0.028087215 0.30289814
-0.035276026 -0.028078035 0.3028062
-0.035011511 -0.028079949 0.30283388
-0.034716401 -0.028057165 0.30259517
-0.034451522 -0.02805865 0.30261812
-0.034156289 -0.028035242 0.30237252
-0.033882476 -0.028029189 0.30231404
-0.033583827 -0.028002329 0.30203113
-0.03331827 -0.028002854 0.30204353
-0.033039536 -0.027992228 0.30193552
-0.032757197 -0.027978344 0.30179235
-0.032482568 -0.027970873 0.30171832
-0.03222372 -0.02797698 0.30179071
-0.031955507 -0.027974993 0.30177572
-0.031685658 -0.027971527 0.30174473
-0.031419903 -0.02797165 0.30175236
-0.031164814 -0.027981348 0.30186328
-0.030908303 -0.027989928 0.30196208
-0.025501808 -0.027609712 0.2979669
-0.025237171 -0.027607325 0.29794621
-0.024966829 -0.027598584 0.2978569
-0.024700833 -0.027594514 0.29781798
-0.024423402 -0.027577441 0.29763862
-0.024147816 -0.027562106 0.29747796
-0.023877807 -0.027552871 0.2973831
-0.023613751 -0.027550379 0.29736093
-0.023347983 -0.027545806 0.29731628
-0.02307887 -0.027537145 0.29722741
-0.022814872 -0.027534455 0.29720294
-0.022550531 -0.027531283 0.29717326
-0.022288656 -0.027531087 0.29717559
-0.022025712 -0.027529549 0.2971634
-0.021764582 -0.027530266 0.2971755
-0.021502292 -0.027529519 0.29717174
-0.021242892 -0.027532499 0.29720816
-0.020981967 -0.027533552 0.29722372
-0.068806991 -0.02936412 0.31857309
-0.068512507 -0.029358676 0.31852677
-0.068200216 -0.029345527 0.31839681
-0.0679157 -0.029344266 0.31839582
-0.067607626 -0.029332777 0.31828377
-0.067312367 -0.029326774 0.3182312
-0.066998459 -0.02931256 0.31808951
-0.066662587 -0.029288581 0.31784177
-0.066366173 -0.029281801 0.31778064
-0.066049345 -0.029265927 0.31762075
-0.065726928 -0.029247425 0.31743231
-0.065401189 -0.029227279 0.31722599
-0.065074556 -0.029206559 0.31701332
-0.064759441 -0.029190851 0.31685504
-0.064457819 -0.029181117 0.31676155
-0.064175583 -0.029180117 0.3167628
-0.063852564 -0.029160479 0.3165617
-0.063553005 -0.029151428 0.31647548
-0.063276336 -0.029152844 0.31650284
-0.063004717 -0.02915661 0.31655571
-0.062727422 -0.029157771 0.31658021
-0.062456787 -0.029162053 0.31663856
-0.062180739 -0.029163836 0.31666973
-0.057853516 -0.028820608 0.31309098
-0.057589829 -0.028827054 0.31317213
-0.057301313 -0.028821079 0.31311825
-0.05702753 -0.028822495 0.31314462
-0.056720138 -0.02880685 0.31298563
-0.056415431 -0.028792426 0.31283978
-0.056106754 -0.028775821 0.31267023
-0.055850577 -0.02878611 0.31279284
-0.055551503 -0.028774282 0.31267512
-0.055203859 -0.028737055 0.31228128
-0.054912437 -0.028728869 0.31220296
-0.054591045 -0.028704839 0.31195244
-0.054301098 -0.028697183 0.31187981
-0.054015502 -0.028691765 0.31183141
-0.05370003 -0.028670339 0.311609
-0.053411271 -0.028663022 0.31153992
-0.053095885 -0.028641274 0.31131387
-0.052802511 -0.028631233 0.31121501
-0.052492503 -0.028612021 0.31101644
-0.052192058 -0.028597843 0.31087255
-0.05189278 -0.028584162 0.31073397
-0.051612113 -0.028580641 0.31070578
-0.051312223 -0.028566377 0.31056079
-0.05098917 -0.028538998 0.31027314
-0.050734933 -0.028550051 0.31040323
-0.050406374 -0.028519172 0.31007743
-0.050114591 -0.028508877 0.30997533
-0.049801938 -0.028486531 0.30974212
-0.049508616 -0.028475054 0.30962712
-0.049218483 -0.028465297 0.30953071
-0.048920903 -0.028451102 0.30938596
-0.048620865 -0.028435307 0.30922377
-0.048311129 -0.028413631 0.3089976
-0.048007298 -0.0283952 0.30880663
-0.047749035 -0.028403671 0.30890816
-0.047473248 -0.028401751 0.30889666
-0.047136109 -0.028362893 0.30848336
-0.046831399 -0.028343206 0.30827853
-0.046567369 -0.02834806 0.30834052
-0.046268899 -0.02833188 0.30817369
-0.046020877 -0.028346581 0.30834273
-0.045669433 -0.028297376 0.30781657
-0.045361545 -0.028274732 0.30757922
-0.045070499 -0.028262377 0.30745375
-0.044791341 -0.02825737 0.30740821
-0.044488356 -0.028237183 0.30719742
-0.044177432 -0.028211679 0.30692875
-0.043907218 -0.028212015 0.30694112
-0.043595415 -0.028185468 0.30666098
-0.043304324 -0.028172065 0.30652377
-0.043050565 -0.028182929 0.30665058
-0.042744752 -0.028159644 0.30640572
-0.042443693 -0.028139211 0.30619186
-0.042163324 -0.028132323 0.30612531
-0.041874282 -0.028119523 0.30599439
-0.041602544 -0.028118249 0.30598882
-0.041294947 -0.028092569 0.30571762
-0.04101672 -0.028086659 0.3056615
-0.040748514 -0.028087584 0.30567968
-0.040440533 -0.028060913 0.30539751
-0.040147509 -0.028044337 0.30522519
-0.039854519 -0.028027562 0.30505058
-0.039597884 -0.028036298 0.30515361
-0.039297797 -0.028014183 0.30492073
-0.039009668 -0.028000338 0.30477786
-0.038716 -0.027982308 0.30458936
-0.038442124 -0.027978426 0.30455482
-0.038147066 -0.027958963 0.30435061
-0.037875459 -0.027956536 0.30433178
-0.037583336 -0.027938824 0.30414653
-0.037280127 -0.027912553 0.30386806
-0.037017722 -0.027916681 0.30392042
-0.036736634 -0.027906669 0.30381879
-0.036424659 -0.027872879 0.30345824
-0.036162511 -0.027877001 0.30351037
-0.035863426 -0.0278525 0.30325082
-0.035568468 -0.027830856 0.30302233
-0.035294779 -0.027825655 0.30297282
-0.035006516 -0.027808797 0.3027963
-0.034728918 -0.027800221 0.30270991
-0.034443632 -0.027785299 0.30255437
-0.03417163 -0.027780958 0.30251399
-0.033892881 -0.027771009 0.30241248
-0.033608735 -0.027756451 0.3022607
-0.033327069 -0.027743727 0.30212888
-0.033042494 -0.027728356 0.30196813
-0.032763202 -0.027717205 0.3018533
-0.032491136 -0.027712032 0.3018035
-0.032226887 -0.0277135 0.301826
-0.031960059 -0.027712749 0.30182427
-0.03169024 -0.027709382 0.30179396
-0.031423211 -0.027708406 0.3017897
-0.031167079 -0.027717113 0.30189082
-0.030912822 -0.02772765 0.30201182
-0.025503114 -0.02734839 0.29798764
-0.025241857 -0.027349707 0.29800704
-0.024976656 -0.027346728 0.29797965
-0.024703421 -0.0273348 0.29785463
-0.024442082 -0.027335919 0.29787177
-0.0241585 -0.027311917 0.29761508
-0.023883386 -0.027297067 0.29745805
-0.023624482 -0.02730062 0.29750153
-0.023343366 -0.027278299 0.29726297
-0.023079237 -0.027275547 0.2972376
-0.022814728 -0.027272278 0.29720658
-0.022551322 -0.027270265 0.29718918
-0.022286855 -0.027266907 0.29715705
-0.022024464 -0.02726604 0.29715201
-0.021763997 -0.027267566 0.29717299
-0.021501983 -0.027267164 0.2971729
-0.021238675 -0.027265092 0.29715461
-0.020979254 -0.02726802 0.2971907
-0.020719394 -0.027270451 0.29722133
-0.068826646 -0.029090347 0.3186695
-0.068527013 -0.029082805 0.31859964
-0.068222873 -0.029073279 0.318508
-0.06793946 -0.029072544 0.31851265
-0.067662939 -0.029074766 0.31854963
-0.067291617 -0.029036101 0.31813854
-0.067008421 -0.029035296 0.31814227
-0.066673703 -0.029012064 0.31790024
-0.066362992 -0.02899912 0.31777087
-0.066056214 -0.028987803 0.31765923
-0.065734938 -0.028969996 0.31747648
-0.06541039 -0.028950589 0.31727609
-0.06510976 -0.028941642 0.31719032
-0.064815484 -0.028935459 0.31713477
-0.064494811 -0.028917387 0.31694889
-0.064128153 -0.028878445 0.31653419
-0.063853286 -0.02888068 0.31657073
-0.063559502 -0.028874345 0.31651336
-0.063277252 -0.028873213 0.31651294
-0.062995516 -0.028872307 0.31651494
-0.062718824 -0.028873714 0.3165423
-0.062439293 -0.028873827 0.31655538
-0.06216599 -0.02887683 0.31660011
-0.061891675 -0.028879385 0.31663996
-0.059714254 -0.028774019 0.31556574
-0.059392557 -0.028753255 0.3153494
-0.057877056 -0.028555363 0.31322387
-0.057606515 -0.028558409 0.31326839
-0.057321124 -0.028554088 0.31323206
-0.057047687 -0.028555706 0.31326082
-0.056727603 -0.028533878 0.31303236
-0.056486901 -0.028551962 0.31324163
-0.056114893 -0.028503526 0.31272113
-0.055831384 -0.028499788 0.31269091
-0.055550046 -0.028497122 0.31267247
-0.055238888 -0.028479062 0.31248498
-0.054932699 -0.028463392 0.31232372
-0.054664358 -0.028467273 0.31237695
-0.054300845 -0.028421383 0.31188396
-0.054009624 -0.028413052 0.31180304
-0.053704072 -0.028397061 0.311638
-0.053423315 -0.028394083 0.31161577
-0.053136174 -0.02838766 0.31155562
-0.052833851 -0.028373023 0.3114053
-0.052508127 -0.028345596 0.31111455
-0.052198842 -0.028326804 0.31091848
-0.051914781 -0.028321574 0.31087124
-0.051613867 -0.028307049 0.31072193
-0.051331464 -0.028302573 0.31068283
-0.05103118 -0.028288135 0.31053436
-0.050722063 -0.028268617 0.31033003
-0.050427638 -0.028257124 0.3102138
-0.050147507 -0.028253555 0.31018448
-0.049839512 -0.028234163 0.30998138
-0.049542174 -0.028220633 0.30984256
-0.049265739 -0.028218919 0.30983347
-0.048955981 -0.028197994 0.30961338
-0.048628721 -0.028166698 0.30927932
-0.048348494 -0.028162448 0.30924219
-0.048068516 -0.02815829 0.30920604
-0.047750063 -0.028131422 0.30892041
-0.047462989 -0.028122837 0.30883551
-0.047162537 -0.028106179 0.30866191
-0.046892047 -0.028107289 0.30868337
-0.046570208 -0.028077453 0.30836493
-0.046300076 -0.028078621 0.30838692
-0.046004876 -0.028064515 0.30824113
-0.045695554 -0.028041573 0.30799821
-0.045379661 -0.0280143 0.30770767
-0.045093205 -0.02800498 0.30761424
-0.044782482 -0.027980387 0.30735299
-0.044503361 -0.027975356 0.30730662
-0.04419487 -0.027951699 0.30705547
-0.043906547 -0.027940573 0.30694202
-0.043622117 -0.027931804 0.30685437
-0.043309771 -0.027904939 0.30656788
-0.043040264 -0.02790552 0.30658281
-0.042739511 -0.027885711 0.30637372
-0.042462494 -0.02788124 0.30633307
-0.04217393 -0.027869081 0.3062079
-0.041885458 -0.027856829 0.30608159
-0.041580766 -0.027833557 0.30583423
-0.041294638 -0.027822491 0.3057209
-0.041026335 -0.027823368 0.30573875
-0.040736359 -0.027809462 0.30559406
-0.04045647 -0.0278023 0.30552346
-0.040164437 -0.027786644 0.30535942
-0.039863117 -0.027764305 0.30512196
-0.03956848 -0.027746355 0.30493259
-0.03928715 -0.02773755 0.30484372
-0.039005473 -0.027728379 0.30475074
-0.03873308 -0.027725723 0.30472931
-0.038466278 -0.02772706 0.30475175
-0.038151462 -0.027693568 0.30439126
-0.037859745 -0.027676484 0.30421108
-0.037579406 -0.027667534 0.30412027
-0.037294537 -0.027655099 0.30399105
-0.03702762 -0.02765589 0.3040072
-0.036727417 -0.027631653 0.30374816
-0.03645179 -0.027625684 0.30368984
-0.036171548 -0.0276161 0.30359179
-0.035857894 -0.027580677 0.3032096
-0.035588585 -0.027579086 0.30319929
-0.035291884 -0.027556088 0.30295351
-0.035000008 -0.02753653 0.30274555
-0.03473103 -0.027534826 0.30273384
-0.034453373 -0.027526163 0.3026455
-0.034168173 -0.027511289 0.30248886
-0.033880364 -0.027494071 0.30230635
-0.03359003 -0.02747451 0.30209807
-0.033340804 -0.027488532 0.30225894
-0.033035986 -0.027456574 0.30191422
-0.032771476 -0.027457869 0.30193505
-0.032498181 -0.027451763 0.30187449
-0.03222749 -0.027447777 0.30183715
-0.031959634 -0.027446164 0.30182582
-0.031691495 -0.027444271 0.30181143
-0.031425089 -0.027443865 0.3018133
-0.031162784 -0.027447062 0.30185473
-0.030904176 -0.027453598 0.30193287
-0.025505157 -0.02708783 0.298017
-0.025243703 -0.027088942 0.29803431
-0.024981836 -0.027089627 0.29804692
-0.02471365 -0.027083408 0.29798344
-0.02444889 -0.027080847 0.29796016
-0.024180125 -0.027073752 0.29788697
-0.023901179 -0.027054969 0.29768512
-0.023633908 -0.027049137 0.29762569
-0.023350626 -0.027024642 0.29736084
-0.023082254 -0.027017042 0.29728189
-0.022813199 -0.027008463 0.29719207
-0.022550635 -0.027007455 0.29718551
-0.022286531 -0.027004562 0.29715815
-0.022023324 -0.0270027 0.29714206
-0.02176173 -0.027002793 0.29714745
-0.021500688 -0.027003584 0.29716045
-0.021238223 -0.02700258 0.29715368
-0.020978373 -0.027004922 0.29718363
-0.02071901 -0.027007958 0.29722118
-0.068847008 -0.028816711 0.31876916
-0.068542078 -0.028807048 0.31867504
-0.068249896 -0.028802687 0.31863952
-0.06797149 -0.028804131 0.31866819
-0.067624971 -0.028776599 0.31837624
-0.067360915 -0.028784079 0.31847158
-0.067049712 -0.028771386 0.3183437
-0.066670634 -0.028729338 0.31789097
-0.066437587 -0.028750127 0.31813347
-0.066076346 -0.028715387 0.31776148
-0.065749988 -0.02869557 0.31755453
-0.06544546 -0.028685151 0.31745157
-0.065125465 -0.028667839 0.31727225
-0.064782426 -0.028640185 0.31697842
-0.064490631 -0.028635044 0.31693372
-0.064211503 -0.028635511 0.31695101
-0.063865922 -0.028606217 0.31663886
-0.063560881 -0.0285949 0.31652564
-0.063271478 -0.028590549 0.31648946
-0.062987514 -0.028588634 0.31648022
-0.062713385 -0.028591178 0.31652033
-0.062433619 -0.028591167 0.31653208
-0.062159423 -0.028593721 0.31657216
-0.06187351 -0.028590882 0.31655252
-0.061583944 -0.028586317 0.31651375
-0.06130318 -0.028585818 0.31651992
-0.060990941 -0.028570572 0.31636277
-0.059690896 -0.028483782 0.31544778
-0.059393041 -0.028474595 0.31535745
-0.059065901 -0.028451214 0.31510985
-0.057647914 -0.028301731 0.313499
-0.057391163 -0.028311675 0.31362024
-0.057062026 -0.028285837 0.31334504
-0.056783948 -0.028285181 0.31334871
-0.056453332 -0.028258221 0.31306097
-0.05613631 -0.028237829 0.31284595
-0.055850279 -0.028232906 0.31280223
-0.055544965 -0.028218133 0.31264934
-0.055224214 -0.028195336 0.31240746
-0.054964643 -0.028203703 0.31251085
-0.054632254 -0.028174598 0.312199
-0.054333128 -0.028162444 0.31207487
-0.054030322 -0.028148245 0.31192803
-0.053704642 -0.028121924 0.31164682
-0.053455692 -0.028135715 0.31181008
-0.053136531 -0.028112506 0.31156325
-0.05283194 -0.028096803 0.31139955
-0.052532908 -0.028083909 0.3112669
-0.052239753 -0.028074037 0.31116772
-0.05195624 -0.028069271 0.31112507
-0.051642142 -0.028047841 0.31089765
-0.051335517 -0.028030263 0.31071287
-0.051034227 -0.028015427 0.31055841
-0.050750639 -0.028010201 0.31051043
-0.050463099 -0.02800272 0.31043744
-0.050137166 -0.027973743 0.31012604
-0.049817346 -0.027947875 0.30984905
-0.0495128 -0.027930334 0.30966434
-0.049257223 -0.027940378 0.3097854
-0.048987329 -0.027942369 0.30981714
-0.048675351 -0.027920244 0.30958143
-0.048378438 -0.027906558 0.30943921
-0.048095271 -0.027900692 0.30938366
-0.047794838 -0.027884685 0.30921561
-0.046932925 -0.027858922 0.30895796
-0.046605933 -0.027826443 0.30860698
-0.046315853 -0.027815744 0.30849752
-0.046028141 -0.027806355 0.30840251
-0.045759488 -0.027808433 0.30843464
-0.04185712 -0.027567966 0.30588007
-0.041588586 -0.027568769 0.30589727
-0.041290767 -0.027550044 0.30569774
-0.041028336 -0.027554832 0.30575913
-0.04075047 -0.027549259 0.30570543
-0.040458906 -0.027534289 0.30554739
-0.040188428 -0.027533561 0.30554736
-0.039872535 -0.027501499 0.30519956
-0.039586462 -0.027489712 0.30507669
-0.039300993 -0.027478186 0.30495664
-0.039016876 -0.027467446 0.3048453
-0.038745631 -0.027465692 0.30483359
-0.038452938 -0.027448598 0.30465159
-0.038178332 -0.027444266 0.30461118
-0.037855033 -0.027404621 0.30417874
-0.037578695 -0.027398651 0.30412003
-0.037299432 -0.027390448 0.30403647
-0.037010897 -0.027375273 0.30387545
-0.03674598 -0.027377464 0.30390716
-0.036458164 -0.027362507 0.30374849
-0.036161613 -0.027340725 0.30351394
-0.035896409 -0.027342489 0.30354077
-0.035598248 -0.027318997 0.30328712
-0.035297982 -0.027293518 0.30301139
-0.035041351 -0.027301645 0.30310866
-0.034749266 -0.027282065 0.30289829
-0.034466937 -0.027269902 0.30277017
-0.034181431 -0.027255014 0.3026118
-0.033885282 -0.027231338 0.30235574
-0.033608869 -0.027223272 0.30227298
-0.033345342 -0.027225604 0.30230558
-0.03305392 -0.027205015 0.30208361
-0.03278375 -0.02720172 0.30205366
-0.032502431 -0.027189044 0.30191946
-0.032230057 -0.027183706 0.30186671
-0.031965207 -0.027184678 0.30188394
-0.031694338 -0.027180506 0.301844
-0.031426214 -0.027178638 0.30182958
-0.0311625 -0.027180586 0.3018575
-0.030904181 -0.027187306 0.30193841
-0.030654818 -0.0272021 0.30210885
-0.025507424 -0.026827462 0.29804885
-0.025244968 -0.026827523 0.29805467
-0.024983533 -0.026828682 0.29807255
-0.024722461 -0.02683026 0.29809505
-0.024456613 -0.026826635 0.29805973
-0.024173571 -0.026803866 0.2978116
-0.023898903 -0.026789982 0.29766214
-0.02362697 -0.026778894 0.2975437
-0.023362255 -0.026775829 0.29751435
-0.023082016 -0.0267547 0.29728422
-0.022813596 -0.026746942 0.29720262
-0.022548744 -0.026743239 0.29716599
-0.022285754 -0.02674168 0.29715315
-0.022022903 -0.026740257 0.29714173
-0.021760967 -0.026739923 0.29714239
-0.021499747 -0.026740473 0.29715279
-0.021239318 -0.026742028 0.29717433
-0.020977603 -0.026741989 0.29717809
-0.020716114 -0.026742235 0.297185
-0.020457158 -0.0267458 0.29722869
-0.068876021 -0.028546494 0.31890884
-0.068556957 -0.028531093 0.31874958
-0.068264499 -0.028526684 0.31871304
-0.067948565 -0.02851239 0.31856605
-0.067657463 -0.028508442 0.31853458
-0.067341134 -0.028493784 0.3183834
-0.067042634 -0.02848658 0.31831545
-0.066706277 -0.028463161 0.3180663
-0.0663919 -0.028448962 0.31792009
-0.066078134 -0.028434906 0.31777543
-0.065768614 -0.028422568 0.3176499
-0.065444283 -0.028403688 0.31745127
-0.065109819 -0.028380238 0.31720141
-0.064806968 -0.028370416 0.31710392
-0.064508826 -0.028362585 0.31702852
-0.064202219 -0.028350944 0.31691059
-0.063906871 -0.028344199 0.31684726
-0.063561805 -0.028315241 0.31653562
-0.063276075 -0.028312583 0.31651789
-0.062990099 -0.028309787 0.31649861
-0.062705249 -0.028307471 0.31648466
-0.062416658 -0.028303443 0.31645149
-0.062126227 -0.02829854 0.31640851
-0.061859373 -0.028304379 0.31648555
-0.061562657 -0.028296547 0.31640977
-0.061268438 -0.028289797 0.31634599
-0.060948115 -0.028270878 0.31614605
-0.060670048 -0.02827147 0.31616431
-0.060363017 -0.028258514 0.31603098
-0.060044538 -0.028240049 0.31583601
-0.059687436 -0.028203165 0.31543493
-0.05939877 -0.028198423 0.3153933
-0.058256131 -0.028050723 0.31377509
-0.057947014 -0.028035266 0.31361338
-0.057676136 -0.028038252 0.31365791
-0.057390261 -0.028033942 0.31362075
-0.057089638 -0.028022349 0.3135021
-0.056815729 -0.028023819 0.31352955
-0.056450158 -0.027979873 0.31304881
-0.056144442 -0.027965307 0.3128967
-0.055882066 -0.02797229 0.31298569
-0.055553202 -0.027945898 0.31270114
-0.055260763 -0.027937656 0.31261966
-0.054961417 -0.027925825 0.31249794
-0.054649662 -0.027907535 0.31230393
-0.054341052 -0.027890675 0.31212583
-0.054041579 -0.027878353 0.31199849
-0.053741511 -0.027865602 0.31186625
-0.053457696 -0.027861185 0.31182724
-0.053144783 -0.027841482 0.31161711
-0.052828956 -0.02782004 0.31138742
-0.052560169 -0.027823275 0.31143391
-0.052224863 -0.027791146 0.31108448
-0.05193435 -0.027782634 0.31099942
-0.051636372 -0.027770024 0.31086835
-0.05135145 -0.027764337 0.31081477
-0.051057015 -0.027753418 0.31070253
-0.050732892 -0.027726155 0.31040728
-0.050487339 -0.027741769 0.31059206
-0.050191883 -0.027729986 0.31046999
-0.049879611 -0.027708728 0.31024179
-0.0495984 -0.027704583 0.31020516
-0.049282946 -0.027681168 0.30995271
-0.04902263 -0.027688628 0.31004587
-0.048746273 -0.027687062 0.31003797
-0.048383094 -0.027635887 0.30947447
-0.048112847 -0.027637511 0.30950215
-0.047862019 -0.027650377 0.3096557
-0.040722553 -0.027260739 0.30550149
-0.040455554 -0.027262345 0.30552757
-0.040140491 -0.027231362 0.30518839
-0.039870065 -0.027230443 0.30518609
-0.039585084 -0.027219513 0.3050715
-0.039299153 -0.027207769 0.30494779
-0.039009985 -0.027193611 0.3047969
-0.038734898 -0.027189143 0.30475461
-0.038468629 -0.027190842 0.30478138
-0.038155012 -0.027158858 0.30443054
-0.037885856 -0.027158298 0.30443189
-0.037576415 -0.027128648 0.30410707
-0.03730588 -0.02712686 0.30409452
-0.037026156 -0.027118314 0.30400616
-0.036747593 -0.027110504 0.30392599
-0.036462322 -0.027097592 0.30378857
-0.036187269 -0.027092138 0.30373475
-0.035905525 -0.027081558 0.30362335
-0.035604589 -0.027056232 0.30334657
-0.035313383 -0.027037974 0.30314901
-0.035032477 -0.027027391 0.30303738
-0.03475884 -0.027022289 0.30298719
-0.034459993 -0.026997358 0.30271459
-0.034187071 -0.026992515 0.30266717
-0.033904813 -0.026980158 0.30253547
-0.033619311 -0.026965009 0.30237237
-0.033352543 -0.026964759 0.3023763
-0.033073403 -0.026954424 0.3022671
-0.03277158 -0.026925284 0.30194694
-0.032502312 -0.026922638 0.30192381
-0.032231625 -0.026918758 0.3018868
-0.031968053 -0.026920808 0.30191627
-0.031696919 -0.026916472 0.30187401
-0.031426497 -0.026912672 0.30183774
-0.031161774 -0.026913729 0.30185589
-0.030900802 -0.026918074 0.30191085
-0.030649075 -0.026930617 0.30205771
-0.025510969 -0.026568381 0.29809567
-0.025249695 -0.026569722 0.29811582
-0.024986312 -0.026568849 0.29811105
-0.024726575 -0.026571883 0.29815006
-0.024458641 -0.026566071 0.29808977
-0.024185328 -0.026554229 0.29796177
-0.023914631 -0.026545033 0.29786339
-0.023631457 -0.026521627 0.29760554
-0.02335587 -0.02650631 0.29743835
-0.023087405 -0.026498819 0.29735893
-0.02281641 -0.026488218 0.29724458
-0.022555698 -0.026489452 0.29726294
-0.022288017 -0.026482433 0.29718864
-0.022023503 -0.026479054 0.29715511
-0.02176225 -0.026479561 0.29716519
-0.021499012 -0.026477637 0.29714793
-0.021238217 -0.02647871 0.2971642
-0.020976327 -0.026478434 0.2971653
-0.020715484 -0.026479483 0.29718125
-0.020456135 -0.026482496 0.29721916
-0.069195531 -0.028279439 0.31907398
-0.068901755 -0.028274691 0.31903327
-0.068619408 -0.028274618 0.31904522
-0.068338752 -0.028275244 0.31906503
-0.067969263 -0.028238967 0.3186684
-0.067679785 -0.028235771 0.318645
-0.067385398 -0.02823049 0.318598
-0.067050338 -0.028208053 0.31835735
-0.066697583 -0.028177954 0.31803015
-0.066387601 -0.028165745 0.31790486
-0.066083103 -0.028155768 0.31780466
-0.065775305 -0.028144294 0.31768754
-0.065482922 -0.028139349 0.31764403
-0.065131187 -0.02810874 0.31731081
-0.06482175 -0.028096203 0.31718156
-0.064508557 -0.028081926 0.31703258
-0.064207084 -0.028072644 0.31693992
-0.063864782 -0.028045354 0.31664392
-0.063588083 -0.028046759 0.31667185
-0.063277766 -0.028033281 0.31653169
-0.062992744 -0.028030941 0.3165172
-0.062697448 -0.028023986 0.31645063
-0.062400423 -0.028016197 0.31637451
-0.062116321 -0.028014164 0.31636339
-0.061822768 -0.028007831 0.31630367
-0.061536729 -0.028004859 0.31628186
-0.061245348 -0.027999422 0.31623214
-0.060934331 -0.02798491 0.31607991
-0.060639061 -0.027977534 0.31600821
-0.059708171 -0.027933901 0.31554991
-0.059373271 -0.027907521 0.3152633
-0.058954824 -0.027841434 0.31452808
-0.05863072 -0.027819488 0.31429145
-0.058273956 -0.027781762 0.31387645
-0.057983108 -0.027775252 0.31381407
-0.057701971 -0.027773356 0.31380379
-0.057403442 -0.027763026 0.31369817
-0.057091139 -0.027745903 0.31351575
-0.056812059 -0.027744835 0.31351468
-0.056515247 -0.027735062 0.31341517
-0.056191899 -0.027712099 0.31316659
-0.055878773 -0.027693979 0.31297266
-0.055577125 -0.027681395 0.31284121
-0.055265356 -0.027663616 0.31265104
-0.054949559 -0.027643634 0.31243593
-0.054667715 -0.027640617 0.31241244
-0.05436201 -0.027625449 0.3122516
-0.054049816 -0.02760681 0.31205142
-0.05377946 -0.027609456 0.31209186
-0.053446401 -0.027579773 0.31176674
-0.053165752 -0.02757697 0.31174546
-0.052855592 -0.02755875 0.31154981
-0.052561264 -0.027548641 0.3114458
-0.052268017 -0.027538989 0.31134692
-0.051955026 -0.027518779 0.31112865
-0.051668584 -0.027512493 0.3110677
-0.051381443 -0.027505768 0.31100172
-0.051115133 -0.027510177 0.31106162
-0.050774954 -0.027474666 0.31067008
-0.050509602 -0.027479479 0.31073439
-0.050224494 -0.027473535 0.31067708
-0.049925424 -0.027459849 0.31053212
-0.049630601 -0.027448362 0.31041202
-0.039845023 -0.026944166 0.30499989
-0.03957263 -0.026941797 0.30498099
-0.039299712 -0.026939031 0.30495757
-0.039015293 -0.026928294 0.30484384
-0.038737759 -0.026922189 0.30478251
-0.038461134 -0.026916634 0.30472735
-0.038184967 -0.026911331 0.30467498
-0.03791438 -0.026909908 0.30466649
-0.037615333 -0.026888125 0.30442742
-0.037319537 -0.026868368 0.30421126
-0.037022289 -0.026847273 0.30397984
-0.036753453 -0.026846619 0.30397984
-0.036467604 -0.026833443 0.30383801
-0.036185931 -0.026823167 0.30372891
-0.035900187 -0.026809694 0.30358362
-0.035604846 -0.026788803 0.3033542
-0.035320066 -0.026775597 0.30321178
-0.035031341 -0.026759179 0.30303296
-0.034759551 -0.026755547 0.30299881
-0.034483176 -0.026748301 0.30292371
-0.034193642 -0.026730649 0.30273071
-0.033908006 -0.026715796 0.30256933
-0.033636495 -0.026711926 0.30253229
-0.033359028 -0.026703227 0.30244049
-0.033057235 -0.026674761 0.30212477
-0.032790698 -0.026674503 0.30212849
-0.032508887 -0.026661726 0.3019903
-0.032238703 -0.026658347 0.30195853
-0.031967077 -0.026653707 0.30191246
-0.031696796 -0.026650123 0.30187827
-0.031433694 -0.026652567 0.30191228
-0.031164294 -0.026649665 0.30188572
-0.030901141 -0.026652101 0.30191955
-0.030649034 -0.026664192 0.30206272
-0.025772529 -0.026304562 0.29808438
-0.025513265 -0.026307939 0.2981278
-0.02525408 -0.026311468 0.29817289
-0.024986381 -0.026306111 0.29811722
-0.024726111 -0.026308542 0.29814976
-0.024457667 -0.026302235 0.29808319
-0.02418324 -0.026289288 0.29794136
-0.023925612 -0.02629452 0.29800546
-0.023641532 -0.026270475 0.29773769
