# .PCD v0.7 - Point Cloud Data file format
VERSION 0.7
FIELDS x y z
SIZE 4 4 4
TYPE F F F
COUNT 1 1 1
WIDTH 1374
HEIGHT 1
VIEWPOINT 0 0 0 1 0 0 0
POINTS 1374
DATA ascii
0.12329905 -0.034362506 0.41039899
0.12364223 -0.034356419 0.41030523
0.12400185 -0.034354921 0.41026634
0.12433974 -0.034347434 0.41015583
0.1246751 -0.03433929 0.41003752
0.12503238 -0.034337215 0.40999156
0.12537329 -0.034330666 0.40989226
0.12571152 -0.034323424 0.4097847
0.12607709 -0.03432367 0.40976647
0.12641992 -0.034317743 0.4096745
0.12668638 -0.034291171 0.40933621
0.12706237 -0.034294315 0.40935254
0.12743053 -0.034295339 0.40934354
0.12778682 -0.034293167 0.40929642
0.12816992 -0.034298185 0.40933505
0.12852599 -0.034295954 0.40928721
0.1288491 -0.034284975 0.40913495
0.12919343 -0.034279678 0.40905046
0.12954974 -0.034277584 0.40900424
0.12987533 -0.034267403 0.40886146
0.13020243 -0.034257669 0.40872404
0.13055046 -0.034253486 0.40865281
0.13090155 -0.034250118 0.40859136
0.13123515 -0.034242213 0.40847573
0.13159335 -0.034240749 0.40843692
0.13189818 -0.034225445 0.40823308
0.13228337 -0.034231018 0.40827823
0.1326374 -0.034228515 0.40822703
0.13287102 -0.034195051 0.40780655
0.13318855 -0.034183294 0.40764502
0.13351594 -0.034174129 0.40751436
0.13387036 -0.034171913 0.40746662
0.13423881 -0.034173276 0.40746152
0.1345754 -0.034166541 0.4073599
0.13487221 -0.034149781 0.40713868
0.13523144 -0.034148861 0.40710634
0.13558671 -0.034146957 0.40706232
0.13594432 -0.034145646 0.40702531
0.13627446 -0.034137461 0.4069064
0.13658655 -0.034124814 0.40673423
0.13690014 -0.034112602 0.40656736
0.13729805 -0.034121409 0.40665096
0.13760456 -0.034107521 0.40646404
0.13792394 -0.034096878 0.40631589
0.1383051 -0.034101527 0.40634993
0.1386617 -0.034100119 0.40631175
0.13896617 -0.034085926 0.40612128
0.13936147 -0.034094024 0.40619642
0.13961373 -0.034067184 0.40585527
0.13998412 -0.034069225 0.40585825
0.14034192 -0.034068204 0.40582472
0.14068016 -0.034062449 0.40573484
0.14103648 -0.034061097 0.40569732
0.14142418 -0.034067303 0.40574992
0.14181982 -0.034075391 0.40582487
0.14218248 -0.034075528 0.40580514
0.092753641 -0.034586072 0.41927609
0.093086235 -0.034571681 0.41908339
0.093376033 -0.034541577 0.4187001
0.093774721 -0.034551833 0.41880602
0.094099112 -0.034534737 0.41858041
0.094415151 -0.034514725 0.4183194
0.094801612 -0.034520507 0.41837099
0.095135547 -0.034507193 0.41819111
0.095509291 -0.03450837 0.41818675
0.095853664 -0.034498967 0.41805413
0.096229769 -0.034501009 0.41806021
0.096568793 -0.034489792 0.41790557
0.096884415 -0.034470338 0.41765106
0.097232632 -0.034462575 0.41753826
0.097600825 -0.03446193 0.41751158
0.097945452 -0.034453005 0.41738454
0.098307408 -0.034450211 0.41733181
0.098660618 -0.034444388 0.41724232
0.09904144 -0.034448214 0.41726965
0.099353358 -0.034428131 0.41700733
0.099714659 -0.034425247 0.4169533
0.10008782 -0.034426466 0.41694891
0.10044656 -0.034422729 0.41688448
0.10079735 -0.034416307 0.41678751
0.10112382 -0.034401663 0.41659084
0.10150112 -0.034404345 0.4166041
0.10182835 -0.034390103 0.41641232
0.10217483 -0.034382444 0.41630021
0.10255499 -0.034386124 0.41632539
0.102867 -0.034367014 0.41607454
0.10322469 -0.034363247 0.41600946
0.10355797 -0.034351405 0.41584665
0.10392679 -0.034351405 0.41582707
0.10430106 -0.034353193 0.41582906
0.10462416 -0.034338173 0.41562769
0.10498286 -0.034334902 0.41556841
0.10534527 -0.034332864 0.41552407
0.10570209 -0.034329031 0.4154579
0.10605311 -0.034323335 0.41536924
0.10638789 -0.034312442 0.41521767
0.1067458 -0.034309067 0.41515696
0.10707552 -0.03429668 0.41498721
0.10744044 -0.034295611 0.41495439
0.10777389 -0.03428454 0.41480047
0.10812573 -0.034279376 0.41471809
0.10849887 -0.034280974 0.41471741
0.10883461 -0.034270789 0.41457415
0.10916937 -0.034260362 0.41442794
0.10952895 -0.03425777 0.4143765
0.10985758 -0.034245539 0.4142085
0.11020675 -0.034239776 0.41411862
0.11054785 -0.034231555 0.41399902
0.11091655 -0.034231909 0.41398305
0.11127184 -0.034228131 0.41391712
0.11158366 -0.034211043 0.41369027
0.11193556 -0.034206323 0.41361284
0.11227722 -0.034198511 0.41349813
0.11265565 -0.034201916 0.41351894
0.11301859 -0.034200612 0.41348276
0.11333764 -0.034186076 0.41328666
0.11371307 -0.034188587 0.41329655
0.11402412 -0.034171782 0.41307294
0.11438023 -0.034168549 0.41301337
0.11473504 -0.034164947 0.41294935
0.1150844 -0.034159753 0.412866
0.11542688 -0.034152552 0.41275841
0.11575054 -0.034139849 0.41258428
0.11611881 -0.034140341 0.41256964
0.11640767 -0.034117553 0.41227365
0.11675866 -0.034113072 0.41219878
0.11715315 -0.034121271 0.41227722
0.11749628 -0.034114521 0.41217494
0.11784314 -0.034108888 0.41208613
0.11818851 -0.034102857 0.41199249
0.11854996 -0.034101486 0.41195521
0.1188622 -0.034086019 0.41174752
0.11919422 -0.034076296 0.41160926
0.11956749 -0.034078389 0.41161373
0.11992192 -0.034075115 0.41155335
0.12023922 -0.034061342 0.41136616
0.12059885 -0.034059618 0.41132438
0.1209496 -0.034055386 0.41125238
0.1213124 -0.034054577 0.41122165
0.12164251 -0.03404462 0.41108045
0.12196265 -0.034031935 0.41090637
0.12230496 -0.034025501 0.41080764
0.12268414 -0.034029327 0.41083282
0.1230036 -0.034016613 0.4106583
0.12333059 -0.034006052 0.41050977
0.12370826 -0.03400949 0.41053021
0.12404054 -0.03400046 0.41040015
0.12439441 -0.033997383 0.41034192
0.1247392 -0.033991851 0.41025409
0.12509491 -0.033989321 0.41020238
0.12537546 -0.033966437 0.40990514
0.12574871 -0.033968735 0.40991169
0.12611236 -0.03396843 0.40988681
0.12639701 -0.033946909 0.40960598
0.12676513 -0.033947874 0.40959638
0.12708063 -0.033934765 0.40941709
0.12744604 -0.033935033 0.40939906
0.12780829 -0.033934452 0.40937081
0.12815146 -0.033928826 0.40928173
0.12852381 -0.033930942 0.40928602
0.12884253 -0.033918913 0.40911967
0.12918332 -0.033912756 0.40902412
0.12954524 -0.03391216 0.40899566
0.12985805 -0.033898748 0.40881261
0.13018978 -0.03389034 0.40868989
0.13055211 -0.033889916 0.40866351
0.13090898 -0.033888087 0.40862015
0.13126323 -0.033885591 0.40856865
0.13162699 -0.033885553 0.40854692
0.13194337 -0.033873349 0.40837842
0.13229775 -0.033870947 0.40832809
0.13262571 -0.033861808 0.40819663
0.13291171 -0.033842035 0.4079369
0.13324846 -0.033835258 0.40783387
0.13359588 -0.03383122 0.40776384
0.13391691 -0.033820536 0.40761369
0.1343023 -0.033826131 0.40765971
0.13461329 -0.033812992 0.40748
0.1350064 -0.033820499 0.40754911
0.13530132 -0.033803433 0.40732208
0.1356509 -0.033800088 0.40726039
0.13602683 -0.033803303 0.4072777
0.13630421 -0.033782072 0.40700054
0.13663532 -0.033774231 0.40688473
0.13698961 -0.033772159 0.40683836
0.13728695 -0.033756088 0.40662336
0.13763431 -0.033752371 0.4065572
0.13800079 -0.033753347 0.40654758
0.138339 -0.033747416 0.4064548
0.13870169 -0.033747479 0.40643415
0.13901743 -0.033736143 0.40627629
0.13936704 -0.033733074 0.4062179
0.13969024 -0.033723634 0.40608284
0.13997713 -0.033705506 0.40584317
0.14035434 -0.033709157 0.40586579
0.1407479 -0.033716712 0.40593541
0.14105491 -0.033703543 0.40575546
0.14142369 -0.033705171 0.40575367
0.14183946 -0.033717953 0.40588617
0.14231895 -0.033745777 0.40619975
0.14255151 -0.033715066 0.40580869
0.092451282 -0.034240156 0.4196142
0.092758588 -0.034216437 0.41930526
0.093068533 -0.034193873 0.41901046
0.093432978 -0.034191433 0.41896221
0.093762092 -0.034176137 0.4187564
0.09411791 -0.03417065 0.41867077
0.094478771 -0.034167033 0.41860798
0.094830818 -0.034160271 0.41850659
0.095171399 -0.034149449 0.41835544
0.095527418 -0.034144226 0.41827282
0.095878206 -0.034137178 0.41816786
0.096262425 -0.034142043 0.41820878
0.096612684 -0.034134872 0.4181022
0.096917063 -0.034111608 0.41779846
0.097277589 -0.034108203 0.41773799
0.097625159 -0.034100305 0.41762236
0.097989798 -0.034098402 0.41758013
0.098341659 -0.034092084 0.41748384
0.098714717 -0.034093127 0.4174777
0.099034704 -0.034075912 0.41724783
0.099421874 -0.03408185 0.41730148
0.099761248 -0.034071423 0.4171547
0.1001315 -0.03407158 0.41713744
0.10046717 -0.034060009 0.4169766
0.10081191 -0.034051582 0.41685426
0.1011871 -0.034053471 0.41685808
0.10151569 -0.034039717 0.41667041
0.10187271 -0.034035563 0.41660023
0.10222493 -0.034029841 0.41651079
0.10259563 -0.034030288 0.41649681
0.1029328 -0.034019649 0.41634721
0.10328606 -0.034014385 0.41626328
0.103633 -0.034007087 0.41615444
0.10395809 -0.033992697 0.41595873
0.10431848 -0.033989903 0.41590497
0.10467838 -0.033986978 0.41584954
0.10502313 -0.033979163 0.41573429
0.10539963 -0.033981644 0.4157449
0.1057302 -0.033969354 0.41557476
0.10609885 -0.033969335 0.41555476
0.10643647 -0.033959415 0.41541365
0.10678158 -0.033951946 0.41530243
0.10714247 -0.033949532 0.41525298
0.10748699 -0.033941958 0.41514045
0.10783549 -0.0339357 0.41504392
0.10816122 -0.033922333 0.41486049
0.10853724 -0.033924773 0.41487035
0.1088789 -0.033916503 0.41474915
0.10918374 -0.033896856 0.41448879
0.1095893 -0.033908498 0.41461107
0.10987581 -0.033883352 0.41428345
0.11027569 -0.03389322 0.41438395
0.1105952 -0.033878401 0.41418257
0.11096483 -0.033878982 0.41416946
0.11131734 -0.033874348 0.41409257
0.11168899 -0.033875551 0.41408697
0.11199149 -0.033855841 0.41382572
0.11236121 -0.033856515 0.41381359
0.11266734 -0.03383809 0.41356802
0.11301928 -0.033833489 0.41349143
0.1133681 -0.03382799 0.41340384
0.11370393 -0.033818662 0.41326937
0.11407112 -0.033818696 0.41324931
0.11440619 -0.033809233 0.41311321
0.11475542 -0.033804007 0.41302881
0.11512422 -0.033804554 0.41301492
0.11542065 -0.03378392 0.41274226
0.11581682 -0.033792511 0.4128266
0.11615584 -0.03378443 0.41270724
0.11649446 -0.033776283 0.41258711
0.11681913 -0.033764157 0.41241825
0.11718731 -0.033764638 0.41240346
0.1175212 -0.033755273 0.41226831
0.11786424 -0.033748582 0.41216585
0.11819857 -0.03373944 0.4120335
0.11856119 -0.033738416 0.41200018
0.11891859 -0.033735912 0.4119488
0.11926913 -0.033731483 0.41187391
0.11960275 -0.033722311 0.41174102
0.11991504 -0.033707198 0.41153565
0.1202989 -0.033712231 0.41157621
0.12066399 -0.033711996 0.41155237
0.12099159 -0.033701316 0.41140106
0.12132066 -0.033691105 0.41125548
0.12168881 -0.033691779 0.41124275
0.12202719 -0.033684235 0.41112965
0.12234955 -0.033672318 0.41096324
0.12268173 -0.033663169 0.41083053
0.12305633 -0.033665679 0.41084015
0.12339089 -0.033657257 0.41071627
0.12370574 -0.033643521 0.41052762
0.12408654 -0.033647746 0.4105581
0.12442102 -0.033639431 0.4104355
0.12472282 -0.033622347 0.41020593
0.12515286 -0.033639833 0.41039813
0.12544146 -0.033619311 0.41012666
0.12579069 -0.033615109 0.41005421
0.12614237 -0.033611588 0.40999001
0.12647668 -0.033603471 0.40986982
0.12683585 -0.033601981 0.40983048
0.12717605 -0.033595491 0.40973011
0.12747373 -0.033577837 0.40949363
0.12782934 -0.033575505 0.40944389
0.12820311 -0.033577934 0.40945229
0.12854818 -0.033572856 0.40936908
0.12890498 -0.033570867 0.40932354
0.12926629 -0.033570059 0.40929237
0.12955627 -0.033550777 0.40903604
0.12988691 -0.033542112 0.40890905
0.13025166 -0.033542275 0.40888971
0.13057347 -0.033531401 0.4087359
0.13092531 -0.033528287 0.40867656
0.13127567 -0.033524811 0.40861285
0.13162485 -0.033521049 0.40854567
0.13195193 -0.033511702 0.4084104
0.13232192 -0.03351327 0.40840814
0.13268813 -0.033513874 0.40839416
0.13297647 -0.033494856 0.40814105
0.13327913 -0.033479549 0.40793315
0.13363905 -0.033478666 0.40790096
0.13400395 -0.033479027 0.407884
0.13430151 -0.03346261 0.4076626
0.13465185 -0.033459395 0.40760207
0.13504213 -0.033466097 0.40766233
0.13535242 -0.033452991 0.40748125
0.13572675 -0.033455744 0.40749338
0.13604517 -0.033444732 0.40733787
0.13633913 -0.03342779 0.4071101
0.13668725 -0.033424176 0.40704471
0.13703528 -0.033420559 0.40697926
0.13733949 -0.033406302 0.40678424
0.13769931 -0.033405613 0.4067544
0.13803801 -0.033399809 0.40666237
0.13836908 -0.033392206 0.40654838
0.13871478 -0.033388156 0.40647769
0.13905296 -0.033382323 0.40638527
0.13938601 -0.033375297 0.40627831
0.13972549 -0.033369835 0.40619045
0.14007595 -0.033367023 0.40613484
0.14040589 -0.033359345 0.40601999
0.14076588 -0.033358827 0.40599227
0.14110784 -0.033354059 0.40591285
0.14148302 -0.033357136 0.40592891
0.14183588 -0.033354949 0.40588099
0.14226158 -0.033369865 0.40604109
0.14269418 -0.033386316 0.40621984
0.14308456 -0.033392824 0.40627769
0.092100911 -0.033876233 0.419736
0.092457511 -0.033870704 0.41964924
0.092738636 -0.033837676 0.41922176
0.09311945 -0.033841141 0.41924641
0.093461342 -0.03383049 0.41909614
0.09381935 -0.033825736 0.41901883
0.094183706 -0.033823296 0.41897014
0.09447436 -0.033794511 0.41859511
0.094839208 -0.033792388 0.41855028
0.095188908 -0.033784907 0.41843906
0.09557388 -0.033789951 0.4184829
0.09590745 -0.033776853 0.418302
0.096274927 -0.033775754 0.41826969
0.096632987 -0.03377137 0.41819665
0.096958488 -0.033755679 0.41798362
0.097311571 -0.033749685 0.41789046
0.097601026 -0.033721745 0.41752571
0.097999625 -0.03373158 0.41762856
0.098369077 -0.033731349 0.41760677
0.098738015 -0.033730946 0.41758275
0.099090777 -0.033725038 0.41749057
0.099478364 -0.033730984 0.41754511
0.099802285 -0.033715378 0.4173328
0.10015967 -0.03371115 0.41726133
0.10050593 -0.033703219 0.41714397
0.10083489 -0.03368957 0.41695574
0.10122316 -0.033695757 0.41701305
0.10154507 -0.033679899 0.41679746
0.10191552 -0.033680189 0.41678172
0.10225669 -0.033670843 0.41664663
0.10261539 -0.033667304 0.41658348
0.10297585 -0.033664372 0.41652772
0.1033253 -0.033657879 0.41642782
0.10365814 -0.03364604 0.41626179
0.10402653 -0.033645775 0.41623899
0.10435973 -0.033634175 0.41607583
0.10468177 -0.033619072 0.41586936
0.1050697 -0.033625156 0.41592497
0.10538779 -0.033608932 0.41570452
0.1057586 -0.033609573 0.41569272
0.10610387 -0.033602118 0.41558075
0.10647142 -0.03360175 0.41555634
0.10680994 -0.03359225 0.41541901
0.10716695 -0.033588618 0.41535416
0.10752098 -0.033584077 0.41527808
0.10784092 -0.033568952 0.4150711
0.10820825 -0.033568628 0.41504711
0.10854024 -0.033557385 0.41488808
0.10893022 -0.033564083 0.41495085
0.10928269 -0.033559218 0.41487062
0.10960633 -0.033545565 0.4146817
0.10994875 -0.033537727 0.41456467
0.11027461 -0.033524908 0.41438603
0.11062688 -0.033520184 0.41430742
0.11097322 -0.033513691 0.41420692
0.11136277 -0.033520248 0.41426769
0.11170568 -0.033512771 0.41415501
0.11204298 -0.033503663 0.41402209
0.11239789 -0.033499867 0.41395482
0.11273393 -0.033490486 0.41381854
0.11308494 -0.033485599 0.41373777
0.11338843 -0.033466719 0.41348404
0.11376468 -0.033469368 0.41349629
0.11410667 -0.033461947 0.41338417
0.11444709 -0.03345412 0.41326693
0.11477609 -0.033443019 0.41310921
0.11512259 -0.033437066 0.4130151
0.1154727 -0.033432193 0.41293436
0.11580958 -0.033423539 0.41280681
0.11616011 -0.033418857 0.4127284
0.11654445 -0.033423912 0.41277012
0.11687797 -0.033414397 0.41263196
0.11720368 -0.033402719 0.412467
0.11757225 -0.033403289 0.41245335
0.11789272 -0.033390239 0.41227141
0.11823852 -0.033384413 0.4121787
0.11855981 -0.033371728 0.41200131
0.11891996 -0.033370022 0.41195941
0.11928751 -0.033370398 0.41194323
0.11961411 -0.033359352 0.41178602
0.12000597 -0.03336652 0.41185358
0.12031648 -0.033351086 0.41164219
0.12066508 -0.03334628 0.41156191
0.12100767 -0.033339843 0.41146156
0.1213694 -0.033338707 0.41142654
0.12170985 -0.033331748 0.41131967
0.12207007 -0.033330232 0.41127992
0.12241483 -0.033324502 0.41118824
0.12273151 -0.033311199 0.41100302
0.12310028 -0.03331206 0.41099265
0.12343372 -0.033303391 0.41086456
0.12381513 -0.033307675 0.4108963
0.1241314 -0.033294462 0.41071221
0.12446708 -0.033286519 0.41059309
0.12482142 -0.033283591 0.4105359
0.12517805 -0.033281296 0.4104864
0.12548044 -0.033264633 0.41025969
0.12583768 -0.033262566 0.41021305
0.12618235 -0.033257198 0.41012561
0.12653907 -0.033255029 0.41007763
0.12686448 -0.033244662 0.40992862
0.12723131 -0.033245184 0.40991378
0.12758172 -0.033241414 0.40984607
0.12789962 -0.033229224 0.40967453
0.12820555 -0.033214007 0.40946564
0.12858129 -0.033216909 0.40948009
0.12897062 -0.033223294 0.40953755
0.12923977 -0.033198763 0.40921387
0.12955555 -0.033186328 0.40903929
0.12995605 -0.033195596 0.40913218
0.13029465 -0.03318904 0.40903008
0.13061933 -0.033178993 0.40888491
0.13096082 -0.033173256 0.40879285
0.13131993 -0.033172004 0.40875608
0.13164759 -0.033162825 0.40862167
0.13201758 -0.033164345 0.40861896
0.13236831 -0.033161029 0.40855673
0.13269904 -0.033152726 0.40843305
0.13299602 -0.033136066 0.40820646
0.13333787 -0.033130646 0.40811828
0.13366531 -0.033121683 0.40798646
0.1340107 -0.033117197 0.40790984
0.13435736 -0.033113059 0.40783742
0.13473804 -0.033117302 0.4078683
0.13509201 -0.033114973 0.40781817
0.13539895 -0.033101156 0.40762666
0.13574833 -0.033097763 0.40756339
0.13608699 -0.03309178 0.40746832
0.13642627 -0.033085983 0.40737551
0.13674609 -0.033075508 0.4072251
0.13711222 -0.03307626 0.40721291
0.13744155 -0.03306815 0.40709165
0.13775983 -0.033057436 0.40693837
0.13808936 -0.033049468 0.40681884
0.13844293 -0.033047285 0.4067705
0.13873668 -0.033030864 0.40654701
0.13910048 -0.033031166 0.40652931
0.13942415 -0.03302196 0.4063946
0.13977532 -0.033019297 0.40634039
0.14009653 -0.033009585 0.40619951
0.14045481 -0.033008642 0.40616649
0.14082915 -0.033011466 0.40617985
0.14118819 -0.033010699 0.406149
0.14154264 -0.03300887 0.40610504
0.14189224 -0.033005916 0.40604731
0.1422606 -0.033007324 0.40604323
0.14264748 -0.033013016 0.40609187
0.14309011 -0.033031557 0.40629849
0.092162088 -0.033526663 0.42002141
0.092451565 -0.033496786 0.41962889
0.092791952 -0.033485517 0.41946945
0.093117967 -0.03346917 0.41924638
0.093508743 -0.03347614 0.41931528
0.093819991 -0.033454698 0.41902828
0.094190024 -0.033454299 0.41900486
0.094566017 -0.033456013 0.41900784
0.094903216 -0.03344404 0.41883937
0.095300771 -0.033453349 0.41893736
0.095614314 -0.033433214 0.41866651
0.095935054 -0.033415731 0.41842896
0.09798155 -0.033355191 0.41755804
0.098364472 -0.033359554 0.41759372
0.098752059 -0.033365458 0.41764861
0.099118106 -0.033364072 0.4176122
0.099463671 -0.033355825 0.41748989
0.099847741 -0.033360504 0.41752928
0.10019241 -0.033352032 0.41740412
0.10054643 -0.033346724 0.41731849
0.1008838 -0.03333595 0.41716436
0.10124973 -0.033334661 0.41712898
0.10160802 -0.033330876 0.41706225
0.10195026 -0.033321865 0.41693014
0.10225718 -0.033301424 0.41665503
0.10263847 -0.033305261 0.41668352
0.10300549 -0.03330446 0.41665399
0.10334901 -0.033296082 0.41652969
0.10369311 -0.033287961 0.41640851
0.10406207 -0.033287842 0.41638747
0.10439616 -0.03327661 0.41622737
0.10479324 -0.033285465 0.41631842
0.10508363 -0.033260491 0.41598636
0.10540482 -0.033245411 0.41577801
0.1057827 -0.033248242 0.41579366
0.10614321 -0.033245619 0.41574106
0.10649604 -0.033240616 0.41565862
0.10684416 -0.033234183 0.41555837
0.10723173 -0.03324002 0.41561142
0.1075445 -0.033222713 0.41537505
0.10787567 -0.03321119 0.41521102
0.10823696 -0.033208985 0.41516343
0.10862214 -0.033214096 0.4152073
0.10896355 -0.033205837 0.41508397
0.10927928 -0.033189829 0.41486382
0.10962657 -0.033183493 0.41476443
0.11000265 -0.033185877 0.41477409
0.11035921 -0.033182375 0.4147101
0.11069193 -0.033171754 0.4145571
0.11101592 -0.033158593 0.41437238
0.11139926 -0.033163182 0.41440949
0.11171307 -0.033147119 0.41418844
0.11209107 -0.033150148 0.41420591
0.1124346 -0.033142988 0.41409606
0.11273659 -0.033123672 0.41383436
0.11311267 -0.033126175 0.41384521
0.11349423 -0.033130266 0.41387585
0.11379729 -0.033111487 0.41362083
0.11415583 -0.033108924 0.41356826
0.11450592 -0.033103928 0.41348535
0.11480926 -0.033085495 0.41323453
0.11523324 -0.033101834 0.41341802
0.1155528 -0.033088166 0.41322672
0.11785644 -0.033013575 0.41215038
0.11824516 -0.03301983 0.41220769
0.11893526 -0.033007987 0.41201824
0.11929834 -0.033007115 0.41198644
0.11962396 -0.032995906 0.41182572
0.12001284 -0.033002168 0.41188291
0.12033363 -0.032989718 0.41170666
0.12064373 -0.032974426 0.41149488
0.12101619 -0.032976218 0.41149628
0.12137289 -0.032973718 0.41144413
0.12171233 -0.032966558 0.41133374
0.12207781 -0.032966468 0.41131166
0.12241855 -0.032959726 0.41120645
0.12278047 -0.032958701 0.41117263
0.12311052 -0.032949153 0.41103247
0.1234869 -0.032952033 0.41104728
0.12382911 -0.032945797 0.41094837
0.12416393 -0.032937638 0.41082546
0.12449619 -0.032928851 0.41069478
0.12489323 -0.032937203 0.41077775
0.12525229 -0.032935511 0.41073552
0.12553892 -0.03291484 0.41045648
0.12591484 -0.032917637 0.41047016
0.12623061 -0.032904733 0.41028807
0.12658128 -0.032900974 0.41021994
0.12692164 -0.03289457 0.41011888
0.1272911 -0.032895714 0.41011187
0.12761365 -0.032884773 0.40995419
0.12795117 -0.032877736 0.4098452
0.12830316 -0.032874446 0.40978289
0.12862036 -0.032862287 0.40961
0.12896036 -0.032856002 0.40951037
0.12932815 -0.032856811 0.40949917
0.12962089 -0.032838613 0.40925097
0.13000287 -0.03284305 0.40928498
0.13031407 -0.032829635 0.40909648
0.13069798 -0.03283456 0.4091365
0.13100861 -0.032821104 0.40894741
0.1313566 -0.032817051 0.40887558
0.13172585 -0.032818317 0.40886992
0.13202444 -0.032802019 0.40864557
0.1323978 -0.03280434 0.40865308
0.13275282 -0.032802116 0.40860394
0.13305907 -0.032787889 0.40840527
0.1334092 -0.032784518 0.40834188
0.13369614 -0.032765679 0.40808582
0.13407125 -0.032768492 0.40809941
0.13443591 -0.032768741 0.40808114
0.13475868 -0.032758806 0.40793598
0.1350974 -0.032752797 0.40783969
0.13542937 -0.032745175 0.4077234
0.1358026 -0.032747556 0.40773156
0.13616373 -0.032747004 0.40770331
0.1364945 -0.032739181 0.40758443
0.13678996 -0.03272295 0.40736094
0.13713935 -0.032719668 0.40729865
0.13747466 -0.032713056 0.40719488
0.13780469 -0.032705225 0.407076
0.13816711 -0.032705106 0.40705302
0.13847403 -0.032691874 0.40686694
0.13880293 -0.032683898 0.40674621
0.13911086 -0.032671034 0.40656474
0.13948394 -0.0326735 0.40657395
0.13984738 -0.032673694 0.40655494
0.14017487 -0.032665513 0.40643167
0.14055076 -0.032668628 0.40644902
0.1408677 -0.032658048 0.40629598
0.14124914 -0.032662444 0.40632927
0.14156629 -0.032651994 0.40617782
0.14192379 -0.032650877 0.40614247
0.14228433 -0.032650463 0.40611598
0.14266522 -0.03265471 0.40614733
0.14309657 -0.032670453 0.40632173
0.091831945 -0.033169691 0.42023754
0.09217079 -0.033157717 0.4200677
0.092450164 -0.033124544 0.41962913
0.092827789 -0.033126686 0.41963804
0.093154594 -0.033110753 0.41941783
0.093509272 -0.033104811 0.41932422
0.093870252 -0.033101141 0.41925931
0.094229288 -0.033096816 0.41918603
0.094614051 -0.033101525 0.41922718
0.094955385 -0.033091065 0.41907611
0.095334932 -0.033093952 0.41909403
0.095751844 -0.033109728 0.41927519
0.096144535 -0.033117045 0.41934913
0.099503592 -0.032998882 0.41766384
0.099858522 -0.032993831 0.41758075
0.10022528 -0.032992713 0.41754743
0.10058808 -0.032990303 0.41749769
0.10095333 -0.032988712 0.41745827
0.10127641 -0.032973405 0.41724521
0.10162407 -0.032966178 0.41713446
0.10197933 -0.032961465 0.4170554
0.10233168 -0.03295584 0.41696483
0.10267802 -0.032948334 0.41685039
0.10301851 -0.032939006 0.41671291
0.1033907 -0.032939851 0.41670403
0.10374843 -0.032936096 0.41663697
0.10410708 -0.032932654 0.41657382
0.10445459 -0.032925732 0.41646659
0.10480716 -0.032920443 0.41638002
0.10514306 -0.032909978 0.41622791
0.10546463 -0.032895103 0.4160201
0.10581892 -0.03289051 0.41594222
0.10619979 -0.032894183 0.41596884
0.1065441 -0.032886546 0.41585243
0.10688727 -0.032878608 0.41573215
0.10723643 -0.032872565 0.41563576
0.10757785 -0.032864202 0.41551003
0.10793312 -0.0328601 0.41543826
0.10828111 -0.032853823 0.41533887
0.1086133 -0.032842815 0.41517967
0.10897651 -0.032841228 0.41513947
0.10935785 -0.032845091 0.41516823
0.10971196 -0.032840781 0.41509357
0.11003775 -0.032828048 0.41491246
0.11035969 -0.032814257 0.41471791
0.1107134 -0.032809976 0.41464359
0.11104389 -0.032798856 0.4144828
0.11138863 -0.032792009 0.41437599
0.11174903 -0.032789808 0.4143278
0.11209435 -0.032783203 0.414224
0.11245872 -0.032782193 0.41419086
0.11280733 -0.032776617 0.41409996
0.11312902 -0.032763276 0.41391101
0.11354764 -0.032777999 0.41407657
0.11390755 -0.032775737 0.41402748
0.11428179 -0.032777604 0.41403049
0.11467426 -0.032784667 0.41409916
0.12175019 -0.032610826 0.41146734
0.12209435 -0.032605018 0.41137302
0.12244938 -0.032602139 0.41131562
0.12279768 -0.03259749 0.41123587
0.123169 -0.032598957 0.41123337
0.12349502 -0.032588467 0.41107985
0.12386817 -0.03259043 0.41108358
0.12420994 -0.032584161 0.41098329
0.12456364 -0.032581046 0.41092286
0.12487499 -0.032566898 0.41072327
0.12526606 -0.032573566 0.41078615
0.12559836 -0.032564957 0.41065636
0.12595797 -0.032563459 0.41061625
0.12628081 -0.032552488 0.41045669
0.12661815 -0.032545306 0.41034493
0.12696066 -0.032539498 0.41025043
0.12732048 -0.032538142 0.41021207
0.12763897 -0.032526262 0.41004097
0.12800284 -0.032525979 0.41001612
0.12833197 -0.032516897 0.40988034
0.12871911 -0.032522518 0.40992987
0.12903506 -0.032510176 0.40975299
0.12937127 -0.032502998 0.40964118
0.12969898 -0.032493722 0.40950289
0.13001114 -0.032480612 0.40931636
0.13037416 -0.032480258 0.40929049
0.13070425 -0.032471713 0.40916151
0.13109539 -0.032478347 0.40922371
0.13142629 -0.032470055 0.40909779
0.1317651 -0.032463759 0.40899709
0.13210943 -0.032458857 0.40891394
0.13242863 -0.032447822 0.40875351
0.13280271 -0.032450255 0.40876272
0.13313043 -0.032441385 0.40862951
0.13342808 -0.032425251 0.40840492
0.13377078 -0.032420125 0.40831891
0.13410984 -0.032414142 0.40822211
0.13442007 -0.032401245 0.40803823
0.13479528 -0.032404039 0.40805197
0.13516836 -0.032406304 0.40805906
0.13547567 -0.032392826 0.40786791
0.13584074 -0.032393206 0.40785125
0.13617158 -0.032385439 0.40773195
0.13649021 -0.032374814 0.40757674
0.13683234 -0.032369804 0.40749222
0.13716656 -0.032362957 0.40738454
0.13749206 -0.032354087 0.40725151
0.13787463 -0.032358665 0.40728763
0.1381883 -0.032347091 0.40712053
0.13856819 -0.032351032 0.40714866
0.13887636 -0.032338258 0.40696639
0.13922061 -0.032333925 0.40689045
0.13952464 -0.032320298 0.40669751
0.13988881 -0.032320641 0.40668035
0.1402197 -0.03231331 0.40656665
0.14057852 -0.032312434 0.40653425
0.14087984 -0.032298382 0.40633601
0.14125167 -0.032300521 0.40634149
0.14158504 -0.032293886 0.40623653
0.14196002 -0.032296747 0.4062511
0.14230391 -0.032292537 0.40617672
0.14269258 -0.032298483 0.40623009
0.14307494 -0.032302976 0.4062652
0.1434869 -0.032314114 0.40638381
0.091865204 -0.032809325 0.4203963
0.09214972 -0.032778114 0.41997817
0.092498213 -0.032769829 0.41985372
0.092835732 -0.032757733 0.41968042
0.093202643 -0.032756057 0.41964066
0.093539014 -0.032743711 0.41946408
0.093904503 -0.03274161 0.41941872
0.094297774 -0.032749176 0.41949719
0.094677225 -0.032751899 0.41951355
0.095084965 -0.03276436 0.41965449
0.098653369 -0.032714911 0.41883296
0.099054843 -0.032724917 0.41894194
0.099870361 -0.03262743 0.4176366
0.10024036 -0.032627363 0.41761655
0.10060316 -0.032624964 0.41756657
0.1009573 -0.032619782 0.41748098
0.10129826 -0.032610394 0.4173415
0.10167537 -0.03261267 0.41735128
0.10200509 -0.032599784 0.41716695
0.10236786 -0.032597516 0.41711852
0.10270625 -0.032587528 0.41697124
0.10308047 -0.032588936 0.41696972
0.10342221 -0.032580107 0.41683722
0.10380118 -0.032583024 0.41685495
0.10415843 -0.032579128 0.41678548
0.10446451 -0.032559309 0.41651228
0.10483525 -0.032559715 0.41649777
0.10520183 -0.032558825 0.41646668
0.10556292 -0.032556251 0.41641396
0.10585333 -0.03253198 0.41608363
0.10625137 -0.032540824 0.416177
0.10659523 -0.032533079 0.41605806
0.10693095 -0.032522913 0.41590813
0.10730846 -0.032525487 0.41592109
0.10760801 -0.032504492 0.41563264
0.1079303 -0.032490473 0.41543344
0.10833849 -0.032502338 0.41556504
0.1086834 -0.032495197 0.41545367
0.10902116 -0.032485966 0.41531557
0.10937116 -0.032480437 0.41522476
0.10970721 -0.032470819 0.41508159
0.1100621 -0.032466818 0.41501024
0.11040471 -0.032459233 0.41489309
0.11077284 -0.032459177 0.41487217
0.11110716 -0.032449249 0.41472495
0.11149722 -0.032455608 0.41478592
0.11180408 -0.03243779 0.41453785
0.11215904 -0.032433994 0.41446897
0.11248134 -0.032420807 0.41428009
0.12247879 -0.032243997 0.41142002
0.12281331 -0.03223576 0.41129383
0.12315997 -0.032230742 0.41120875
0.12351607 -0.032228224 0.41115549
0.12390076 -0.032233156 0.4111973
0.12423334 -0.032224547 0.41106629
0.12457409 -0.032218095 0.41096279
0.12495297 -0.032221515 0.41098526
0.12527089 -0.03220924 0.41080746
0.12563176 -0.032208052 0.41077107
0.12598892 -0.032205917 0.41072261
0.12633164 -0.032200117 0.41062739
0.126673 -0.032194 0.41052815
0.12698051 -0.032179344 0.41031998
0.12733796 -0.032177392 0.41027379
0.12771294 -0.032179862 0.41028398
0.12804091 -0.032170512 0.41014346
0.12839948 -0.032168876 0.41010132
0.1287339 -0.032161221 0.40998238
0.12909676 -0.032160692 0.40995428
0.12938993 -0.032142852 0.40970555
0.12973884 -0.032138921 0.40963405
0.13005961 -0.032128066 0.40947434
0.13045761 -0.032136291 0.40955776
0.13076219 -0.03212152 0.40934813
0.1310963 -0.032114066 0.40923175
0.13142684 -0.032105785 0.40910479
0.13178056 -0.032103188 0.40905032
0.13212672 -0.032098774 0.40897265
0.13248421 -0.032097131 0.40893027
0.13281441 -0.032088902 0.408804
0.13318363 -0.032090116 0.40879801
0.13354534 -0.03208952 0.40876898
0.13385612 -0.032076724 0.40858454
0.13416559 -0.032063685 0.40839696
0.13452494 -0.032062601 0.40836173
0.13483119 -0.032048903 0.40816581
0.13518442 -0.032046419 0.40811267
0.13553439 -0.03204317 0.40804988
0.13585193 -0.0320323 0.40788996
0.13619022 -0.032026358 0.40779284
0.13652113 -0.032018725 0.40767416
0.13689435 -0.032021023 0.40768197
0.13722546 -0.032013487 0.40756455
0.13751496 -0.03199631 0.40732437
0.13791333 -0.032004487 0.40740699
0.13824426 -0.03199701 0.40729034
0.13856779 -0.031987868 0.4071525
0.13893107 -0.03198792 0.40713164
0.13926628 -0.031981528 0.40702888
0.13960405 -0.031975757 0.40693393
0.13995817 -0.031973753 0.40688697
0.1402797 -0.031964328 0.40674555
0.14061919 -0.031959031 0.40665671
0.14094713 -0.031951148 0.40653494
0.14128932 -0.031946532 0.40645471
0.14163418 -0.031942535 0.40638241
0.14196283 -0.031934913 0.40626398
0.14233887 -0.031937957 0.40628132
0.1427028 -0.031938285 0.40626404
0.14306681 -0.03193862 0.4062469
0.14347866 -0.031949617 0.40636531
0.091187149 -0.032460596 0.42074564
0.091558635 -0.032460231 0.42072272
0.091826521 -0.032423291 0.42022571
0.092139125 -0.03240237 0.41993636
0.092515692 -0.03240402 0.41993952
0.092883289 -0.032402527 0.41990185
0.093248017 -0.032400049 0.41985139
0.09357328 -0.032383934 0.41962415
0.093972452 -0.032393426 0.41972864
0.094368711 -0.032401841 0.41981915
0.099822126 -0.032361496 0.4190135
0.100122 -0.032338392 0.41869512
0.1002382 -0.03225635 0.41761374
0.10062515 -0.032261726 0.41766405
0.10098851 -0.032259516 0.41761622
0.10135628 -0.03225873 0.41758671
0.10170216 -0.032251015 0.41746745
0.10204545 -0.032242533 0.41733822
0.10239491 -0.032236051 0.41723487
0.10277262 -0.032238483 0.41724682
0.10313183 -0.032235112 0.41718367
0.1034508 -0.032219231 0.4169586
0.1038006 -0.032213036 0.41685879
0.10418821 -0.032218572 0.41691077
0.10452881 -0.032209583 0.41677478
0.10486397 -0.032198977 0.41661793
0.10520793 -0.032191154 0.41649693
0.1055839 -0.032193139 0.4165028
0.10591394 -0.032181151 0.41632792
0.10626122 -0.032174475 0.41622165
0.10661964 -0.032171201 0.41615942
0.10697482 -0.032166973 0.4160848
0.10733493 -0.032164257 0.41602972
0.10766917 -0.032153826 0.41587481
0.10798749 -0.032138731 0.41565958
0.10836788 -0.032142151 0.41568372
0.10871007 -0.032134257 0.41556159
0.10903838 -0.032122325 0.41538715
0.10942398 -0.032127295 0.41543123
0.10975411 -0.032115992 0.41526496
0.11008781 -0.032105818 0.41511318
0.11046228 -0.032107554 0.41511536
0.11083917 -0.03210998 0.41512644
0.11114942 -0.032093156 0.41488862
0.1115244 -0.032095063 0.41489291
0.11189985 -0.032097086 0.41489881
0.12352478 -0.03186468 0.41119
0.12387194 -0.031859897 0.41110715
0.12425814 -0.03186515 0.41115376
0.12459721 -0.031858325 0.41104454
0.12496744 -0.031859484 0.41103828
0.12532742 -0.031858031 0.41099831
0.12566124 -0.031849954 0.41087285
0.12597804 -0.031837624 0.41069257
0.12638436 -0.031847924 0.41080415
0.1267349 -0.031844147 0.41073412
0.12704617 -0.031830549 0.41053751
0.12740406 -0.031828683 0.41049209
0.12773208 -0.031819381 0.41035083
0.12804283 -0.031805847 0.41015497
0.12843065 -0.031811472 0.41020617
0.12877104 -0.031805359 0.41010594
0.12913145 -0.031804208 0.41006976
0.12945056 -0.031792916 0.40990281
0.12983339 -0.031797297 0.40993792
0.130136 -0.031782061 0.40972009
0.13046966 -0.031774469 0.40960082
0.13082694 -0.031772662 0.40955609
0.13112246 -0.031755898 0.4093186
0.13149028 -0.031756695 0.40930745
0.13184172 -0.031753544 0.40924537
0.13218382 -0.031748161 0.40915459
0.13254049 -0.031746298 0.40910918
0.13288729 -0.031742088 0.40903342
0.13324422 -0.031740315 0.40898913
0.13360347 -0.031739105 0.40895206
0.13388744 -0.031720061 0.40868524
0.13417226 -0.03170133 0.40842238
0.13453996 -0.031702224 0.40841243
0.13489087 -0.031699166 0.40835157
0.13522331 -0.031691797 0.40823516
0.13560367 -0.031695664 0.4082635
0.1359005 -0.031680044 0.40804079
0.13627161 -0.031681772 0.4080416
0.13661835 -0.031677842 0.40796944
0.13697785 -0.031676881 0.40793562
0.13729499 -0.031666163 0.40777606
0.13756433 -0.031644497 0.40747559
0.1379391 -0.031647138 0.40748811
0.13829556 -0.031645574 0.40744644
0.13861476 -0.031635512 0.40729544
0.13899294 -0.031638928 0.40731794
0.13932109 -0.031630971 0.40719396
0.13960527 -0.0316131 0.40694243
0.14002745 -0.031626485 0.40709323
0.14038673 -0.031625632 0.40706077
0.14060296 -0.031592641 0.40661469
0.14101203 -0.031603038 0.40672699
0.14137435 -0.031602927 0.4067041
0.14171985 -0.031599075 0.40663302
0.14207534 -0.031597458 0.40659079
0.142387 -0.031586129 0.40642351
0.14272219 -0.031580061 0.40632397
0.14310785 -0.031585164 0.4063682
0.14351963 -0.031595986 0.406486
0.091227472 -0.032102138 0.4209381
0.091606975 -0.032104529 0.42095131
0.091843069 -0.032056846 0.42030787
0.092194915 -0.032049783 0.42019701
0.092562139 -0.032048099 0.42015672
0.092910938 -0.032040078 0.42003322
0.093276568 -0.032037903 0.41998631
0.093616538 -0.032026965 0.41982451
0.09401799 -0.032037064 0.41993839
0.094428569 -0.032050177 0.42009181
0.094855063 -0.032068573 0.42031431
0.099850401 -0.03199904 0.41913837
0.10022932 -0.032001406 0.41915014
0.10103706 -0.031904507 0.41782314
0.1013715 -0.031893194 0.41765562
0.10171904 -0.03188606 0.41754285
0.10208233 -0.031883907 0.41749519
0.10241663 -0.031872734 0.41732946
0.10282408 -0.031884335 0.41746184
0.10316213 -0.031874411 0.41731235
0.10352296 -0.031871565 0.41725552
0.10386407 -0.031862691 0.41711971
0.10420917 -0.031855099 0.41700068
0.10455933 -0.031849105 0.41690251
0.1049124 -0.031844031 0.41681638
0.10528943 -0.03184624 0.41682553
0.1056047 -0.031829827 0.41659087
0.10595302 -0.031823445 0.41648754
0.10627243 -0.031808458 0.41627154
0.10664222 -0.0318086 0.41625351
0.10699185 -0.031802755 0.41615704
0.10734361 -0.031797569 0.41606924
0.10770116 -0.031794135 0.4160043
0.10807656 -0.031795975 0.41600838
0.10842627 -0.031790275 0.41591367
0.10875134 -0.031777408 0.41572526
0.10908625 -0.031767491 0.41557541
0.10945233 -0.03176669 0.41554478
0.109815 -0.031764913 0.4155013
0.11019617 -0.031768471 0.41552761
0.11053794 -0.031760685 0.41540554
0.11087053 -0.031750333 0.41524979
0.12499598 -0.031500921 0.41113758
0.12532696 -0.03149217 0.41100213
0.12570716 -0.031495806 0.41102839
0.12606578 -0.031494033 0.41098398
0.12638944 -0.031483557 0.410826
0.1267318 -0.03147779 0.41072944
0.12709583 -0.031477418 0.4107033
0.12744781 -0.03147408 0.41063836
0.12777933 -0.031465717 0.41050795
0.12811524 -0.031458475 0.41039217
0.12848449 -0.031459447 0.41038343
0.12877034 -0.031440049 0.41010901
0.129151 -0.031443838 0.41013709
0.12951258 -0.031442974 0.41010439
0.12985526 -0.031437539 0.41001216
0.13023338 -0.031440694 0.41003186
0.13048837 -0.031414188 0.40966481
0.13088517 -0.03142187 0.40974352
0.1312075 -0.031411681 0.40958923
0.13150193 -0.031394888 0.40934885
0.13185064 -0.031391118 0.40927821
0.13221841 -0.031391885 0.40926677
0.13256665 -0.031388029 0.40919504
0.13289389 -0.03137923 0.40905887
0.13326159 -0.031380013 0.40904757
0.13359556 -0.03137286 0.40893289
0.13392884 -0.031365596 0.4088167
0.1342718 -0.03136063 0.40873048
0.13463609 -0.031360656 0.40870932
0.13491967 -0.031341929 0.40844378
0.13526604 -0.03133785 0.40836915
0.13566524 -0.031346004 0.40845385
0.13601322 -0.031342313 0.40838423
0.13634247 -0.031334329 0.40825871
0.13665815 -0.03132328 0.40809327
0.13700333 -0.031319037 0.40801647
0.13731343 -0.031306814 0.40783572
0.13768123 -0.031307779 0.40782675
0.13799036 -0.031295434 0.40764442
0.13833612 -0.031291436 0.40757084
0.13868144 -0.031287361 0.40749624
0.13902093 -0.031281997 0.40740487
0.13937636 -0.031280231 0.40736035
0.13967456 -0.031265669 0.40714923
0.14004853 -0.031268101 0.40715939
0.14035483 -0.031255443 0.40697306
0.14069772 -0.031250987 0.40689352
0.14101499 -0.031240873 0.4067404
0.14134243 -0.031233057 0.40661713
0.14172812 -0.031238116 0.40666154
0.1420828 -0.031236334 0.40661687
0.14240721 -0.03122793 0.40648597
0.14279602 -0.031233648 0.4065389
0.143149 -0.031231521 0.40648979
0.14350723 -0.031230547 0.40645564
0.090921618 -0.031752665 0.42127222
0.091249049 -0.031736828 0.42104399
0.091533341 -0.031706184 0.42061925
0.091868997 -0.0316935 0.42043284
0.092214867 -0.031684432 0.42029428
0.092599094 -0.03168856 0.42033076
0.092926286 -0.031673215 0.42010888
0.093293503 -0.03167158 0.42006883
0.093678206 -0.031675875 0.42010733
0.094093964 -0.031690586 0.420284
0.09454494 -0.031717006 0.42061576
0.094901167 -0.031711552 0.42052484
0.099882863 -0.031637702 0.41928077
0.10020314 -0.031621497 0.41904676
0.10053908 -0.031610336 0.41887957
0.10065981 -0.031531841 0.41782016
0.10106085 -0.031541411 0.41792762
0.10138801 -0.031527929 0.41772965
0.10178325 -0.031535644 0.41781247
0.10211363 -0.03152328 0.41762918
0.10247793 -0.03152144 0.41758528
0.10282592 -0.031514607 0.41747534
0.10318191 -0.031510279 0.41739836
0.10355525 -0.031511247 0.41739163
0.10388814 -0.031499948 0.41722235
0.10423174 -0.031491965 0.41709694
0.10458627 -0.031487335 0.41701591
0.10494303 -0.031483397 0.41694403
0.10528515 -0.031475119 0.4168146
0.10562711 -0.031466842 0.41668522
0.10598323 -0.03146283 0.41661224
0.10633341 -0.031457089 0.41651633
0.10670183 -0.031456765 0.4164921
0.10705213 -0.031451117 0.41639739
0.1073961 -0.031443655 0.41627866
0.10773915 -0.031435978 0.41615695
0.10809674 -0.03143258 0.41609195
0.10846182 -0.031431373 0.41605589
0.10878167 -0.031417113 0.415847
0.10916663 -0.031421695 0.41588748
0.10953202 -0.031420626 0.41585314
0.10985976 -0.031408802 0.41567644
0.11021253 -0.03140419 0.41559514
0.11060145 -0.031409867 0.41565001
0.1257098 -0.031130677 0.41104236
0.12606047 -0.031126954 0.41097191
0.12642555 -0.031126807 0.41094866
0.12682331 -0.031134674 0.41103125
0.12714267 -0.031123314 0.41085991
0.12748955 -0.03111873 0.41077811
0.1278125 -0.031108353 0.41061977
0.12814331 -0.031099936 0.41048726
0.12849391 -0.031096358 0.41041869
0.12887473 -0.031100098 0.41044667
0.12918711 -0.031087337 0.41025689
0.12953822 -0.031083953 0.41019079
0.12990789 -0.031085022 0.41018349
0.13024621 -0.031078605 0.41007739
0.13055824 -0.031065965 0.40988922
0.13091271 -0.031063475 0.40983486
0.13126116 -0.031059567 0.40976188
0.13156989 -0.031046312 0.40956554
0.13195765 -0.031051723 0.40961546
0.13224709 -0.03103403 0.40936062
0.13264391 -0.031041568 0.40943858
0.1329723 -0.031033097 0.40930533
0.13328038 -0.031019939 0.40911028
0.13365123 -0.031021426 0.40910837
0.13399872 -0.03101749 0.40903497
0.13431969 -0.031007461 0.40888122
0.1346086 -0.0309901 0.40863076
0.13501796 -0.031000493 0.4087463
0.13531607 -0.030985352 0.40852514
0.13571376 -0.030993033 0.40860489
0.13599695 -0.030974597 0.40834031
0.13634358 -0.030970667 0.40826699
0.13670623 -0.030970385 0.40824175
0.13702834 -0.030960947 0.40809584
0.13739131 -0.03096077 0.40807194
0.13773963 -0.030957295 0.40800461
0.13805525 -0.030946516 0.407841
0.13840647 -0.03094374 0.40778294
0.13873316 -0.030935522 0.40765306
0.13908832 -0.030933671 0.40760714
0.13942701 -0.030928178 0.4075132
0.13974254 -0.030917587 0.40735218
0.1400571 -0.030906837 0.40718901
0.14043683 -0.03091049 0.40721563
0.14080523 -0.030911636 0.40720919
0.14109445 -0.030895431 0.40697426
0.14143504 -0.030890539 0.40688828
0.14175455 -0.030881073 0.40674207
0.14214323 -0.030886687 0.40679455
0.14244092 -0.030872552 0.40658686
0.14284739 -0.030881999 0.40668982
0.14317843 -0.030875145 0.40657803
0.14352648 -0.030871974 0.40651479
0.14395361 -0.030885788 0.40667522
0.14436047 -0.0308952 0.40677762
0.090950213 -0.031389445 0.42141101
0.091224901 -0.031355631 0.42093888
0.091535993 -0.031334545 0.42063773
0.091915511 -0.031336967 0.42065197
0.092256092 -0.031326141 0.42048842
0.092630491 -0.031326842 0.42047954
0.092966318 -0.031314544 0.42029607
0.093341269 -0.031315472 0.42029017
0.093733907 -0.0313223 0.42036337
0.099930443 -0.031280853 0.41948655
0.10022183 -0.03125577 0.41913095
0.10054419 -0.031240504 0.4189069
0.10069631 -0.031172642 0.41797766
0.10109524 -0.031181406 0.41807583
0.10146375 -0.031180756 0.41804773
0.10181534 -0.031174926 0.41795015
0.10213854 -0.031160483 0.41773707
0.10252082 -0.031164097 0.41776606
0.1028817 -0.031161206 0.41770777
0.1032113 -0.031148897 0.41752318
0.10356923 -0.031145195 0.41745394
0.103931 -0.031142665 0.41740042
0.10425345 -0.031128421 0.41718978
0.10463169 -0.031130869 0.41720289
0.10500111 -0.031130688 0.41718072
0.10534286 -0.031122332 0.41704893
0.10570268 -0.031119352 0.41698918
0.10604754 -0.031112006 0.41687089
0.10636705 -0.031097302 0.41665399
0.10672808 -0.031094795 0.41660044
0.10710325 -0.031096406 0.41660208
0.10741107 -0.031078523 0.4163425
0.10777849 -0.031077947 0.41631475
0.10809843 -0.03106373 0.41610426
0.10849077 -0.031070346 0.41617277
0.10883748 -0.031063888 0.41606614
0.1091651 -0.031052049 0.41588742
0.10959497 -0.031069277 0.41609794
0.10995615 -0.03106698 0.41604692
0.11034141 -0.031071477 0.41608685
0.12642957 -0.030762034 0.41096696
0.12682976 -0.030770397 0.41105738
0.12717164 -0.03076461 0.41095871
0.1275313 -0.030763147 0.41091782
0.12784237 -0.030750001 0.41072085
0.12822977 -0.030755235 0.4107694
0.12850623 -0.030733913 0.41046321
0.12890798 -0.030742586 0.41055766
0.12922844 -0.030731881 0.41039327
0.1295734 -0.030727049 0.41030735
0.12993632 -0.030726489 0.41027841
0.13030235 -0.03072666 0.41025928
0.13057783 -0.03070554 0.40995583
0.13095851 -0.030709205 0.40998334
0.1312864 -0.030700509 0.40984574
0.13161808 -0.030692743 0.40972057
0.13195716 -0.03068674 0.40961894
0.1323307 -0.030688763 0.40962452
0.13270798 -0.030691633 0.40964133
0.13296498 -0.030666756 0.40928775
0.13337992 -0.030678339 0.40942085
0.13365231 -0.030657157 0.40911663
0.13402988 -0.030660151 0.40913507
0.13435709 -0.030651646 0.40900007
0.13471669 -0.030650547 0.40896386
0.13504352 -0.030642023 0.40882862
0.13534302 -0.030627357 0.40861142
0.13577348 -0.030642333 0.40878963
0.13608487 -0.030630421 0.40860918
0.1364059 -0.030620735 0.40845844
0.13675223 -0.030616768 0.40838397
0.1371285 -0.030619513 0.40839902
0.1374114 -0.030601442 0.40813649
0.13775051 -0.030595945 0.40804163
0.13813433 -0.030600391 0.40807936
0.13846633 -0.030593364 0.40796408
0.13881901 -0.030590933 0.40791014
0.13911171 -0.030575326 0.40768045
0.1394456 -0.030568831 0.40757233
0.13973798 -0.030553289 0.4073436
0.14014506 -0.030562848 0.40744948
0.14044553 -0.030549167 0.40724555
0.14084548 -0.030557137 0.40733027
0.14117862 -0.030550614 0.40722173
0.14153771 -0.030549714 0.40718827
0.14181481 -0.030531175 0.40691966
0.14215486 -0.030526249 0.40683246
0.14251955 -0.030526623 0.40681592
0.14287068 -0.030524097 0.40676078
0.14323635 -0.030524688 0.40674713
0.14357163 -0.030518806 0.40664726
0.14398551 -0.030529628 0.40676993
0.14437351 -0.030534916 0.4068189
0.090961769 -0.031020181 0.42147079
0.091249906 -0.030991316 0.42106047
0.091580205 -0.030976947 0.42084709
0.091952465 -0.030976832 0.42082727
0.092299409 -0.030968223 0.42069206
0.092642739 -0.030958472 0.42054126
0.093022548 -0.030960942 0.42055649
0.093371339 -0.030953109 0.42043167
0.093788452 -0.030967901 0.42061409
0.09415476 -0.030965863 0.4205679
0.094643578 -0.031003974 0.42106697
0.10029387 -0.030906353 0.41943824
0.10059131 -0.030883532 0.4191092
0.10074431 -0.030816695 0.41818288
0.10112536 -0.030819846 0.41820633
0.101486 -0.030816779 0.41814533
0.10184453 -0.0308131 0.41807595
0.10220143 -0.03080895 0.41800019
0.10255191 -0.030802906 0.41789865
0.10290828 -0.03079867 0.41782162
0.10326712 -0.03079519 0.41775489
0.10361181 -0.030787539 0.41763145
0.10393719 -0.030774221 0.41743115
0.10431408 -0.030776199 0.41743827
0.10467144 -0.030772418 0.41736722
0.10503518 -0.030770533 0.41732189
0.10536639 -0.030759169 0.41714793
0.10571869 -0.030754013 0.41705823
0.10605325 -0.030743748 0.41689914
0.10639871 -0.030736711 0.41678381
0.10674898 -0.030731097 0.41668776
0.10714368 -0.030738277 0.41676512
0.10745966 -0.030722899 0.4165366
0.10781752 -0.030719556 0.41647124
0.10815386 -0.030710131 0.41632339
0.10852844 -0.030711584 0.41632298
0.126837 -0.030406274 0.41108602
0.12714872 -0.030393338 0.41088977
0.12754165 -0.030399835 0.41095626
0.12791297 -0.030401159 0.41095278
0.12825176 -0.030394765 0.41084495
0.1286194 -0.030395228 0.41082981
0.12894268 -0.030385235 0.41067332
0.12931304 -0.030386358 0.41066706
0.12964296 -0.030378001 0.41053265
0.12998407 -0.030372303 0.41043422
0.13034055 -0.030370215 0.41038457
0.13068166 -0.030364579 0.4102869
0.1310384 -0.03036258 0.41023842
0.13133158 -0.030345913 0.40999177
0.13163532 -0.030331776 0.40977928
0.13200463 -0.03033278 0.40977132
0.13239346 -0.03033825 0.40982369
0.13271186 -0.030327594 0.40965825
0.13310649 -0.030334372 0.40972826
0.13343535 -0.03032616 0.40959585
0.13375892 -0.030316798 0.40944785
0.13410793 -0.030313237 0.4093782
0.13439368 -0.030295439 0.4091163
0.1347672 -0.030297464 0.40912211
0.13508581 -0.030287161 0.40896145
0.13544247 -0.030285427 0.40891647
0.13584617 -0.030294193 0.40901327
0.13611048 -0.030271918 0.40869096
0.13648003 -0.030273091 0.40868524
0.13679124 -0.03026136 0.40850532
0.13719575 -0.030270273 0.40860406
0.13749309 -0.030255558 0.40838385
0.13784096 -0.030252006 0.40831435
0.13814834 -0.030239614 0.40812552
0.13848042 -0.030232679 0.40801036
0.13883743 -0.030231208 0.40796894
0.13919806 -0.030230528 0.40793821
0.1394999 -0.030217122 0.40773574
0.13988264 -0.030221261 0.40777001
0.14026019 -0.03022426 0.4077889
0.14050257 -0.030198188 0.40741563
0.14087448 -0.030200021 0.40741879
0.14124364 -0.030201262 0.40741393
0.14154285 -0.03018757 0.4072077
0.14189564 -0.030185346 0.4071562
0.14223312 -0.03017989 0.40706104
0.14257711 -0.030175835 0.40698484
0.14292987 -0.030173652 0.40693387
0.14327095 -0.030169023 0.40684992
0.14363201 -0.030168608 0.4068228
0.14397284 -0.030163962 0.40673864
0.14437456 -0.030172063 0.40682638
0.14483015 -0.030191356 0.40706497
0.090985246 -0.030654835 0.42158568
0.09124092 -0.030615393 0.42102516
0.091613159 -0.030615225 0.42100465
0.091993146 -0.030617639 0.42101958
0.092343584 -0.030610235 0.42089951
0.092678346 -0.030597713 0.42070901
0.093063846 -0.03060198 0.42074928
0.093402267 -0.030590793 0.42057705
0.09383288 -0.030609764 0.4208194
0.094183676 -0.030602658 0.42070314
0.094690964 -0.030646248 0.42128381
0.10058865 -0.030511105 0.41910398
0.10081089 -0.030466 0.41846508
0.10115178 -0.030456955 0.41832146
0.10151927 -0.030455951 0.41828826
0.10187856 -0.030452503 0.4182215
0.10223131 -0.030447133 0.41812822
0.10257665 -0.030439602 0.41800532
0.10293151 -0.030434934 0.41792169
0.10327536 -0.030427067 0.41779405
0.10366753 -0.030433433 0.41786182
0.10398157 -0.030416904 0.41761518
0.10437287 -0.03042301 0.41767931
0.10470102 -0.030410729 0.41749096
0.10505421 -0.030405786 0.41740331
0.10538483 -0.030394364 0.41722667
0.10574994 -0.030392932 0.41718718
