# .PCD v0.7 - Point Cloud Data file format
VERSION 0.7
FIELDS x y z
SIZE 4 4 4
TYPE F F F
COUNT 1 1 1
WIDTH 1326
HEIGHT 1
VIEWPOINT 0 0 0 1 0 0 0
POINTS 1326
DATA ascii
-0.041149277 0.057309501 0.42738903
-0.040782418 0.057323698 0.42750296
-0.040432237 0.057361819 0.42779526
-0.0096249059 0.055943254 0.41759595
-0.0092545422 0.05592905 0.41749144
-0.0088874837 0.05593447 0.41753334
-0.0085177012 0.05592249 0.41744521
-0.008145499 0.05589281 0.41722497
-0.0077768951 0.055886187 0.41717675
-0.0074078911 0.055875901 0.41710109
-0.0070380629 0.055858001 0.41696846
-0.006668481 0.055840194 0.41683653
-0.0062984717 0.055816527 0.41666073
-0.0059303571 0.055807762 0.41659611
-0.0055625434 0.055800866 0.41654536
-0.0051928503 0.055772815 0.4163366
-0.0048252447 0.055764627 0.41627604
-0.0044577327 0.055756271 0.41621417
-0.0040907441 0.055753551 0.41619426
-0.0037217075 0.055719655 0.41594157
-0.0033540232 0.055700805 0.41580108
-0.0029874351 0.055697776 0.4157787
-0.0026201503 0.055679113 0.41563943
-0.0022534751 0.055669453 0.41556731
-0.0018867889 0.055655722 0.41546479
-0.0015200856 0.055634778 0.4153083
-0.0011538481 0.055623032 0.41522041
-0.00078784919 0.055617239 0.41517684
-0.00042175513 0.055588931 0.41496515
-5.6054399e-05 0.055581767 0.41491118
0.00030939723 0.055546723 0.41464907
0.00067492377 0.055555768 0.41471595
0.0010400967 0.055539552 0.4145942
0.0014049782 0.055520233 0.41444921
0.0017698163 0.055507507 0.4143534
0.0021351094 0.055510953 0.4143782
0.0024981762 0.055463951 0.41402635
0.0028634027 0.055470757 0.41407609
0.0032278493 0.055462632 0.41401422
0.0035926807 0.055462077 0.41400886
0.0039579826 0.055468217 0.41405338
0.0043241247 0.055484094 0.41417047
0.0046909624 0.055505726 0.41433048
-0.054468736 0.058224775 0.43104213
-0.054087386 0.058223817 0.43104565
-0.053698126 0.058214262 0.43098551
-0.053310283 0.058206115 0.43093571
-0.052928038 0.058204025 0.43093058
-0.052525815 0.058179755 0.43076125
-0.052128956 0.058161128 0.4306336
-0.05174166 0.058152981 0.43058345
-0.051346511 0.058135815 0.43046647
-0.0509478 0.058114335 0.4303174
-0.050549675 0.058093201 0.43017089
-0.050123684 0.058039486 0.42978302
-0.04976134 0.058059219 0.42993891
-0.04936108 0.058034662 0.4297668
-0.048980266 0.058032777 0.42976248
-0.048564374 0.057988975 0.42944768
-0.048172679 0.057973597 0.42934334
-0.047796454 0.057976753 0.42937613
-0.047389649 0.057942569 0.42913228
-0.047008712 0.057939712 0.42912042
-0.046613909 0.057919592 0.42898056
-0.04621651 0.057895869 0.42881402
-0.045835163 0.057892043 0.42879474
-0.045443371 0.057874851 0.42867637
-0.04503816 0.057840139 0.42842814
-0.044659942 0.057839807 0.42843449
-0.044263583 0.057815764 0.42826512
-0.043863714 0.057786681 0.42805836
-0.043482147 0.057781424 0.42802802
-0.043093618 0.057766736 0.4279277
-0.042692687 0.057735022 0.42770123
-0.042311817 0.057730108 0.42767319
-0.041920826 0.057711177 0.4275412
-0.041533358 0.057696804 0.42744294
-0.041161694 0.057704315 0.42750669
-0.040798649 0.057724159 0.42766178
-0.040436987 0.057746351 0.42783415
-0.0096291564 0.056336839 0.41777131
-0.0092598526 0.056329988 0.41772202
-0.0088884197 0.056309093 0.4175685
-0.0085200742 0.056306794 0.4175528
-0.00815129 0.056301259 0.41751304
-0.0077801314 0.056278035 0.41734201
-0.0074113267 0.05627038 0.41728634
-0.0070412303 0.0562516 0.41714817
-0.0066724801 0.056242108 0.41707873
-0.0063022971 0.05621874 0.4169063
-0.0059339078 0.056209464 0.41683832
-0.005566108 0.05620493 0.41680542
-0.0051963315 0.056178384 0.4166092
-0.0048271199 0.056154378 0.41643173
-0.0044599529 0.056152165 0.41641584
-0.0040916651 0.056134194 0.41628295
-0.0037240672 0.056123082 0.41620091
-0.0033565834 0.056111462 0.41611496
-0.002988467 0.056085125 0.41591984
-0.0026211417 0.056068357 0.41579556
-0.0022542796 0.056057665 0.41571629
-0.0018875616 0.056047119 0.41563803
-0.0015208003 0.056029908 0.41551027
-0.0011543873 0.056018718 0.41542703
-0.00078801875 0.056000326 0.41529033
-0.00042192097 0.055985995 0.41518369
-5.6008921e-05 0.055970673 0.41506958
0.00030973792 0.055961609 0.41500187
0.00067531696 0.055948421 0.41490343
0.0010408739 0.055943292 0.41486469
0.0014055942 0.055907533 0.41459873
0.0017710009 0.055908177 0.4146027
0.002135573 0.055886753 0.41444287
0.0025004165 0.055877648 0.41437432
0.0028657678 0.055880744 0.41439623
0.0032285124 0.055838063 0.41407853
0.0035949564 0.055861522 0.41425127
0.003959598 0.055855222 0.41420323
0.004325435 0.055865418 0.41427746
0.0046925927 0.055889755 0.41445643
-0.054502066 0.058641538 0.4312945
-0.054121718 0.058641903 0.43130782
-0.05371901 0.058617875 0.43114164
-0.053325441 0.058603555 0.43104678
-0.052941117 0.058599256 0.43102556
-0.052547392 0.058584422 0.43092677
-0.052151695 0.058567155 0.43081
-0.051762816 0.058557346 0.43074805
-0.051352672 0.058523159 0.43050665
-0.050964337 0.0585135 0.43044561
-0.050572261 0.058499373 0.43035164
-0.05016429 0.058466505 0.43011975
-0.049778804 0.05845955 0.43007836
-0.049375553 0.058431454 0.42988139
-0.04898132 0.058413677 0.42976028
-0.048606146 0.058418542 0.42980564
-0.048216201 0.058405586 0.42971981
-0.047816683 0.058380734 0.42954639
-0.047418006 0.058356535 0.42937765
-0.047024 0.058337726 0.42924854
-0.046638105 0.058328755 0.42919174
-0.046247482 0.058313686 0.42908999
-0.045846667 0.058285404 0.42889094
-0.045473319 0.058291864 0.42894745
-0.045051139 0.058235314 0.4285402
-0.0446808 0.058245391 0.42862314
-0.04427243 0.058205631 0.4283393
-0.043893605 0.058204368 0.42833868
-0.043506484 0.058191989 0.42825612
-0.04311065 0.058167636 0.42808545
-0.042717818 0.058146946 0.42794159
-0.042323928 0.05812443 0.42778423
-0.041945454 0.058122862 0.42778102
-0.04155511 0.058104679 0.42765537
-0.041188192 0.058119215 0.42777047
-0.040812623 0.0581217 0.42779684
-0.040452071 0.058145832 0.42798242
-0.040116295 0.058206353 0.4284358
-0.009634532 0.056737375 0.41799539
-0.0092645325 0.056727495 0.41792414
-0.0088951522 0.056720756 0.41787592
-0.0085261231 0.056715768 0.41784051
-0.008155548 0.056699589 0.41772255
-0.0077872188 0.056698225 0.41771373
-0.007416009 0.056674723 0.41754171
-0.0070433556 0.05663716 0.41726604
-0.0066747386 0.05662971 0.41721213
-0.0063048326 0.056609821 0.41706645
-0.005936591 0.05660335 0.41701958
-0.0055679763 0.05659223 0.41693836
-0.0051986282 0.056571566 0.41678673
-0.0048301616 0.056558084 0.416688
-0.0044605052 0.056527305 0.41646174
-0.0040934053 0.056526326 0.41645491
-0.0037257243 0.056516346 0.41638172
-0.0033578163 0.056500364 0.41626424
-0.0029901732 0.056485489 0.41615477
-0.0026235767 0.056488991 0.4161807
-0.002254945 0.056442697 0.41583967
-0.0018884549 0.056442462 0.41583782
-0.001521302 0.056417547 0.41565412
-0.0011546633 0.056401972 0.41553915
-0.00078842789 0.056400798 0.41553023
-0.00042204146 0.056377493 0.41535813
-5.5959674e-05 0.056356601 0.41520378
0.00030992931 0.0563499 0.41515383
0.00067554583 0.056327693 0.41498965
0.0010411297 0.0563193 0.41492712
0.00140701 0.056327116 0.41498393
0.0017719296 0.056301169 0.41479191
0.0021362193 0.056267492 0.41454291
0.0025017476 0.056271505 0.41457143
0.0028661832 0.056253042 0.41443431
0.0032310651 0.056246512 0.41438505
0.0035951778 0.056229267 0.41425678
0.0039621233 0.056255423 0.41444811
0.0043275664 0.05625762 0.41446292
-0.054152101 0.05905617 0.4315384
-0.053751074 0.059034072 0.43138748
-0.053348899 0.059010386 0.43122488
-0.05295714 0.058997966 0.43114451
-0.052562617 0.058982272 0.43104014
-0.052181549 0.058981553 0.43104511
-0.051779691 0.058957145 0.43087691
-0.051392499 0.05894921 0.43082902
-0.050982408 0.058914687 0.43058673
-0.050595101 0.058906179 0.43053448
-0.050195429 0.058883037 0.43037525
-0.04980801 0.058874022 0.43031916
-0.049405232 0.058846574 0.43012828
-0.049013026 0.058831405 0.43002701
-0.048612211 0.05880557 0.42984775
-0.048239861 0.058814038 0.42991915
-0.047838442 0.058786929 0.42973042
-0.04744048 0.058763653 0.4295696
-0.047052652 0.058752667 0.42949855
-0.046649244 0.058721893 0.42928278
-0.046265479 0.058715541 0.42924544
-0.045869067 0.058692902 0.42908901
-0.045479458 0.058678661 0.42899388
-0.045092348 0.058667436 0.42892069
-0.044688284 0.058633786 0.42868343
-0.044313658 0.058638509 0.4287267
-0.043907307 0.058600962 0.42846087
-0.04352133 0.058590207 0.4283908
-0.043128196 0.058569543 0.42824823
-0.042747725 0.058565859 0.42822975
-0.042353123 0.058542572 0.4280678
-0.041967139 0.058530897 0.4279907
-0.041583318 0.058522046 0.42793417
-0.041205291 0.058521267 0.42793664
-0.040825017 0.058517255 0.4279153
-0.040482167 0.058567304 0.42828929
-0.040127691 0.058601324 0.42854601
-0.0092694601 0.057126924 0.4181374
-0.0088984054 0.057110656 0.4180198
-0.0085297087 0.057108775 0.4180074
-0.0081590256 0.057092838 0.41789204
-0.0077896686 0.057085119 0.4178367
-0.007420186 0.057075668 0.41776863
-0.0070463759 0.057030205 0.4174369
-0.0066792537 0.057036847 0.41748649
-0.006308083 0.057007678 0.41727391
-0.0059399223 0.0570038 0.41724628
-0.005571072 0.056992352 0.41716319
-0.0052006021 0.056961555 0.41693842
-0.0048326864 0.056956172 0.41689962
-0.0044637658 0.056937102 0.4167605
-0.0040948973 0.056915343 0.41660163
-0.0037276554 0.056914143 0.41659313
-0.0033586698 0.056883149 0.41636655
-0.0029919057 0.056886796 0.41639343
-0.0026234314 0.056854412 0.4161565
-0.0022568174 0.056858387 0.41618559
-0.0018893481 0.056838188 0.41603768
-0.0015224621 0.056830056 0.41597795
-0.0011551653 0.056796573 0.41573265
-0.00078847044 0.056775361 0.41557711
-0.00042223686 0.056779452 0.41560668
-5.5926212e-05 0.05675932 0.41545886
0.00031008618 0.056732062 0.4152588
0.00067599857 0.056725878 0.41521296
0.0010420844 0.056733463 0.4152678
0.0014075796 0.056713291 0.41511932
0.0017728183 0.056693222 0.41497159
0.0021373958 0.056662478 0.41474563
0.002502952 0.056662858 0.41474742
0.0028672048 0.056637391 0.4145599
0.0032326009 0.056637697 0.41456097
0.0035976341 0.056632221 0.4145197
0.0039627971 0.056629606 0.41449919
0.004328948 0.056640357 0.4145765
-0.054165754 0.059452511 0.43163565
-0.053787723 0.059455797 0.43167004
-0.053399399 0.059447665 0.43162149
-0.053001009 0.059428133 0.43149009
-0.05259807 0.059403189 0.43131927
-0.05219147 0.059373707 0.43111548
-0.05180262 0.05936414 0.43105617
-0.051434517 0.059378382 0.43116969
-0.051008321 0.05932527 0.43079403
-0.050601449 0.059294008 0.43057692
-0.050219033 0.059291143 0.43056601
-0.049820878 0.059269521 0.43041876
-0.049427327 0.059253071 0.43030906
-0.049031846 0.059234045 0.43018052
-0.048649952 0.059231263 0.43016988
-0.048253473 0.059210543 0.43002889
-0.047855332 0.059187435 0.42987049
-0.047452126 0.059157651 0.42966351
-0.047077138 0.05916284 0.42971048
-0.046671804 0.059129678 0.42947879
-0.046293784 0.059130862 0.42949653
-0.045900367 0.059112232 0.42937022
-0.045497749 0.059081346 0.42915484
-0.045108393 0.059067305 0.42906177
-0.044716556 0.059049755 0.4289431
-0.044332616 0.059042424 0.42889857
-0.043940384 0.059023831 0.42877212
-0.043538783 0.058992222 0.42855108
-0.043157861 0.05898831 0.42853123
-0.042767022 0.058970671 0.42841145
-0.042383373 0.05896271 0.42836204
-0.041984919 0.058933835 0.42816049
-0.041600179 0.058923852 0.42809618
-0.041225508 0.058928087 0.42813507
-0.0408516 0.058933493 0.42818239
-0.040491719 0.058959439 0.42837888
-0.040141162 0.058999568 0.42867833
-0.0092723295 0.057513971 0.41825768
-0.0089039262 0.05751548 0.41827014
-0.0085313702 0.057489149 0.41808003
-0.0081631737 0.057491153 0.41809586
-0.0077935616 0.057482895 0.418037
-0.0074211727 0.057452336 0.41781586
-0.0070531797 0.057454389 0.41783184
-0.0066817258 0.057426937 0.41763315
-0.0063118669 0.057410784 0.41751653
-0.0059420145 0.057392709 0.41738591
-0.0055727656 0.057378463 0.41728303
-0.0052041863 0.057369586 0.4172191
-0.0048344363 0.057345476 0.41704434
-0.0044664401 0.057339933 0.4170045
-0.0040969527 0.057312533 0.41680562
-0.0037283259 0.057292961 0.41666368
-0.0033610528 0.057292204 0.41665837
-0.0029926626 0.05726989 0.41649628
-0.0026244766 0.057245798 0.41632116
-0.0022573986 0.057241987 0.41629344
-0.0018902194 0.057233639 0.41623271
-0.0015228725 0.057214994 0.41609696
-0.0011556186 0.057189148 0.41590875
-0.00078904739 0.057188798 0.41590589
-0.00042236145 0.057172362 0.41578597
-5.5882883e-05 0.057152975 0.41564453
0.00031038144 0.057139818 0.41554826
0.00067634525 0.057115484 0.41537073
0.0010425017 0.057118773 0.41539395
0.0014081107 0.057098135 0.41524309
0.0017738007 0.057088606 0.41517293
0.0021388954 0.057066441 0.41501084
0.0025042952 0.057057694 0.4149462
0.0028685636 0.05702867 0.41473404
0.0032340342 0.0570274 0.41472363
0.0035993126 0.057023339 0.41469285
0.003964256 0.057015195 0.41463232
0.0043305433 0.057026125 0.41471043
0.0047012796 0.057089366 0.41516885
-0.054199599 0.059871346 0.43189371
-0.053795855 0.059846308 0.43172362
-0.053410344 0.059841346 0.43169829
-0.053013351 0.059823357 0.4315789
-0.052637398 0.059829023 0.4316301
-0.052218668 0.059785798 0.43132851
-0.051830765 0.059777483 0.43127868
-0.051448677 0.059775811 0.43127671
-0.051034186 0.059736185 0.43100083
-0.05063431 0.059713189 0.43084487
-0.050238043 0.059694152 0.43071738
-0.04984726 0.059681382 0.43063501
-0.049452681 0.05966384 0.43051815
-0.0490552 0.059642497 0.43037379
-0.048668552 0.059634093 0.43032274
-0.048275627 0.05961781 0.4302147
-0.047863372 0.059577204 0.42993113
-0.047482401 0.059575204 0.42992601
-0.047088731 0.05955711 0.42980468
-0.046697065 0.059541274 0.4296996
-0.046319537 0.059543364 0.4297238
-0.045923542 0.059521545 0.42957538
-0.04554043 0.059516206 0.42954579
-0.045119621 0.059461098 0.42915693
-0.044743601 0.059464589 0.4291909
-0.044344202 0.059436787 0.42899901
-0.043951258 0.059417248 0.42886662
-0.043565743 0.059407491 0.42880479
-0.043180566 0.059398036 0.42874503
-0.042782586 0.059370641 0.42855573
-0.042380653 0.059337236 0.42832294
-0.042013153 0.059351861 0.42843679
-0.041611396 0.059317924 0.42820001
-0.04123272 0.059316572 0.42819837
-0.040856093 0.059318163 0.42821789
-0.040516645 0.059374277 0.42863095
-0.040158376 0.059403598 0.42885056
-0.0092782471 0.057920277 0.41851541
-0.0089078732 0.057910547 0.41844651
-0.0085356273 0.057887286 0.4182798
-0.0081656277 0.057877831 0.41821277
-0.0077936556 0.057852857 0.41803348
-0.0074238363 0.05784218 0.41795743
-0.0070537538 0.057828233 0.41785771
-0.0066840416 0.057815954 0.41776994
-0.0063155745 0.057813644 0.41775414
-0.0059449421 0.057790004 0.41758415
-0.0055748215 0.057768557 0.41742986
-0.0052057393 0.057755612 0.41733694
-0.0048371903 0.057747047 0.41727567
-0.0044682999 0.05773269 0.41717237
-0.0040984079 0.057701655 0.41694853
-0.0037310191 0.057703219 0.41696018
-0.0033621662 0.057680026 0.41679281
-0.0029947653 0.057679113 0.41678637
-0.0026267164 0.057663731 0.41667533
-0.0022578982 0.057623733 0.41638631
-0.0018903088 0.057605658 0.41625565
-0.0015233912 0.057604294 0.41624567
-0.0011562376 0.057590336 0.41614455
-0.00078911328 0.057565589 0.41596547
-0.0004224758 0.057564281 0.4159556
-5.5832214e-05 0.057539962 0.41577941
0.00031052018 0.057519 0.41562742
0.00067681115 0.057515476 0.41560131
0.0010427628 0.057495687 0.41545764
0.0014086775 0.057484657 0.4153772
0.001774155 0.057464004 0.41522712
0.0021404615 0.057472669 0.41528875
0.0025050538 0.057439484 0.41504794
0.0028707171 0.057436168 0.41502291
0.0032352824 0.057414111 0.41486239
0.0036001054 0.057400648 0.41476384
0.003964873 0.057388842 0.41467723
0.0043316795 0.057406053 0.41480017
0.0046992502 0.057429921 0.41497117
0.0050693573 0.057479091 0.4153249
-0.054590277 0.060263455 0.43194604
-0.054196361 0.060249433 0.43185613
-0.053845085 0.060282949 0.43210697
-0.053443201 0.06025989 0.43195212
-0.053041052 0.060236201 0.43179271
-0.05265677 0.060232606 0.43177721
-0.052254483 0.060208201 0.43161255
-0.051853728 0.060185231 0.43145803
-0.051463913 0.0601747 0.43139267
-0.051063333 0.06015135 0.43123522
-0.050668042 0.060133912 0.43112019
-0.05027869 0.060123324 0.43105415
-0.049880516 0.060101938 0.43091059
-0.049482692 0.060080647 0.43076766
-0.04908026 0.060053397 0.4305819
-0.048687249 0.060037337 0.43047631
-0.04830128 0.060029771 0.43043157
-0.04790666 0.060011253 0.43030819
-0.047516335 0.059997868 0.43022153
-0.047119532 0.059976008 0.4300741
-0.046709385 0.059936684 0.42980126
-0.046336088 0.059944388 0.42986563
-0.045940567 0.059923224 0.42972291
-0.045546688 0.059903879 0.42959312
-0.045145303 0.059874244 0.42938951
-0.044756211 0.05986055 0.4293001
-0.044359151 0.059835885 0.42913193
-0.043985251 0.059842303 0.42918661
-0.043586306 0.059814461 0.42899552
-0.043184489 0.059782162 0.42877233
-0.042801809 0.059776004 0.4287366
-0.042419922 0.059770867 0.42870811
-0.042025831 0.059748281 0.42855439
-0.041643027 0.059741493 0.42851385
-0.041256916 0.05972977 0.42843792
-0.040887784 0.059742663 0.42853841
-0.040508058 0.05974016 0.4285284
-0.040169563 0.059798993 0.42895839
-0.0092826961 0.058317855 0.41870692
-0.0089110024 0.058300596 0.41858441
-0.0085411211 0.058294233 0.41854006
-0.0081710434 0.058285873 0.41848135
-0.0078008464 0.058275856 0.41841057
-0.0074280142 0.058244176 0.41818422
-0.0070594815 0.058244664 0.41818878
-0.0066851289 0.058194544 0.41782993
-0.0063162073 0.058188621 0.4177883
-0.0059475764 0.058184821 0.41776177
-0.0055771675 0.058161978 0.41759849
-0.005207161 0.058140397 0.41744417
-0.0048392215 0.058140382 0.41744465
-0.0044697928 0.058121011 0.41730601
-0.0041012503 0.058110718 0.41723251
-0.0037318657 0.058085296 0.41705036
-0.0033639513 0.058079723 0.41701055
-0.0029958508 0.058069166 0.41693494
-0.002628136 0.0580642 0.41689938
-0.0022593902 0.058031149 0.41666207
-0.0018917635 0.058019619 0.41657922
-0.0015240755 0.058000192 0.41643959
-0.0011570145 0.057999913 0.41643739
-0.00078965642 0.057977583 0.41627675
-0.00042264603 0.057964262 0.4161807
-5.5794819e-05 0.057941522 0.41601697
0.00031077577 0.057920039 0.4158622
0.00067720277 0.057909489 0.41578582
0.0010432593 0.057885773 0.41561484
0.001409122 0.057866402 0.41547501
0.0017752289 0.057862964 0.4154495
0.002141254 0.057858486 0.41541639
0.0025062105 0.05783065 0.41521552
0.0028715176 0.057816949 0.41511607
0.0032371653 0.057812419 0.4150824
0.0036022335 0.057799503 0.41498843
0.0039666262 0.057779141 0.41484088
0.0043353019 0.057819314 0.4151279
0.0047044652 0.057859235 0.41541305
0.0050709718 0.057863064 0.41543901
0.0054379986 0.057871912 0.41550085
-0.054591708 0.060646798 0.43194559
-0.054229155 0.06066779 0.43210569
-0.053869668 0.06069253 0.43229246
-0.053460572 0.060661335 0.43208072
-0.053077683 0.060659651 0.43207908
-0.052671552 0.060631178 0.43188658
-0.05227137 0.060609192 0.43174022
-0.051871605 0.06058738 0.431595
-0.051498689 0.06059682 0.43167236
-0.051094964 0.060569901 0.43149057
-0.050696433 0.060548771 0.43134999
-0.050294384 0.060523078 0.43117684
-0.049907967 0.060515963 0.43113592
-0.049497575 0.06047944 0.43088543
-0.049125288 0.060489275 0.43096513
-0.048701633 0.060435515 0.4305917
-0.04832584 0.060440771 0.43063864
-0.04792995 0.060420785 0.4305056
-0.047520593 0.060383353 0.43024826
-0.047143053 0.060386088 0.43027702
-0.046740804 0.060356952 0.4300786
-0.046353664 0.060347024 0.43001691
-0.045955773 0.060322803 0.42985335
-0.045569006 0.060312912 0.42979184
-0.045166049 0.060281247 0.42957509
-0.044780541 0.06027253 0.42952177
-0.044382267 0.060246333 0.42934379
-0.043994736 0.060234398 0.42926741
-0.043603409 0.060217012 0.42915204
-0.04321276 0.06020027 0.42904127
-0.042828567 0.060192306 0.42899293
-0.042423796 0.060155023 0.42873552
-0.042050343 0.060161874 0.4287926
-0.0416595 0.060143743 0.42867157
-0.041277058 0.060137525 0.42863536
-0.040887687 0.060121004 0.42852566
-0.040541627 0.060168445 0.42887181
-0.040173739 0.060184095 0.4289912
-0.0092868479 0.05871392 0.41888496
-0.0089144632 0.058693096 0.41873786
-0.0085452907 0.05869256 0.41873536
-0.0081744874 0.058680259 0.4186489
-0.0078016827 0.058651764 0.41844675
-0.0074325521 0.058649432 0.41843125
-0.0070620067 0.058635108 0.4183301
-0.0066917432 0.05862169 0.4182353
-0.0063195419 0.058588736 0.41800109
-0.0059511866 0.058589578 0.41800788
-0.0055807699 0.058568902 0.41786107
-0.0052114739 0.058557887 0.41778317
-0.0048399316 0.058518063 0.41749957
-0.0044722594 0.058522325 0.41753045
-0.0041029942 0.058504649 0.41740474
-0.0037337819 0.058484305 0.41725999
-0.0033642687 0.058454327 0.41704631
-0.0029966477 0.058453888 0.41704336
-0.0026284216 0.058439888 0.41694358
-0.002260461 0.058428224 0.41686031
-0.0018922886 0.058405485 0.41669807
-0.0015250096 0.058406048 0.41670194
-0.001157331 0.058386825 0.41656455
-0.00079006451 0.058380224 0.41651714
-0.00042288011 0.058373548 0.41646916
-5.5758814e-05 0.058345538 0.41626886
0.00031104963 0.058324844 0.41612065
0.0006778182 0.058323074 0.41610739
0.001044192 0.058300469 0.41594547
0.0014101345 0.058271784 0.41574001
0.0017756801 0.0582419 0.41552597
0.0021415751 0.058231715 0.41545239
0.0025074498 0.058224037 0.41539657
0.0028738126 0.058228184 0.41542512
0.0032396605 0.058222137 0.41538078
0.0036040917 0.058194436 0.41518188
0.0039692889 0.058183063 0.41509944
0.0043376195 0.058215655 0.41533056
0.0047039804 0.058218792 0.41535148
0.0050712856 0.058232315 0.4154464
0.0054413895 0.058273986 0.41574207
-0.054250076 0.061073236 0.43226048
-0.053885333 0.061092351 0.43240628
-0.053497698 0.061085589 0.43236893
-0.053084943 0.061049845 0.43212628
-0.052696194 0.061041396 0.43207681
-0.052299414 0.061023459 0.43196005
-0.051909447 0.061013248 0.43189794
-0.051516078 0.060998872 0.43180627
-0.051124115 0.060985968 0.43172488
-0.050720591 0.060958959 0.43154368
-0.050306797 0.06091911 0.4312714
-0.049918853 0.060910203 0.43121812
-0.049534962 0.060906131 0.43119904
-0.0491389 0.060886923 0.43107268
-0.048738599 0.06086212 0.43090665
-0.048341338 0.060840767 0.43076488
-0.047944557 0.060819663 0.43062493
-0.047562048 0.060816485 0.43061176
-0.04718297 0.060817674 0.43062943
-0.046765491 0.060768988 0.43029389
-0.046372693 0.060751844 0.43018156
-0.045995798 0.060755417 0.4302159
-0.045588948 0.060719147 0.42996806
-0.045203019 0.060710378 0.4299148
-0.044807885 0.060688991 0.42977217
-0.044403084 0.060654037 0.42953336
-0.044004124 0.060626522 0.42934716
-0.043618694 0.060617335 0.42929068
-0.043231923 0.060606111 0.42921963
-0.042845856 0.060595684 0.42915425
-0.042452529 0.060574718 0.42901406
-0.042058017 0.060551662 0.42885906
-0.04167673 0.060547404 0.42883709
-0.04129139 0.060537122 0.42877236
-0.04092101 0.06054879 0.42886308
-0.040539265 0.060543701 0.428835
-0.040181648 0.060574897 0.42906386
-0.0089179324 0.059085961 0.41889167
-0.0085487552 0.059086394 0.41889608
-0.0081765298 0.059064858 0.41874465
-0.0078080017 0.059069246 0.41877699
-0.0074344515 0.059034206 0.41852966
-0.0070642377 0.059023377 0.41845396
-0.0066952226 0.059021942 0.41844469
-0.0063227993 0.058988534 0.41820875
-0.005953175 0.058978733 0.41814005
-0.0055836621 0.058968809 0.41807044
-0.0052135712 0.058950961 0.41794452
-0.0048436704 0.05893271 0.41781572
-0.0044738525 0.058912568 0.41767338
-0.0041038478 0.058886126 0.41748634
-0.0037350976 0.058874268 0.41740257
-0.0033657593 0.058849528 0.41722742
-0.0029977215 0.058844261 0.41719025
-0.0026292682 0.058828238 0.41707677
-0.0022606396 0.058802459 0.41689399
-0.0018930722 0.058799639 0.41687396
-0.0015252559 0.058785897 0.41677633
-0.0011578846 0.058786049 0.41677719
-0.00079022616 0.058765016 0.41662773
-0.00042296454 0.058762655 0.41661066
-5.5716107e-05 0.058743548 0.41647473
0.00031121794 0.058710095 0.41623703
0.00067798939 0.058698721 0.41615579
0.0010445956 0.058686037 0.41606513
0.0014111272 0.05867682 0.415999
0.0017765326 0.058634214 0.41569611
0.0021426405 0.058625396 0.41563269
0.0025092149 0.058630038 0.41566458
0.0028746708 0.058610681 0.41552624
0.0032397164 0.058588274 0.41536623
0.003604979 0.058573939 0.41526335
0.0039717751 0.058584858 0.41533944
0.0043386328 0.058594756 0.41540819
0.004703186 0.058574408 0.41526252
0.0050726868 0.058614165 0.41554278
-0.054285958 0.061495934 0.43253449
-0.053921312 0.061515562 0.43268308
-0.053514238 0.061486721 0.43249065
-0.053128019 0.061481602 0.43246499
-0.052730341 0.061463047 0.43234482
-0.052320533 0.061429985 0.4321225
-0.051932763 0.061422504 0.43208003
-0.051531687 0.061399058 0.43192518
-0.051149495 0.061397929 0.43192723
-0.050739832 0.06136357 0.43169543
-0.05033572 0.061335441 0.43150741
-0.049943518 0.061321519 0.43141922
-0.049541138 0.061294779 0.43124086
-0.049155608 0.061288651 0.43120733
-0.04875185 0.061259516 0.43101189
-0.048373848 0.061262537 0.43104264
-0.047980484 0.061246004 0.43093571
-0.047579497 0.06121939 0.43075782
-0.047175497 0.061188444 0.43054932
-0.046799865 0.061194096 0.43059823
-0.046380449 0.061142113 0.43024158
-0.046014681 0.061160587 0.43038058
-0.04560259 0.06111728 0.43008476
-0.045223609 0.061117999 0.43009871
-0.044829693 0.061098378 0.42996943
-0.044445213 0.06109139 0.42992896
-0.044041604 0.061057758 0.42970094
-0.04363041 0.061012939 0.42939407
-0.043250982 0.061012141 0.42939699
-0.042857133 0.060990814 0.42925528
-0.042458247 0.06096188 0.42905995
-0.04208881 0.060975078 0.42916113
-0.041691605 0.060947929 0.42897823
-0.041299626 0.060927995 0.42884603
-0.040927898 0.060937844 0.42892337
-0.040549546 0.060937922 0.42893189
-0.040195301 0.060974568 0.42919776
-0.039841428 0.061012484 0.42947245
-0.0089223618 0.059485506 0.41909042
-0.0085510276 0.059472233 0.41899827
-0.0081829224 0.059481248 0.41906306
-0.0078106658 0.059459507 0.41891107
-0.0074392632 0.059442449 0.41879198
-0.0070691896 0.059434768 0.41873896
-0.0066973818 0.059410878 0.41857153
-0.0063267248 0.059395 0.41846058
-0.0059564421 0.059380889 0.41836196
-0.005585412 0.059356987 0.41819426
-0.0052152951 0.059340097 0.41807592
-0.004845981 0.059330475 0.41800866
-0.0044760904 0.059311636 0.41787639
-0.0041064755 0.0592934 0.41774836
-0.0037373323 0.059279066 0.41764772
-0.0033683558 0.059264544 0.41754565
-0.0029991821 0.059242573 0.417391
-0.0026303604 0.059222389 0.41724887
-0.0022620775 0.059209757 0.41715991
-0.0018939005 0.059195545 0.41705969
-0.0015258961 0.059181198 0.41695851
-0.0011580341 0.059165046 0.41684449
-0.00079039251 0.059150409 0.41674107
-0.00042309391 0.059158381 0.4167968
-5.5647575e-05 0.059115071 0.41649118
0.00031143447 0.05910464 0.41641718
0.00067829818 0.059086438 0.41628832
0.0010450688 0.059075728 0.4162122
0.0014117475 0.059066724 0.41614795
0.0017779757 0.059046447 0.41600427
0.0021443053 0.05903589 0.41592896
0.0025094317 0.05900012 0.41567591
0.0028756175 0.058995184 0.41564009
0.0032412591 0.058981452 0.41554219
0.0036073427 0.058977742 0.41551474
0.0039730836 0.058969609 0.41545615
0.0043402989 0.058982883 0.41554826
0.0047067739 0.058984805 0.41556033
0.0050732256 0.058986176 0.41556844
-0.053926159 0.061903551 0.43270993
-0.053532701 0.061890312 0.43262783
-0.053141028 0.061878964 0.43255889
-0.052762143 0.061882451 0.43259355
-0.05235083 0.061847679 0.43236071
-0.051950913 0.061825953 0.43221903
-0.05155322 0.061806574 0.43209362
-0.051161136 0.061793689 0.43201351
-0.050772693 0.061785046 0.431963
-0.050365157 0.061752852 0.43174776
-0.049971748 0.061737619 0.43165106
-0.049578715 0.061722629 0.43155596
-0.049196493 0.061720964 0.43155396
-0.048783373 0.061680213 0.43127856
-0.048392162 0.061666742 0.43119383
-0.047994744 0.061645072 0.43105176
-0.047600064 0.061626613 0.43093199
-0.047204904 0.06160723 0.43080568
-0.046825089 0.061607722 0.43081832
-0.046440106 0.061601363 0.43078297
-0.046017073 0.061544016 0.43039095
-0.045634367 0.061540101 0.43037251
-0.04524501 0.061527077 0.43029028
-0.044844862 0.061499029 0.43010294
-0.044466395 0.061500493 0.4301219
-0.044067699 0.061473753 0.42994353
-0.043677047 0.061457884 0.4298411
-0.043286134 0.061441354 0.42973399
-0.042877696 0.061399452 0.42944932
-0.042495117 0.061394151 0.42942059
-0.042104721 0.061377369 0.42931142
-0.04171123 0.061355725 0.42916825
-0.041328266 0.06134931 0.42913148
-0.040961243 0.061366659 0.42926085
-0.040571351 0.06134975 0.42915055
-0.040200621 0.061361786 0.42924261
-0.039841689 0.061392214 0.42946333
-0.039474536 0.061410442 0.42959857
-0.0089260926 0.059880756 0.41925642
-0.0085550956 0.059870865 0.4191885
-0.0081846677 0.059864245 0.41914344
-0.0078126332 0.05984471 0.41900784
-0.007440683 0.0598239 0.41886327
-0.0070715942 0.059825145 0.41887298
-0.0067000049 0.059804205 0.41872734
-0.0063279448 0.059776373 0.41853335
-0.0059597613 0.059783988 0.41858751
-0.0055883871 0.059758499 0.41840973
-0.0052188132 0.059750032 0.41835108
-0.0048471428 0.059714451 0.41810247
-0.0044782972 0.05971067 0.41807655
-0.004108191 0.05968792 0.41791764
-0.0037382748 0.05966372 0.41774851
-0.0033700189 0.059663631 0.41774815
-0.0030008906 0.059646185 0.4176262
-0.0026317569 0.059623767 0.41746929
-0.0022631334 0.059607498 0.41735539
-0.0018944918 0.059584361 0.41719329
-0.0015271456 0.059600644 0.41730717
-0.0011586692 0.05956918 0.41708663
-0.00079049636 0.059531365 0.41682157
-0.00042318655 0.059549373 0.41694728
-5.56165e-05 0.059527241 0.41679183
0.00031170208 0.059509173 0.41666484
0.00067863334 0.059476666 0.41643658
0.0010456003 0.059468988 0.41638213
0.0014121111 0.05944607 0.4162209
0.0017787891 0.059438195 0.41616488
0.0021456536 0.059438154 0.41616365
0.0025120573 0.059427217 0.41608608
0.0028778005 0.05940542 0.41593242
0.0032425709 0.059370734 0.4156884
0.003608827 0.059367526 0.41566467
0.0039738235 0.059346084 0.41551325
0.0043409257 0.059357051 0.41558865
0.0047082012 0.059368499 0.41566727
0.0050764028 0.059389114 0.41581008
0.0054425546 0.059384588 0.41577673
-0.053930927 0.062291518 0.43273613
-0.053558253 0.062302422 0.43282229
-0.053166088 0.062290635 0.43275079
-0.052779976 0.062285833 0.43272769
-0.052381121 0.062265802 0.4325988
-0.051978901 0.062241457 0.43243977
-0.051573746 0.062213209 0.43225357
-0.051188532 0.062208775 0.4322328
-0.050793346 0.06219206 0.43212658
-0.050388586 0.06216329 0.43193653
-0.049994878 0.062147811 0.43183878
-0.04959581 0.062125389 0.43169266
-0.049210139 0.062119532 0.43166158
-0.048817296 0.062104452 0.43156639
-0.048401926 0.062060259 0.43126875
-0.04802436 0.062064223 0.43130568
-0.047621902 0.062035829 0.43111765
-0.047245607 0.06204132 0.43116507
-0.04683822 0.062005747 0.43092704
-0.046455655 0.062002722 0.43091512
-0.046049956 0.061968524 0.43068647
-0.045649234 0.06194051 0.43050069
-0.045266382 0.061936475 0.43048146
-0.044873074 0.061917935 0.43036145
-0.044474315 0.061891504 0.43018642
-0.044091493 0.061886981 0.43016362
-0.043691985 0.061858762 0.42997605
-0.043303654 0.061846003 0.42989588
-0.042909343 0.061824415 0.4297542
-0.042511258 0.061796956 0.42957166
-0.042120486 0.061779715 0.42946011
-0.041740719 0.06177846 0.42945957
-0.041349869 0.061760634 0.42934376
-0.040971242 0.061760902 0.42935359
-0.040600531 0.061773218 0.4294472
-0.040209245 0.061754167 0.42932263
-0.039856583 0.061794639 0.4296118
-0.0089303525 0.06027988 0.41944709
-0.0085574472 0.060257766 0.41929457
-0.008189017 0.06026658 0.41935715
-0.0078156954 0.060238533 0.41916317
-0.0074451924 0.060230505 0.41910842
-0.0070733801 0.060210507 0.41897032
-0.0067019435 0.060191676 0.41884023
-0.0063320375 0.060185209 0.41879612
-0.0059612538 0.060169082 0.41868469
-0.0055926647 0.060174447 0.41872275
-0.0052210526 0.060145743 0.41852367
-0.0048503494 0.060123965 0.41837266
-0.0044802278 0.060106389 0.41825086
-0.0041095228 0.060077153 0.41804779
-0.0037407058 0.060072478 0.4180156
-0.0033716022 0.060061682 0.41794074
-0.0030026494 0.06005127 0.41786844
-0.0026328836 0.060019419 0.41764688
-0.0022650578 0.060028642 0.41771105
-0.0018956009 0.059989825 0.41744092
-0.0015277675 0.059996102 0.4174844
-0.001158859 0.059950754 0.41716865
-0.00079076143 0.059924737 0.4169873
-0.00042331181 0.059945337 0.41713029
-5.5567343e-05 0.059921082 0.41696098
0.0003119004 0.059900753 0.41681904
0.00067915668 0.059883729 0.41669995
0.0010460748 0.059859283 0.41652912
0.0014128342 0.059840795 0.41639972
0.0017796771 0.059832733 0.41634277
0.0021465246 0.05982754 0.41630569
0.0025125821 0.059805039 0.41614813
0.0028789856 0.059795462 0.41608039
0.0032449777 0.059780456 0.41597483
0.0036103032 0.059757456 0.41581354
0.0039776792 0.059769504 0.41589603
0.0043423222 0.059741911 0.41570264
0.004710976 0.059769493 0.41589311
0.0050797374 0.059794344 0.41606444
0.0054455237 0.059783194 0.41598526
-0.053964734 0.06271331 0.43299523
-0.053596541 0.062729791 0.43311954
-0.053195134 0.062707372 0.43297505
-0.052805766 0.062698908 0.43292698
-0.052408092 0.062680408 0.43280938
-0.052014753 0.062666841 0.43272588
-0.051620349 0.062651791 0.43263203
-0.051228397 0.062639512 0.43255726
-0.050821144 0.062608205 0.43235096
-0.050408807 0.06257011 0.43209767
-0.050014239 0.062553652 0.43199387
-0.049618907 0.062535994 0.43188155
-0.049230605 0.062526971 0.43182895
-0.048838869 0.062513426 0.43174493
-0.048434038 0.062482782 0.43154272
-0.048043493 0.062470213 0.43146533
-0.047647551 0.062450387 0.43133768
-0.047261067 0.062442724 0.43129402
-0.046856575 0.062410962 0.4310838
-0.046471201 0.062404342 0.43104717
-0.04607299 0.062380243 0.43088973
-0.045681357 0.062364724 0.43079147
-0.045300543 0.062363837 0.43079421
-0.044893533 0.062326562 0.43054554
-0.044511784 0.062324025 0.43053672
-0.044099435 0.062278233 0.43022901
-0.043709852 0.062264066 0.43013975
-0.043308754 0.062233124 0.42993441
-0.042926271 0.062228605 0.42991161
-0.042543754 0.062223963 0.42988795
-0.042142149 0.062191077 0.42966893
-0.041748855 0.062169962 0.42953122
-0.041359901 0.062154979 0.42943582
-0.040978383 0.062151 0.42941639
-0.040593427 0.062141683 0.42935994
-0.040219754 0.062149636 0.42942277
-0.039864253 0.062186085 0.4296824
-0.0089372052 0.060696993 0.41975957
-0.008564027 0.060674831 0.41960767
-0.0081923679 0.060661919 0.41951966
-0.0078221364 0.060658868 0.41949973
-0.0074487175 0.060629562 0.4192982
-0.0070749638 0.060594339 0.41905561
-0.00670595 0.060598068 0.41908237
-0.0063375183 0.060607813 0.41915062
-0.0059643779 0.06057094 0.41889647
-0.0055925441 0.060543362 0.41870639
-0.0052219317 0.060526039 0.41858724
-0.0048524011 0.060519576 0.41854313
-0.0044815927 0.060494814 0.41837233
-0.004112618 0.060492575 0.41835731
-0.0037424031 0.060469884 0.41820064
-0.0033728573 0.060454231 0.41809264
-0.0030030839 0.060430162 0.41792637
-0.0026348094 0.060433745 0.41795123
-0.0022651965 0.060402829 0.41773742
-0.0018965628 0.060391095 0.41765618
-0.0015282569 0.06038668 0.41762552
-0.001159669 0.060364809 0.41747403
-0.00079104933 0.060320202 0.41716525
-0.00042342389 0.060339857 0.41730079
-5.5497927e-05 0.060293797 0.41698179
0.00031210261 0.060293287 0.4169777
0.00067953562 0.060278423 0.41687429
0.0010467242 0.060259901 0.41674551
0.0014135569 0.06023581 0.41657811
0.0017804219 0.060222737 0.41648689
0.0021476056 0.060223062 0.41648817
0.0025135828 0.060194377 0.41628882
0.0028803942 0.060190443 0.41626048
0.0032470054 0.060183667 0.41621247
0.0036130154 0.060168251 0.41610461
0.0039787409 0.060151368 0.41598651
0.0043437462 0.060127355 0.41581908
0.0047126058 0.060156286 0.41601765
0.0050825854 0.060194284 0.4162789
0.0054520131 0.060221069 0.41646248
-0.053977191 0.063110605 0.43308297
-0.053607054 0.063125022 0.43319228
-0.053226992 0.06312786 0.43322214
-0.052827954 0.063108072 0.43309665
-0.052439634 0.063100897 0.43305761
-0.052031897 0.063070081 0.43285629
-0.051653709 0.063074894 0.43289939
-0.051242489 0.063039139 0.43266401
-0.050847549 0.063023031 0.43256336
-0.050437931 0.062988348 0.43233514
-0.050051935 0.062982857 0.43230721
-0.049654659 0.062962987 0.43218052
-0.04924427 0.062926047 0.43193659
-0.048858039 0.062919647 0.4319022
-0.048465732 0.062905252 0.43181285
-0.048063785 0.062878028 0.43163538
-0.047683965 0.062879547 0.43165511
-0.047284652 0.062855177 0.43149707
-0.04687481 0.062816299 0.43123931
-0.046481349 0.062798925 0.43112916
-0.046099275 0.062796764 0.43112335
-0.045709617 0.062784165 0.43104574
-0.045316849 0.062767044 0.43093708
-0.044914816 0.062736675 0.43073741
-0.044527423 0.062726445 0.4306758
-0.044135187 0.062709123 0.4305656
-0.043730035 0.06267301 0.43032616
-0.043332651 0.062647499 0.43015948
-0.042949367 0.062642097 0.43013078
-0.04255493 0.062620185 0.42998868
-0.042165659 0.06260556 0.42989644
-0.041777063 0.062591657 0.42980921
-0.041384865 0.062572084 0.42968285
-0.040997017 0.062558763 0.42959946
-0.040604774 0.062538438 0.42946783
-0.040246584 0.062570676 0.42969707
-0.039872915 0.062579229 0.42976359
-0.039505657 0.062598109 0.42990097
-0.0093328459 0.061235737 0.42090264
-0.0089391749 0.061081305 0.4198426
-0.008567946 0.061073508 0.41979039
-0.0081947753 0.061050542 0.41963375
-0.0078246426 0.061049115 0.41962516
-0.0074536139 0.061040208 0.41956502
-0.0070806993 0.061014127 0.4193868
-0.0067083174 0.060990021 0.41922206
-0.0063408674 0.061010562 0.41936409
-0.0059670834 0.060968928 0.41907877
-0.0055973083 0.060965471 0.4190557
-0.0052250442 0.060932506 0.41882977
-0.0048546284 0.060917724 0.41872874
-0.0044835433 0.060891431 0.41854846
-0.0041152039 0.060901057 0.41861501
-0.003746168 0.060901266 0.4186168
-0.0033742355 0.060849294 0.41825977
-0.0030052303 0.060843848 0.41822252
-0.0026359188 0.060829815 0.41812614
-0.0022661446 0.06079882 0.41791308
-0.0018969004 0.060772777 0.41773403
-0.0015285203 0.060768563 0.41770488
-0.0011600741 0.060758241 0.41763374
-0.00079168082 0.060742412 0.41752464
-0.00042341254 0.060717065 0.41734999
-5.5458699e-05 0.060700137 0.4172332
0.00031237642 0.060699914 0.41723114
0.0006800128 0.060682163 0.41710848
0.0010471706 0.060649127 0.41688073
0.0014141535 0.060625732 0.41671914
0.0017816634 0.060629908 0.416747
0.0021488718 0.060624141 0.41670641
0.0025151263 0.060597062 0.41651925
0.0028811127 0.060571238 0.41634071
0.00324773 0.060563013 0.41628295
0.0036141889 0.060553797 0.41621834
0.0039814794 0.060558908 0.41625217
0.004346949 0.060537804 0.41610572
0.0047155353 0.060559995 0.41625682
0.0050819064 0.060552593 0.41620433
-0.053637046 0.063543469 0.43342236
-0.053244792 0.06353204 0.43335474
-0.052846245 0.063512877 0.43323433
-0.05245436 0.0635015 0.43316695
-0.052053202 0.063478656 0.43302125
-0.051674359 0.063482881 0.43306014
-0.05128115 0.063469395 0.43297815
-0.050856799 0.063416876 0.43262976
-0.050479352 0.063422486 0.43267789
-0.050066989 0.063383982 0.43242499
-0.049675539 0.063371561 0.43234998
-0.049279254 0.063352749 0.43223116
-0.04888824 0.063340455 0.43215689
-0.048483282 0.063309766 0.43195698
-0.048099753 0.063306801 0.4319461
-0.047686767 0.063264705 0.43166822
-0.047307819 0.063267447 0.43169618
-0.046912286 0.063247882 0.43157184
-0.046509676 0.063218378 0.43137959
-0.046115726 0.063200258 0.43126497
-0.04572225 0.063182481 0.43115258
-0.045326769 0.063161626 0.43101913
-0.044935398 0.063146181 0.43092254
-0.044550411 0.063139535 0.43088585
-0.044151869 0.063113399 0.4307161
-0.043741249 0.063069373 0.43042424
-0.043363769 0.063072801 0.4304561
-0.042957541 0.063034102 0.4302004
-0.042574126 0.063028477 0.43017039
-0.042176396 0.063001387 0.42999366
-0.041793305 0.062995858 0.42996413
-0.041392822 0.062963776 0.42975327
-0.041013096 0.062962964 0.42975575
-0.040622707 0.062945612 0.42964527
-0.040254612 0.062962815 0.42977053
-0.039876584 0.062964655 0.42979088
-0.039521012 0.063002333 0.43005583
-0.009335326 0.061623976 0.42100483
-0.0089464551 0.0615023 0.42017499
-0.0085715149 0.061470028 0.41995588
-0.0082001789 0.061461855 0.41990131
-0.0078292387 0.061456021 0.4198626
-0.0074561369 0.061431795 0.41969824
-0.007083578 0.06140976 0.41954872
-0.006713341 0.061406538 0.41952765
-0.0063427966 0.061399966 0.41948363
-0.0059695062 0.061364356 0.41924116
-0.0055977837 0.06134123 0.41908386
-0.0052278144 0.061335411 0.41904476
-0.0048565473 0.06131234 0.4188877
-0.0044863066 0.061299495 0.41880041
-0.0041157845 0.061280169 0.41866878
-0.0037458341 0.061266374 0.41857484
-0.0033761391 0.061254214 0.41849205
-0.0030060678 0.061231419 0.41833645
-0.0026372734 0.061231911 0.41833991
-0.0022680387 0.061220691 0.41826326
-0.0018986572 0.061200384 0.41812441
-0.0015295515 0.061181348 0.41799423
-0.0011602956 0.061142337 0.41772747
-0.00079198286 0.061139893 0.41771048
-0.0004236215 0.061126247 0.41761684
-5.5423003e-05 0.061111458 0.41751534
0.00031258911 0.061094977 0.41740221
0.00068041834 0.061079856 0.41729832
0.0010480852 0.061065864 0.41720203
0.0014154669 0.061046828 0.41707116
0.0017826161 0.061027665 0.41693938
0.0021497938 0.061015856 0.41685775
0.0025151146 0.060962468 0.41649202
0.0028827207 0.060971003 0.4165493
0.0032505719 0.060982212 0.41662467
0.0036158976 0.060948562 0.41639355
0.0039820611 0.060933925 0.41629225
0.0043485677 0.06092656 0.41624051
0.0047159102 0.060931142 0.41627032
0.0050875684 0.060986795 0.41664895
-0.053652298 0.063944779 0.43353322
-0.053265389 0.063939825 0.43351001
-0.052862573 0.063915558 0.43335581
-0.052473053 0.063907146 0.43330896
-0.052070312 0.063882396 0.43315122
-0.051689874 0.063884825 0.4331778
-0.051294375 0.063868545 0.43307742
-0.050898429 0.063851468 0.43297154
-0.05048234 0.063808672 0.43269113
-0.05009922 0.063807212 0.43269098
-0.049708918 0.063796505 0.43262812
-0.049306974 0.063770577 0.43246192
-0.048901308 0.063739412 0.43226004
-0.048512075 0.063729323 0.43220112
-0.048115946 0.063709959 0.4320792
-0.047718637 0.063688703 0.43194434
-0.047332089 0.06368158 0.43190527
-0.046934418 0.063659266 0.43176308
-0.046545271 0.063648246 0.4316974
-0.046135146 0.06360811 0.43143421
-0.045746595 0.063597299 0.43136984
-0.045347918 0.063572116 0.4312079
-0.044951696 0.063549981 0.43106648
-0.044554602 0.063526228 0.4309141
-0.044166457 0.063514933 0.43084607
-0.043774888 0.063498467 0.43074295
-0.043371096 0.063463852 0.43051657
-0.042999893 0.063476704 0.43061218
-0.042596299 0.063441552 0.43038207
-0.042197324 0.063412718 0.43019471
-0.041813266 0.063405983 0.43015715
-0.041423481 0.063390359 0.43005925
-0.041037142 0.063379765 0.42999542
-0.040647212 0.063363381 0.42989218
-0.040260676 0.063352026 0.42982301
-0.039887033 0.063360922 0.4298912
-0.039525062 0.063388743 0.43008763
-0.03915251 0.063399941 0.43017128
-0.0093375724 0.062010869 0.42109641
-0.0089505054 0.061901573 0.42035565
-0.0085768495 0.061879601 0.42020783
-0.0082036778 0.061859306 0.42007121
-0.0078308592 0.061839875 0.41994047
-0.0074597416 0.061832622 0.41989234
-0.007087246 0.061812591 0.41975737
-0.0067153745 0.061796106 0.41964635
-0.0063451799 0.061794035 0.41963318
-0.0059732706 0.061773978 0.41949773
-0.0056008035 0.06174513 0.41930255
-0.0052314564 0.06174903 0.41932967
-0.0048592435 0.061717134 0.41911361
-0.0044878689 0.061691519 0.41894019
-0.0041185897 0.061692707 0.41894865
-0.0037475165 0.061664615 0.41875821
-0.0033772988 0.061646 0.41863206
-0.0030083968 0.061649807 0.41865802
-0.0026377619 0.061614193 0.41841626
-0.0022684545 0.061603066 0.41834074
-0.0018992466 0.061590862 0.41825777
-0.0015301141 0.06157583 0.41815552
-0.0011610609 0.061555479 0.41801709
-0.00079231412 0.061540026 0.41791189
-0.00042371335 0.061519001 0.41776872
-5.5365239e-05 0.061499402 0.41763517
0.00031286667 0.061503004 0.41765907
0.00068075629 0.061471764 0.41744629
0.00104866 0.061463244 0.41738775
0.001415981 0.061433848 0.41718739
0.0017838659 0.06143599 0.41720101
0.0021512886 0.061424185 0.41711992
0.0025179135 0.061396364 0.41692999
0.0028845386 0.061375622 0.41678807
0.0032515242 0.061366364 0.41672403
0.0036180587 0.061351333 0.4166207
0.0039844522 0.06133689 0.41652134
0.0043503381 0.061317727 0.41638979
0.0047180708 0.06132555 0.41644144
0.0050862818 0.061337996 0.41652441
-0.053289603 0.064352281 0.43369463
-0.052909207 0.064355358 0.43372568
-0.052512143 0.064338066 0.43361932
-0.052100729 0.064302802 0.43339181
-0.051700488 0.064280912 0.43325433
-0.05131501 0.064277194 0.43323922
-0.050924543 0.064267106 0.4331812
-0.050509118 0.064225152 0.43290821
-0.050131675 0.064231217 0.43295887
-0.049717143 0.064189494 0.43268725
-0.049315833 0.064164326 0.43252721
-0.048930909 0.064160243 0.43250924
-0.048536386 0.064143412 0.43240526
-0.048142951 0.06412778 0.43230924
-0.047739264 0.06409812 0.43211862
-0.047348186 0.064085051 0.43203977
-0.046948481 0.064059995 0.43188003
-0.04655873 0.064048231 0.43180978
-0.046151809 0.06401246 0.43157759
-0.045762524 0.064000756 0.43150762
-0.045373958 0.06398987 0.4314431
-0.044974431 0.063963212 0.43127212
-0.04459805 0.063969292 0.43132183
-0.044194113 0.06393563 0.43110347
-0.043795902 0.063909732 0.43093738
-0.043405727 0.063895196 0.43084788
-0.043014888 0.063879438 0.43075001
-0.042629771 0.063871965 0.4307079
-0.04222776 0.06383881 0.43049261
-0.041832406 0.063815214 0.43034163
-0.041435394 0.063788645 0.43017057
-0.041060731 0.063796297 0.4302302
-0.040658981 0.063761614 0.43000424
-0.040274121 0.063753024 0.42995417
-0.03989942 0.063760504 0.4300124
-0.039537132 0.063788153 0.4302066
-0.039157342 0.063787825 0.43021199
-0.038810559 0.06384179 0.43058357
-0.0093392804 0.062394354 0.42116368
-0.0089507364 0.06227462 0.4203569
-0.0085798334 0.062272586 0.4203445
-0.0082070492 0.062256109 0.42023456
-0.0078362385 0.062253751 0.42021981
-0.0074641043 0.062240131 0.420129
-0.0070906566 0.062213559 0.41995069
-0.0067193704 0.062204078 0.41988763
-0.0063475454 0.062188216 0.41978145
-0.0059755342 0.062168457 0.41964886
-0.0056030541 0.062140897 0.41946355
-0.0052345386 0.062156525 0.41956967
-0.0048615602 0.062117513 0.41930684
-0.0044916756 0.062114868 0.4192895
-0.0041202726 0.06208887 0.41911441
-0.0037487817 0.062056314 0.41889492
-0.0033791477 0.06205073 0.41885751
-0.0030095624 0.062044799 0.41881767
-0.0026388741 0.062011298 0.41859159
-0.002269316 0.061997797 0.41850045
-0.0018998993 0.061983686 0.41840509
-0.0015305289 0.06196465 0.41827649
-0.0011614593 0.0619496 0.41817468
-0.00079280295 0.061952904 0.41819665
-0.00042400305 0.061941024 0.41811609
-5.5313812e-05 0.061895255 0.41780668
0.00031310669 0.06190398 0.41786501
0.00068111194 0.061865512 0.41760474
0.0010491475 0.0618558 0.41753849
0.0014168504 0.061836593 0.41740805
0.0017846662 0.061829206 0.41735733
0.0021518501 0.061806187 0.41720101
0.0025189898 0.061788782 0.41708255
0.0028861654 0.061776578 0.41699904
0.003253208 0.061764594 0.41691703
0.003619655 0.061744884 0.41678271
0.0039858371 0.061724689 0.41664508
0.0043520667 0.06170857 0.41653487
0.0047228755 0.061754845 0.41684574
0.0050924141 0.061779004 0.41700727
-0.053294998 0.064742215 0.43372604
-0.052925341 0.064758509 0.43384543
-0.052530438 0.064743914 0.43375787
-0.052142173 0.06473735 0.43372402
-0.051741421 0.06471508 0.43358484
-0.051340908 0.064692765 0.43344533
-0.050930958 0.064658143 0.43322328
-0.050543919 0.064652309 0.43319398
-0.050147336 0.064634077 0.4330816
-0.049755726 0.064622022 0.43301052
-0.049348395 0.064589217 0.43280032
-0.048977006 0.064603299 0.43290421
-0.048546948 0.064539619 0.43248692
-0.048154376 0.06452515 0.43239933
-0.047782138 0.06453792 0.43249419
-0.047366343 0.064491585 0.43219295
-0.046977237 0.064481132 0.43213207
-0.046583015 0.064463437 0.43202254
-0.046189681 0.064446688 0.43191928
-0.045788798 0.064419039 0.43174291
-0.045404669 0.064414695 0.43172267
-0.045010999 0.06439662 0.43161029
-0.044621114 0.064383708 0.43153244
-0.044222981 0.06435857 0.43137255
-0.043816123 0.064320184 0.43112388
-0.043425195 0.064304717 0.43102863
-0.043040849 0.064298816 0.43099746
-0.042644564 0.06427481 0.4308449
-0.042244494 0.064244621 0.4306508
-0.041847304 0.064218298 0.43048248
-0.041465934 0.064215995 0.43047515
-0.041069012 0.064189345 0.43030453
-0.040677071 0.064170063 0.43018314
-0.040298883 0.064172305 0.43020606
-0.039911915 0.064160481 0.43013462
-0.039534781 0.0641644 0.43016857
-0.039174184 0.064195491 0.43038461
-0.038803492 0.064210489 0.43049273
-0.0093425568 0.062788524 0.42130157
-0.0089582391 0.062698595 0.42069963
-0.0085850302 0.06268201 0.42058966
-0.0082107997 0.062656127 0.42041728
-0.0078402963 0.062657587 0.42042825
-0.0074667637 0.06263379 0.42026973
-0.0070935804 0.062610596 0.42011511
-0.0067225578 0.062604979 0.42007834
-0.0063501881 0.062585428 0.41994804
