# .PCD v0.7 - Point Cloud Data file format
VERSION 0.7
FIELDS x y z
SIZE 4 4 4
TYPE F F F
COUNT 1 1 1
WIDTH 1401
HEIGHT 1
VIEWPOINT 0 0 0 1 0 0 0
POINTS 1401
DATA ascii
0.11367945 0.067297444 0.37751138
0.11398643 0.067280002 0.37739569
0.11433507 0.067287184 0.37741816
0.11464728 0.067272946 0.37732044
0.11494512 0.067250378 0.37717602
0.11526205 0.067239076 0.37709475
0.11561862 0.067250907 0.3771432
0.11589037 0.067213468 0.3769154
0.11617719 0.06718497 0.37673768
0.11653301 0.067196421 0.376784
0.11683729 0.067178153 0.37666368
0.11709011 0.067130506 0.37637866
0.11743321 0.067134738 0.37638447
0.11773796 0.067117088 0.37626758
0.1180505 0.06710396 0.37617606
0.11837531 0.067097865 0.37612396
0.11870198 0.067092851 0.37607795
0.11900162 0.06707263 0.3759467
0.1193404 0.067074522 0.37593937
0.11959593 0.067029752 0.37567046
0.11990656 0.067016028 0.3755756
0.12025558 0.067023769 0.37560105
0.12058898 0.067022786 0.37557757
0.12093163 0.067026928 0.37558284
0.12127281 0.067030251 0.3755835
0.1215963 0.067023791 0.37552932
0.12197761 0.067049161 0.37565351
0.12230419 0.067044377 0.37560874
0.12270572 0.067080602 0.37579367
0.12301278 0.067065127 0.37568897
0.12339031 0.067088045 0.37579936
0.084135786 0.069072507 0.38711759
0.084503539 0.069092214 0.38721246
0.084810391 0.069062166 0.38702846
0.085072331 0.06899593 0.38664165
0.085388996 0.068974435 0.38650551
0.085698232 0.068947136 0.38633686
0.086034477 0.068941697 0.38629064
0.086359933 0.06892769 0.38619637
0.086655639 0.068890139 0.38597018
0.086973965 0.068870798 0.38584602
0.087267898 0.06883236 0.38561481
0.087599821 0.068824083 0.38555253
0.087919295 0.068806127 0.38543597
0.088260561 0.068805292 0.38541532
0.088567145 0.068777524 0.3852438
0.088908277 0.068776712 0.38522318
0.089229181 0.068760298 0.38511521
0.089522474 0.068722837 0.38488925
0.089862101 0.068721078 0.38486326
0.090178199 0.068701409 0.38473693
0.090504602 0.068689711 0.38465521
0.090842389 0.068686709 0.38462216
0.091148108 0.068659574 0.38445392
0.091489211 0.068659194 0.38443547
0.091791324 0.06862966 0.38425377
0.092129365 0.068627119 0.38422316
0.092445001 0.068607956 0.38409951
0.092777327 0.06860128 0.38404572
0.09307801 0.068571351 0.38386166
0.093435995 0.068583697 0.38391423
0.093713216 0.06853687 0.38363564
0.094064027 0.068544023 0.38365909
0.094356611 0.068508841 0.38344562
0.094688825 0.06850259 0.38339397
0.095023036 0.068497807 0.38335061
0.09533865 0.068479717 0.38323265
0.095628105 0.068443023 0.38301066
0.095991075 0.068459019 0.38308343
0.09629605 0.068433687 0.38292491
0.096634537 0.068432271 0.38290021
0.096962281 0.068423294 0.38283312
0.097235106 0.068375751 0.3825503
0.097574934 0.068375483 0.38253191
0.097927913 0.068384394 0.3825649
0.098252684 0.068373628 0.38248777
0.09852159 0.068324193 0.38219428
0.098877847 0.068335466 0.38224033
0.099191949 0.068317629 0.38212356
0.099514745 0.068305872 0.3820408
0.099814445 0.068278395 0.38187012
0.1001256 0.068258934 0.38174415
0.10044864 0.068247661 0.38166401
0.10076671 0.068233103 0.38156548
0.10108278 0.068217292 0.38145995
0.10141002 0.068209097 0.38139701
0.10172847 0.068195067 0.38130137
0.10206638 0.068194143 0.38127896
0.10235382 0.06815961 0.38106862
0.10267274 0.068146184 0.38097635
0.10298316 0.068127237 0.38085315
0.10332941 0.068132035 0.38086265
0.10363598 0.068110719 0.38072622
0.10396045 0.068101279 0.38065609
0.10428439 0.068091556 0.38058436
0.10462036 0.068089709 0.3805567
0.10491041 0.068058088 0.38036257
0.10523065 0.068046205 0.38027871
0.10560172 0.068067148 0.38037837
0.10585298 0.068010978 0.38004699
0.10615994 0.067990854 0.37991706
0.1064466 0.067957886 0.37971535
0.10679176 0.067962348 0.37972283
0.10707546 0.0679278 0.37951231
0.10744397 0.067947105 0.37960264
0.10778359 0.067948081 0.37959051
0.10805111 0.067903742 0.37932521
0.10838608 0.067901917 0.37929747
0.10873428 0.067908384 0.37931597
0.10904773 0.067893162 0.37921336
0.10931569 0.067849807 0.37895355
0.10963577 0.067838967 0.37887537
0.10997206 0.067838199 0.37885335
0.11026871 0.067813046 0.37869528
0.11059492 0.067806177 0.37863919
0.11095855 0.067822218 0.37871113
0.11121933 0.067775488 0.37843245
0.11152517 0.067756422 0.37830827
0.11187597 0.067764699 0.37833673
0.11222439 0.067771494 0.3783569
0.11244605 0.067701913 0.37795073
0.11277548 0.067697458 0.37790805
0.1131245 0.067704745 0.37793094
0.11342339 0.067682073 0.37778661
0.11373642 0.067667954 0.37769002
0.11404835 0.067653254 0.37759015
0.11434393 0.06762898 0.37743685
0.11467101 0.067623422 0.377388
0.11499924 0.067618579 0.37734315
0.11532766 0.06761387 0.37729901
0.11564538 0.067602925 0.37722006
0.11595267 0.067585967 0.37710759
0.11628671 0.067584671 0.37708247
0.11661212 0.067578368 0.37702942
0.11698587 0.067600027 0.37713239
0.11722869 0.067546122 0.37681374
0.1174802 0.067497529 0.37652475
0.11780748 0.067492619 0.37647951
0.11805633 0.067442931 0.3761844
0.11841749 0.067457512 0.37624782
0.11876623 0.06746494 0.37627137
0.11905654 0.067439228 0.37611005
0.1193497 0.067415275 0.37595856
0.11965793 0.067399956 0.37585518
0.11995053 0.067375928 0.37570328
0.12029502 0.067381106 0.37571418
0.12060685 0.067368001 0.37562323
0.12094659 0.067370526 0.37561935
0.1212868 0.067373298 0.37561685
0.1216268 0.067375936 0.37561363
0.12196046 0.067375056 0.37559077
0.12229965 0.067377232 0.37558493
0.12267426 0.067398846 0.37568748
0.12298211 0.067383774 0.37558544
0.12339336 0.067425281 0.37579882
0.083831854 0.069449164 0.3873038
0.084210053 0.069477528 0.38744646
0.084522329 0.069451511 0.3872858
0.084844261 0.069433585 0.38717026
0.085122451 0.069380157 0.38685668
0.085391425 0.069319673 0.38650382
0.085724272 0.069311321 0.38644156
0.086057618 0.069303438 0.38638186
0.086335406 0.069251053 0.38607407
0.086661428 0.069237612 0.38598338
0.086999252 0.069233663 0.38594556
0.087322421 0.069218136 0.38584313
0.087641232 0.069199309 0.38572225
0.087995626 0.069208585 0.38575804
0.088280685 0.069163486 0.38549069
0.08859732 0.069143362 0.38536257
0.088917762 0.069126375 0.38525182
0.089253165 0.069121078 0.38520631
0.089560911 0.069094509 0.38504207
0.089923047 0.069109932 0.3851119
0.090212829 0.069069833 0.38487229
0.090550214 0.069066361 0.38483673
0.090874366 0.069052838 0.38474521
0.091228127 0.069061853 0.38477913
0.091527626 0.06902986 0.38458461
0.091825098 0.068996601 0.38438293
0.092156768 0.06898918 0.38432524
0.092454903 0.068956785 0.38412842
0.09280324 0.068961956 0.38414079
0.093116775 0.068941317 0.38400933
0.093449898 0.068935275 0.3839592
0.093792267 0.068936065 0.3839471
0.094124749 0.06892962 0.38389465
0.094414718 0.068892188 0.38366964
0.094735704 0.068877593 0.38357171
0.095063008 0.068867669 0.38349986
0.095359899 0.068835869 0.38330609
0.095704794 0.068838812 0.38330579
0.0960375 0.068833008 0.38325673
0.096341103 0.068806447 0.38309214
0.096636191 0.06877403 0.38289484
0.096997708 0.068788938 0.38296109
0.097326048 0.068780303 0.38289618
0.097636208 0.068758927 0.38276029
0.09796676 0.068751998 0.38270485
0.098265462 0.068722852 0.38252568
0.098582648 0.068706788 0.38241935
0.098906502 0.068695456 0.38233936
0.099187978 0.068654887 0.38209653
0.099531792 0.068657577 0.3820945
0.099848554 0.06864167 0.38198894
0.10017844 0.068634845 0.3819339
0.10050312 0.068624519 0.38185936
0.10078813 0.068587266 0.38163498
0.10111921 0.068581507 0.38158578
0.10146798 0.068587743 0.38160336
0.10177873 0.068568334 0.38147822
0.10210893 0.068562113 0.38142636
0.10244606 0.068560563 0.38140056
0.10271843 0.068515815 0.38113439
0.10307612 0.068528101 0.38118544
0.10337474 0.068501152 0.38101831
0.10366317 0.068467662 0.3808147
0.10401709 0.068477497 0.38085207
0.10433611 0.068464361 0.38076168
0.10464881 0.06844718 0.38064879
0.10491756 0.068401463 0.3803772
0.10528661 0.068421222 0.38046959
0.10557778 0.068390399 0.38028082
0.10590262 0.068381511 0.38021395
0.10621784 0.068366498 0.38011304
0.10649814 0.068329163 0.379888
0.10685448 0.068340704 0.3799347
0.10714405 0.068309598 0.37974426
0.10750002 0.068320885 0.3797895
0.10780237 0.068298139 0.3796455
0.10813381 0.068293914 0.37960443
0.10842711 0.068265699 0.37943003
0.10875767 0.068261035 0.37938651
0.10905036 0.068232715 0.37921149
0.10943466 0.068261705 0.37935501
0.10969304 0.068212211 0.37906235
0.11002795 0.068210468 0.37903497
0.11031435 0.068178758 0.37884113
0.11066833 0.068188883 0.3788797
0.11096736 0.068165183 0.37873036
0.11127788 0.068148658 0.37862086
0.11160664 0.068143383 0.37857381
0.11189859 0.068115726 0.37840244
0.11222387 0.068108469 0.37834436
0.11252189 0.068084747 0.3781949
0.11284378 0.068075582 0.37812623
0.11319067 0.068081498 0.37814128
0.11348578 0.068056338 0.37798378
0.11377408 0.068027236 0.37780437
0.1140473 0.067989334 0.37757608
0.11439527 0.067996077 0.37759572
0.1147172 0.06798736 0.37752947
0.1150426 0.067980729 0.37747484
0.11538325 0.067983128 0.37747037
0.11572602 0.067986757 0.37747264
0.11604631 0.067977205 0.37740174
0.11636142 0.067964666 0.37731427
0.11669846 0.067964979 0.37729815
0.1170592 0.067979068 0.37735844
0.11738601 0.067973405 0.37730914
0.11771445 0.067968719 0.37726521
0.11800713 0.067943484 0.37710723
0.11810608 0.067807153 0.3763327
0.11849309 0.067836516 0.37647778
0.11966968 0.06774205 0.37588194
0.12003315 0.06775789 0.37595195
0.12034069 0.067742154 0.37584674
0.120607 0.067703374 0.37561366
0.12096605 0.067716725 0.37566981
0.12130056 0.067716286 0.37564945
0.12162812 0.067711994 0.3756077
0.12195513 0.067707419 0.3755644
0.12232494 0.06772656 0.37565264
0.1226349 0.067712553 0.37555701
0.12298915 0.067723013 0.37559712
0.12331816 0.067719556 0.37555996
0.083573729 0.06986472 0.38770396
0.083858073 0.06981492 0.38741207
0.084220566 0.069830306 0.38748199
0.084517293 0.069791272 0.38724989
0.084836081 0.069770701 0.38712013
0.085125253 0.069726028 0.38685665
0.085417524 0.069684245 0.3866092
0.085745022 0.069671407 0.38652238
0.086039491 0.069631957 0.38628775
0.086392455 0.069639973 0.38631651
0.086712107 0.069621161 0.38619637
0.087019458 0.069592677 0.38602254
0.087355942 0.069587626 0.38597867
0.087668218 0.069563404 0.38582844
0.087990955 0.069547616 0.38572496
0.088318482 0.069535747 0.38564315
0.088668004 0.069541216 0.38565749
0.088978708 0.069516301 0.38550335
0.089320116 0.069515482 0.38548273
0.089622542 0.06948445 0.38529456
0.089933231 0.069460034 0.38514307
0.090258539 0.069447048 0.38505489
0.09058769 0.069437109 0.3849836
0.090915166 0.069425955 0.38490558
0.091247417 0.069418535 0.38484812
0.091548659 0.069387659 0.38466066
0.091894321 0.06939055 0.38466036
0.092202269 0.069365054 0.38450268
0.092545703 0.069366336 0.38449341
0.092847995 0.069336884 0.38431376
0.093153067 0.069309726 0.38414678
0.093497939 0.069312267 0.38414437
0.09381979 0.069297768 0.38404757
0.094167665 0.069302551 0.38405749
0.094475254 0.069277756 0.38390353
0.09482383 0.069283076 0.38391641
0.095078155 0.069219738 0.38354886
0.095411129 0.069213912 0.38349992
0.095751032 0.069213137 0.38347894
0.096057944 0.06918861 0.38332632
0.096406929 0.069194444 0.38334191
0.09670347 0.069162719 0.38314942
0.097037613 0.069158033 0.38310665
0.09734644 0.069135398 0.38296443
0.097677238 0.069128461 0.38290918
0.097993843 0.069111578 0.38279876
0.098304093 0.069090329 0.3826642
0.098667823 0.069106691 0.38273787
0.098969392 0.069079541 0.38257062
0.099251285 0.069038905 0.38232854
0.09959238 0.069039591 0.38231534
0.099925585 0.069034807 0.38227186
0.10019431 0.068985663 0.38198268
0.10053688 0.068987519 0.38197592
0.10089714 0.069001481 0.38203606
0.10117723 0.068960689 0.38179311
0.10151701 0.068960719 0.38177615
0.10186375 0.068965457 0.38178521
0.10210928 0.068901882 0.38141608
0.10246795 0.068914801 0.38147044
0.10275248 0.068877943 0.38124922
0.10309706 0.068881452 0.38125136
0.10342313 0.068872616 0.38118514
0.10369922 0.068830661 0.38093567
0.10402672 0.06882298 0.38087592
0.1043611 0.068819903 0.38084149
0.10470075 0.068820298 0.38082635
0.10504812 0.068825744 0.38083914
0.10535006 0.068801492 0.38068756
0.10565199 0.068777397 0.38053679
0.10593785 0.06874302 0.38032916
0.10627706 0.068743363 0.38031366
0.10656583 0.068711199 0.38011825
0.10688336 0.068697706 0.38002616
0.10721423 0.068692848 0.37998179
0.10754176 0.068685897 0.37992582
0.10787937 0.068685412 0.37990558
0.10815868 0.068647914 0.3796806
0.10846417 0.068627216 0.37954861
0.10880842 0.06863109 0.37955245
0.10914359 0.068629242 0.37952465
0.10944909 0.068608791 0.37939397
0.10972466 0.068569772 0.37916058
0.11001838 0.068542294 0.37899104
0.1103568 0.068542764 0.37897599
0.11069993 0.068546124 0.37897691
0.11098906 0.068516143 0.37879348
0.11132107 0.068512723 0.37875694
0.11166089 0.068514138 0.37874699
0.1119709 0.068497293 0.37863618
0.11227735 0.068478376 0.37851387
0.11257978 0.068457119 0.37837869
0.11289336 0.068442762 0.37828159
0.11325699 0.068458751 0.37835217
0.11354014 0.068426132 0.37815416
0.11380731 0.068384096 0.37790409
0.11412461 0.068372361 0.37782142
0.11443159 0.068354517 0.37770501
0.11479092 0.068367951 0.37776148
0.11512631 0.068367101 0.37773895
0.11545224 0.068360649 0.37768549
0.11580121 0.068367839 0.37770736
0.11602535 0.068301506 0.37732309
0.1200636 0.068110727 0.37603718
0.12036748 0.068092793 0.37592033
0.12068669 0.068083622 0.37585175
0.12099659 0.068069257 0.37575457
0.12131938 0.068062201 0.37569773
0.1216412 0.068054646 0.37563813
0.12199498 0.068064958 0.37567714
0.12231329 0.068055481 0.37560689
0.12266459 0.068064369 0.37563804
0.12303457 0.068083532 0.3757259
0.12332735 0.068059996 0.37557808
0.12368209 0.06807068 0.37561911
0.12409462 0.068113029 0.37583488
0.12442783 0.068111733 0.37580979
0.12477574 0.068118468 0.37582901
0.083278678 0.070250429 0.38793522
0.083603494 0.070233993 0.38782907
0.083950184 0.070236005 0.38782471
0.084223278 0.070176668 0.38748157
0.084509589 0.070128791 0.38720173
0.084832765 0.070111766 0.38709214
0.085156925 0.070095673 0.38698775
0.085453682 0.070057258 0.38676003
0.085750915 0.070019536 0.38653612
0.086089469 0.070015728 0.38649943
0.08640898 0.069996521 0.38637766
0.086730808 0.069979325 0.38626698
0.087060377 0.069968499 0.3861914
0.087393574 0.069960654 0.3861323
0.087708503 0.069938302 0.38599303
0.088046104 0.069934137 0.38595414
0.088364117 0.069914497 0.38582984
0.088662222 0.069879323 0.38561976
0.089005098 0.069879569 0.3856051
0.089334793 0.069869511 0.38553354
0.089653283 0.069850802 0.38541418
0.089966871 0.069828413 0.38527459
0.090277754 0.069804125 0.38512439
0.090610087 0.069796525 0.3850663
0.090947926 0.069793209 0.38503182
0.091264002 0.069773279 0.38490564
0.091584973 0.069757231 0.38480085
0.091941208 0.069768056 0.38484427
0.092257626 0.069748707 0.38472116
0.092567205 0.069724344 0.38457039
0.092873588 0.069697767 0.3844074
0.093191601 0.06968008 0.38429344
0.093509786 0.069662645 0.38418081
0.093859248 0.069668546 0.38419688
0.094165087 0.069642149 0.38403478
0.094509624 0.069644459 0.38403094
0.094837725 0.069634683 0.38396049
0.095138274 0.069604822 0.3837792
0.095484428 0.069608413 0.38378239
0.095781818 0.069576569 0.38359013
0.096087359 0.069550835 0.38343161
0.096407913 0.06953612 0.38333374
0.096753985 0.069539838 0.38333753
0.097068571 0.069520995 0.38321686
0.097389303 0.069506675 0.3831211
0.097700693 0.069485791 0.38298917
0.098031946 0.069479138 0.38293567
0.098376319 0.069481798 0.38293341
0.098685227 0.069459483 0.38279349
0.099013269 0.069450736 0.38272837
0.099273048 0.069394335 0.38240057
0.099626742 0.069403723 0.38243538
0.099924728 0.069374397 0.38225678
0.10025716 0.069369093 0.38221052
0.1005898 0.069363967 0.38216522
0.10091358 0.069352798 0.38208658
0.10123825 0.0693423 0.38201165
0.1015522 0.069324553 0.38189676
0.10189498 0.06932655 0.38189062
0.10218289 0.069291323 0.38167939
0.1024857 0.069266394 0.38152489
0.10286534 0.069293387 0.38165635
0.10311791 0.069234878 0.3813169
0.10345326 0.069232173 0.38128468
0.10377175 0.069218218 0.38119054
0.10409999 0.069210835 0.38113266
0.10440946 0.069191068 0.38100651
0.10473478 0.069181897 0.38093865
0.10505138 0.069167055 0.38083953
0.10535053 0.069140837 0.38067785
0.10567547 0.069131672 0.38061002
0.10596473 0.0690993 0.38041434
0.10629323 0.069092639 0.38036022
0.10659327 0.069067568 0.3802048
0.10697694 0.069096677 0.38034761
0.10728882 0.069079384 0.3802349
0.10760789 0.069066823 0.38014826
0.10789789 0.069035724 0.37995955
0.1082067 0.069016814 0.37983802
0.10854428 0.069016337 0.37981778
0.10886263 0.069003649 0.37973043
0.10918923 0.068996258 0.3796722
0.10950122 0.068979718 0.3795636
0.10981502 0.068964422 0.3794618
0.11012732 0.068948261 0.37935528
0.1104327 0.068927899 0.37922558
0.11078141 0.068934619 0.37924489
0.11107228 0.068905406 0.37906656
0.11139077 0.068893455 0.37898314
0.11172292 0.068889998 0.37894645
0.11201212 0.068860166 0.37876466
0.11233668 0.068852186 0.37870303
0.11261626 0.068816766 0.37849051
0.11294775 0.068813175 0.37845305
0.11329111 0.068816826 0.37845537
0.11357655 0.068785377 0.37826464
0.11387876 0.068764232 0.37813061
0.11420201 0.068755873 0.37806693
0.11452586 0.068747938 0.37800553
0.11490601 0.068773739 0.37812957
0.11530782 0.068812318 0.37832388
0.12044533 0.068472601 0.37615326
0.12075251 0.068456434 0.3760466
0.12106049 0.068440817 0.37594292
0.12139839 0.068442143 0.37593231
0.12170134 0.068423823 0.37581378
0.12199636 0.06840115 0.37567139
0.12234538 0.068408802 0.3756955
0.12266443 0.06839969 0.37562758
0.12300744 0.068403952 0.37563309
0.12334745 0.06840653 0.37562937
0.12369067 0.068410873 0.3756353
0.12405407 0.068426318 0.37570217
0.12437706 0.068419449 0.37564656
0.1247445 0.06843701 0.37572509
0.082994513 0.070646152 0.38821918
0.083322234 0.070631817 0.38812509
0.083617158 0.070589922 0.38787946
0.083924413 0.070558734 0.38769266
0.084212907 0.070512094 0.38742092
0.084537253 0.070495725 0.38731551
0.084871806 0.070487969 0.38725737
0.085198052 0.07047341 0.38716176
0.085469849 0.070414104 0.38682035
0.085796759 0.070400499 0.38672996
0.08612752 0.070390143 0.38665742
0.086465776 0.07038597 0.38661876
0.086781099 0.070363246 0.38647819
0.087102406 0.070345536 0.38636509
0.087428257 0.070331603 0.38627276
0.087754846 0.070318371 0.38618428
0.088066772 0.070293553 0.38603204
0.088407695 0.070291966 0.38600743
0.088705204 0.070256025 0.38579407
0.089036591 0.070247076 0.38572896
0.089385942 0.070252322 0.38574168
0.089701973 0.07023143 0.38561094
0.090009093 0.070203759 0.38544288
0.090322509 0.070181176 0.38530275
0.090669706 0.070184924 0.38530716
0.090994515 0.070171364 0.38521656
0.091306344 0.070147946 0.38507175
0.091630369 0.070134036 0.38497913
0.091976069 0.070136756 0.38497776
0.09230198 0.07012441 0.38489372
0.09262193 0.070107669 0.38478541
0.092926413 0.070079371 0.38461372
0.093250036 0.070065662 0.38452202
0.093560956 0.070042543 0.3843787
0.093880892 0.070026316 0.3842732
0.0942261 0.070028983 0.38427132
0.094531938 0.070002489 0.38410941
0.09485475 0.069988705 0.3840172
0.095197476 0.069989659 0.38400584
0.095496699 0.069958732 0.38381955
0.095832013 0.069954373 0.38377899
0.096114933 0.069911942 0.38352951
0.096442416 0.069902107 0.38345882
0.096824378 0.069931686 0.38360438
0.097114064 0.069894657 0.38338444
0.097392529 0.069849819 0.38312173
0.097767644 0.069874384 0.38323966
0.098064601 0.069843091 0.38305122
0.098422274 0.069855131 0.38310033
0.098710813 0.069818184 0.38288081
0.099030778 0.069803633 0.38278413
0.099357799 0.069794141 0.38271514
0.099679075 0.0697807 0.38262445
0.10001148 0.069775097 0.38257676
0.10029043 0.06973239 0.38232556
0.10064611 0.069743134 0.3823674
0.10092591 0.069701396 0.38212153
0.1012767 0.069708794 0.38214499
0.10159344 0.069692798 0.38204017
0.10191697 0.069681533 0.38196132
0.10224456 0.069673114 0.38189802
0.10254024 0.069643088 0.38171628
0.10289501 0.069653265 0.38175482
0.10319544 0.069626696 0.38159198
0.10351945 0.069616176 0.38151705
0.10384869 0.06960921 0.38146165
0.1041621 0.069591723 0.38134852
0.10444304 0.069552727 0.38111755
0.10476142 0.069538832 0.38102409
0.10511482 0.069548197 0.38105804
0.10539263 0.069507644 0.38081852
0.10573063 0.069506928 0.38079721
0.10605091 0.069494605 0.3807123
0.10636964 0.069481343 0.3806223
0.10666762 0.069454663 0.38045868
0.10700211 0.069451839 0.38042572
0.10733894 0.069450557 0.38040122
0.10765903 0.06943848 0.3803176
0.10792721 0.069393098 0.38005158
0.10826207 0.069390737 0.38002115
0.10860188 0.069391571 0.38000816
0.10891048 0.069372505 0.37988621
0.10921337 0.06934993 0.37974501
0.10952672 0.069334127 0.37964094
0.10983226 0.069313481 0.37951028
0.11017721 0.069317758 0.37951609
0.11047571 0.069292881 0.37936226
0.11082571 0.069300346 0.37938553
0.11108023 0.069248252 0.37908271
0.11140559 0.069240503 0.37902263
0.11173811 0.06923724 0.37898707
0.11205209 0.069222532 0.37888891
0.11239846 0.069227867 0.37890041
0.11269445 0.069202222 0.3787424
0.11299738 0.06918101 0.37860852
0.11331981 0.069171809 0.37854046
0.11360686 0.069141127 0.37835482
0.11392328 0.069128439 0.37826768
0.11427943 0.069139875 0.37831253
0.11462795 0.069146641 0.37833175
0.11506791 0.069208369 0.37865168
0.12047867 0.068827413 0.3762472
0.12076565 0.068799615 0.37607735
0.1211148 0.068807282 0.3761014
0.12147952 0.068823732 0.37617344
0.12173187 0.0687766 0.37589797
0.12202512 0.068752781 0.37574989
0.12236045 0.068752721 0.37573171
0.12271215 0.06876184 0.37576368
0.12302581 0.068749651 0.37567919
0.12337296 0.068756193 0.37569708
0.12372172 0.068763591 0.37571964
0.12406494 0.068767883 0.37572518
0.12440736 0.068771712 0.37572822
0.12473362 0.068766601 0.37568244
0.12512992 0.06880004 0.37584722
0.12549143 0.068814211 0.37590674
0.0823939 0.071067296 0.38865468
0.082726739 0.071056873 0.38858238
0.083033927 0.071024582 0.38839045
0.083345391 0.070996195 0.38821989
0.083610028 0.07092832 0.38783336
0.083929166 0.070907041 0.3877016
0.084234484 0.070874311 0.38750717
0.084563836 0.070861995 0.38742432
0.084885761 0.070843562 0.38730803
0.085187577 0.070808582 0.38710123
0.085519619 0.070798896 0.38703272
0.085820854 0.070763886 0.38682568
0.086165331 0.070764668 0.3868143
0.086513586 0.070768543 0.38681972
0.086811647 0.070731476 0.38660139
0.087135352 0.070715524 0.38649842
0.087490402 0.070725031 0.38653454
0.087795772 0.070694454 0.38635159
0.088113114 0.070673719 0.38622245
0.08845035 0.070669048 0.38618094
0.088772751 0.070652604 0.38607514
0.089089014 0.070631415 0.38594335
0.089399174 0.070605569 0.38578615
0.089741223 0.07060501 0.38576704
0.090040654 0.07057105 0.3855654
0.090387635 0.070574477 0.38556799
0.090671167 0.07052853 0.38530079
0.091051027 0.070557564 0.38544324
0.091365948 0.070536256 0.38531062
0.09166351 0.070501752 0.38510591
0.092020676 0.070513166 0.38515198
0.092337161 0.070493452 0.38502795
0.092658117 0.070477284 0.38492331
0.092974581 0.070457824 0.38480064
0.093306631 0.070450276 0.38474301
0.09359958 0.070413373 0.38452503
0.093948074 0.07041838 0.38453585
0.094225958 0.0703706 0.38425845
0.09456975 0.070372209 0.38425073
0.094897233 0.070361711 0.38417688
0.095197164 0.070330955 0.38399234
0.095576733 0.070359021 0.38412899
0.095891111 0.070339084 0.38400346
0.096123867 0.070259608 0.38355294
0.096516319 0.070297025 0.38374051
0.096801005 0.070255958 0.38349962
0.097133331 0.070249632 0.38344833
0.097473972 0.070249341 0.38343
0.097780973 0.070224904 0.38327977
0.098145097 0.070241518 0.38335362
0.098456897 0.070220679 0.38322306
0.09874969 0.070186496 0.38301957
0.099084884 0.070182569 0.38298127
0.099425986 0.070182852 0.38296586
0.099725232 0.070153676 0.3827897
0.10006171 0.070150807 0.38275707
0.10033827 0.070106082 0.38249603
0.10067976 0.070106879 0.38248333
0.10096791 0.070070654 0.38226867
0.10134419 0.070095636 0.38238785
0.10163077 0.070058592 0.38216874
0.10196772 0.070056424 0.38213977
0.10227043 0.070030816 0.38198295
0.10261184 0.070031784 0.38197106
0.10290173 0.06999772 0.38176808
0.1032348 0.069993131 0.38172582
0.10351388 0.069952101 0.38148487
0.10385956 0.069956198 0.38148996
0.1041861 0.069947414 0.38142478
0.10452334 0.069945849 0.38139895
0.10482107 0.069917947 0.38122949
0.1051469 0.069908887 0.38116282
0.10544185 0.06987945 0.38098493
0.10578308 0.069880754 0.38097468
0.10606405 0.069842368 0.38074803
0.1064317 0.069861129 0.38083291
0.10675358 0.069849826 0.38075384
0.10700396 0.069791965 0.38042101
0.10735414 0.069799341 0.38044378
0.10767453 0.069787361 0.38036105
0.10800479 0.06978184 0.38031346
0.10830154 0.069754772 0.38014844
0.10862637 0.069745898 0.38008255
0.10892402 0.069719687 0.37992221
0.10926518 0.069721401 0.37991399
0.10960008 0.069719113 0.379884
0.10991108 0.069701701 0.3797715
0.1102224 0.069684573 0.37966061
0.11050209 0.069647625 0.37944174
0.11085195 0.069655009 0.3794643
0.1111445 0.069626428 0.37929103
0.11147983 0.069624737 0.37926418
0.11180264 0.069615267 0.37919492
0.11212602 0.069606215 0.37912792
0.112418 0.069577776 0.37895539
0.11274368 0.069570296 0.37889695
0.11308016 0.069569521 0.37887499
0.11338266 0.069547892 0.37873954
0.11365546 0.069508232 0.37850583
0.11405173 0.069544092 0.37868339
0.11436703 0.069530517 0.37859172
0.11474543 0.069555275 0.37870875
0.11514202 0.069590874 0.37888479
0.12081674 0.069164589 0.37622625
0.12115079 0.069163598 0.376203
0.12147557 0.069157325 0.37615103
0.12178459 0.06914214 0.37605062
0.12210698 0.069134615 0.37599182
0.12243566 0.069130681 0.37595257
0.12272882 0.069106765 0.37580469
0.12305427 0.06910111 0.37575611
0.12338834 0.06910032 0.37573394
0.12372077 0.069098607 0.37570679
0.1240778 0.069110617 0.37575421
0.12443452 0.069122389 0.37580034
0.12476458 0.069119334 0.37576583
0.1251123 0.06912604 0.37578443
0.082069904 0.071430661 0.38875619
0.082405701 0.071422622 0.38869718
0.082768358 0.071437821 0.38876465
0.083043456 0.071377642 0.38842183
0.083321333 0.07132034 0.38809469
0.083642013 0.071299993 0.3879686
0.083972923 0.071288496 0.38789064
0.084260993 0.071240872 0.3876161
0.084589913 0.071228035 0.38753077
0.084918693 0.07121519 0.3874453
0.08523868 0.071195088 0.38732043
0.085582122 0.071194671 0.38730258
0.085879162 0.071155816 0.38707557
0.086185098 0.071124598 0.38689008
0.086525977 0.071122371 0.38686225
0.086881153 0.07113184 0.38689807
0.08716131 0.071080074 0.38660067
0.087536432 0.071105845 0.38672507
0.087819293 0.071056761 0.3864423
0.088159449 0.071054243 0.38641271
0.088486448 0.071041189 0.38632581
0.08882165 0.071034782 0.38627502
0.089151688 0.071024314 0.38620213
0.089483745 0.071015537 0.38613838
0.089785613 0.070982955 0.38594517
0.090115957 0.070973046 0.3858752
0.090427041 0.070948094 0.38572344
0.090737179 0.070922598 0.38556871
0.091047511 0.070897445 0.38541576
0.09138263 0.070891708 0.38536838
0.09174531 0.070907317 0.38543695
0.092082553 0.070903212 0.38539842
0.092370525 0.070861354 0.38515455
0.092677541 0.070834368 0.38499153
0.093010373 0.070827223 0.38493633
0.093351193 0.070826195 0.38491434
0.093650244 0.070793591 0.38472074
0.093985327 0.070788369 0.38467589
0.094290428 0.07076069 0.384509
0.094638705 0.070765488 0.38451856
0.094963238 0.070752561 0.38443178
0.095287092 0.070739225 0.38434273
0.095595703 0.070714705 0.38419294
0.095904402 0.070690438 0.38404444
0.096234873 0.070682317 0.38398367
0.096572854 0.070679754 0.38395306
0.096879058 0.07065405 0.38379669
0.097162589 0.070612028 0.38355169
0.097534694 0.070634454 0.38365674
0.097841404 0.070609525 0.38350457
0.098175287 0.070604309 0.38345942
0.098496906 0.070590355 0.38336676
0.09880662 0.070567988 0.38322839
0.099128596 0.070554487 0.38313821
0.099458344 0.070546605 0.38307849
0.099761918 0.070520274 0.38291851
0.10008122 0.070505194 0.38281974
0.10040181 0.070491128 0.38272634
0.10071668 0.070473149 0.38261172
0.10101195 0.070441633 0.38242358
0.10135765 0.070445366 0.38242677
0.10170745 0.070451923 0.38244525
0.10198616 0.070409343 0.38219705
0.10230999 0.0703981 0.38211891
0.10263893 0.070390441 0.38206017
0.10295692 0.070375353 0.38196108
0.10330086 0.070378028 0.38195843
0.10358351 0.070339084 0.38172984
0.10389388 0.070319131 0.38160434
0.10423079 0.070317239 0.38157678
0.10454161 0.070297793 0.38145402
0.10488242 0.070298582 0.38144103
0.105208 0.070289202 0.38137278
0.1055024 0.070259102 0.38119215
0.10581607 0.070241988 0.38108197
0.10615463 0.070241466 0.38106173
0.10645096 0.070213072 0.38089034
0.10678343 0.070208639 0.38084888
0.10710399 0.070196427 0.3807652
0.10741883 0.070180543 0.38066161
0.10769874 0.070142023 0.3804352
0.1080171 0.070128694 0.38034549
0.1083401 0.070118465 0.38027248
0.10870972 0.070138365 0.38036299
0.1090012 0.070107885 0.38018018
0.10930198 0.070083566 0.38003072
0.10961014 0.070064105 0.37990764
0.10992113 0.070046566 0.37979501
0.11027348 0.070055418 0.37982544
0.1106093 0.070053749 0.37979877
0.11089525 0.070020586 0.37960142
0.11117977 0.069986738 0.37940031
0.11151943 0.069987692 0.37938786
0.11186419 0.069991834 0.37939268
0.11216845 0.069970697 0.37926042
0.11246367 0.069944054 0.37909836
0.11282376 0.069957785 0.37915516
0.1131292 0.069937661 0.37902835
0.113425 0.069911711 0.37887007
0.11376923 0.069915675 0.3788738
0.11411448 0.069920249 0.37888089
0.11445681 0.069923013 0.37887812
0.11482205 0.069939703 0.3789508
0.11515245 0.06993515 0.37890837
0.12099306 0.069601893 0.37676507
0.12117565 0.069513723 0.37627
0.12151292 0.069514528 0.3762565
0.12180257 0.06948816 0.37609598
0.1221773 0.069510348 0.37619823
0.12244371 0.069470949 0.3759672
0.12278303 0.069473021 0.37596059
0.1231095 0.069467843 0.37591469
0.12339737 0.069440953 0.37575138
0.12374973 0.069450408 0.37578472
0.12408681 0.069451272 0.37577155
0.12442397 0.069452167 0.37575853
0.12477136 0.069458745 0.37577632
0.12512259 0.069467425 0.37580541
0.12617804 0.069494158 0.37589651
0.12656192 0.069520593 0.37602162
0.081769496 0.071815073 0.38897058
0.082134843 0.071832627 0.38905051
0.082446091 0.071802922 0.38887441
0.082733177 0.071752518 0.38858619
0.083053656 0.071731374 0.38845637
0.083373353 0.071709722 0.38832378
0.083680376 0.071677394 0.38813335
0.083963595 0.071625024 0.38783437
0.084305793 0.071623191 0.38780904
0.084596999 0.071578234 0.38755015
0.084938519 0.071576029 0.3875227
0.085244246 0.071543805 0.38733271
0.085595176 0.071549624 0.38734862
0.085916474 0.071530722 0.38723072
0.086226195 0.07150238 0.38706163
0.086574957 0.0715065 0.38706824
0.086900577 0.071491547 0.38697159
0.087218493 0.071470402 0.38684139
0.087531231 0.071445212 0.38668922
0.087871194 0.071442328 0.3866578
0.08819212 0.071424067 0.3865431
0.088529244 0.071419008 0.38649982
0.088849202 0.071400203 0.38638207
0.089160457 0.071374558 0.38622737
0.089508824 0.071378708 0.38623384
0.089825712 0.071357824 0.38610479
0.090147391 0.071340889 0.38599709
0.090461157 0.071317852 0.3858563
0.090775087 0.071295105 0.38571709
0.09109766 0.071279295 0.38561544
0.091440223 0.071279183 0.38559863
0.091746859 0.071251176 0.38543087
0.092054963 0.071224511 0.38527039
0.092412136 0.071235873 0.38531554
0.092729829 0.071216822 0.38519618
0.093089804 0.071230263 0.38525254
0.09338817 0.071196638 0.38505429
0.09367951 0.071157925 0.38482851
0.094028696 0.071163267 0.38484097
0.094337076 0.071137808 0.3846868
0.094654746 0.071119517 0.38457134
0.094990738 0.071115062 0.38453072
0.095316894 0.071103305 0.38445061
0.095664926 0.071107894 0.38445884
0.095953278 0.071068242 0.38422784
0.096276537 0.071054645 0.38413763
0.096623562 0.071058616 0.38414246
0.096905969 0.071015194 0.38389105
0.097258247 0.071023114 0.38391712
0.097566046 0.070998609 0.38376787
0.097869582 0.070971183 0.38360286
0.098220006 0.070977822 0.38362196
0.098526955 0.070953108 0.38347155
0.098878622 0.070960678 0.38349557
0.099156462 0.070915356 0.38323382
0.0995197 0.070931241 0.38330275
0.099798292 0.070886895 0.38304615
0.10009728 0.070857279 0.38286915
0.10044827 0.070864551 0.38289145
0.1007699 0.070851125 0.38280198
0.10110613 0.070848025 0.38276815
0.10141187 0.070823662 0.38261947
0.10174091 0.070815668 0.38255921
0.10205065 0.070794344 0.38242692
0.10237778 0.070785172 0.38236025
0.10270713 0.070777595 0.38230219
0.10300377 0.070747614 0.38212308
0.10330172 0.070718721 0.38194987
0.10362539 0.070707567 0.38187242
0.10395813 0.07070265 0.38182864
0.10430989 0.070710652 0.38185465
0.10458196 0.070664778 0.38158962
0.1049259 0.070667587 0.38158754
0.10523681 0.070648208 0.38146558
0.10556177 0.070638351 0.38139504
0.10586902 0.070616759 0.38126114
0.10622033 0.07062459 0.38128608
0.10647326 0.070567161 0.38095865
0.10681651 0.070569776 0.3809554
0.10710912 0.070539035 0.38077199
0.10747921 0.07055933 0.3808642
0.10778592 0.070538022 0.38073176
0.10808098 0.07050927 0.38055906
0.10838138 0.070484154 0.38040608
0.10870989 0.070477419 0.3803522
0.10903428 0.070468061 0.38028422
0.10940359 0.0704877 0.38037267
0.10968613 0.070451498 0.3801598
0.1100171 0.070446528 0.38011539
0.11031617 0.070421211 0.37996128
0.1106383 0.070410736 0.37988713
0.11094094 0.070387952 0.37974668
0.11126874 0.070381224 0.37969279
0.11158723 0.07036867 0.37960738
0.11185955 0.070327163 0.37936586
0.11221846 0.070340171 0.37941843
0.11247962 0.070292026 0.37914109
0.11284725 0.070310503 0.37922308
0.11314781 0.070287205 0.37907976
0.11345889 0.070270561 0.37897232
0.11378821 0.070265271 0.37892613
0.11414721 0.070278294 0.37897867
0.11449841 0.070286453 0.37900493
0.11487306 0.070308916 0.37910831
0.11513183 0.070260532 0.37882969
0.12108438 0.069991037 0.37703916
0.12124904 0.069891952 0.37648761
0.12155304 0.069873527 0.37637055
0.12189094 0.069874629 0.37635863
0.12222605 0.06987413 0.37633815
0.12253265 0.069857381 0.37623015
0.12285011 0.069846898 0.37615588
0.12315239 0.069827862 0.37603557
0.12345263 0.069807783 0.3759096
0.12376458 0.069794409 0.3758198
0.12410576 0.069797553 0.37581891
0.12443798 0.069795653 0.37579086
0.12477294 0.069795296 0.37577111
0.12514281 0.069814414 0.37585622
0.12550595 0.06982968 0.37592062
0.1258381 0.069827683 0.37589204
0.12619424 0.069838963 0.37593493
0.12654395 0.069846638 0.37595841
0.081498325 0.0722261 0.38932633
0.081820868 0.072205774 0.38920164
0.082177691 0.072215728 0.38924015
0.082457304 0.072158061 0.38891405
0.082768477 0.072128348 0.38873872
0.083071746 0.072092034 0.38852772
0.083402619 0.072079875 0.38844687
0.083713606 0.072050706 0.38827431
0.083999328 0.072000109 0.38798627
0.084354021 0.072008803 0.38801774
0.084661148 0.071976997 0.38783088
0.085006222 0.071977578 0.38781852
0.085311145 0.071944274 0.38762358
0.085651681 0.071941167 0.38759124
0.085965902 0.071916074 0.38744044
0.086320378 0.071924724 0.38747138
0.086623915 0.071891017 0.38727415
0.086954549 0.071879983 0.38719898
0.087288819 0.071872026 0.38714036
0.087599039 0.071844406 0.3869758
0.087910928 0.071818374 0.38681972
0.088217214 0.071787976 0.38664019
0.088547722 0.071777441 0.38656759
0.088878095 0.071766898 0.38649487
0.089194737 0.071745373 0.386363
0.089527681 0.071737081 0.38630238
0.089863561 0.07173121 0.3862547
0.090197966 0.071724191 0.38620085
0.090513751 0.071702488 0.38606787
0.090867832 0.07171116 0.38609847
0.091121577 0.071640886 0.38570395
0.091471747 0.071646668 0.38571891
0.091796294 0.071632408 0.38562593
0.092143066 0.071635529 0.38562647
0.092449829 0.071607642 0.38546008
0.092792131 0.071607381 0.38544235
0.093105562 0.07158494 0.38530517
0.093423493 0.07156609 0.38518739
0.093725108 0.071534932 0.3850033
0.094050169 0.071521841 0.38491639
0.09442503 0.071546569 0.38503298
0.094719924 0.07151074 0.38482371
0.094998613 0.071462989 0.38455021
0.095382594 0.07149449 0.38470319
0.095697582 0.071474254 0.38457766
0.095993698 0.071440101 0.38437733
0.09632688 0.071433686 0.38432616
0.096621074 0.071398504 0.3841202
0.096959107 0.071395852 0.38408926
0.097303487 0.071397863 0.38408339
0.09762311 0.07138177 0.38398007
0.097920552 0.071349636 0.38379043
0.098234959 0.071330026 0.38366818
0.098587893 0.07133843 0.38369656
0.098898947 0.071316592 0.38356227
0.099215873 0.071299113 0.38345134
0.099516347 0.071269967 0.38327774
0.099875495 0.071282908 0.38333037
0.1001378 0.071226865 0.38301209
0.10049681 0.071239755 0.38306442
0.10081064 0.071220651 0.3829447
0.10112584 0.071202636 0.38283083
0.10145225 0.0711926 0.38275984
0.1017694 0.071176164 0.38265443
0.10208033 0.071155496 0.38252622
0.1024629 0.071184732 0.38266629
0.1027218 0.071128152 0.38234499
0.10303883 0.071112052 0.38224134
0.10338467 0.071115881 0.38224477
0.10368085 0.071085632 0.38206497
0.10398106 0.071058355 0.38190114
0.10434161 0.071072333 0.38195908
0.10466229 0.071059167 0.38187104
0.10501312 0.071066469 0.38189301
0.10530349 0.071032949 0.38169563
0.10561755 0.071015574 0.38158497
0.1059101 0.070983909 0.38139746
0.10621151 0.070958346 0.38124281
0.10651872 0.070936814 0.38110977
0.10690415 0.070967346 0.38125643
0.10716767 0.070917018 0.38096863
0.10749898 0.070911705 0.38092273
0.10781778 0.070898227 0.38083285
0.1081123 0.070868887 0.38065788
0.10847628 0.070885137 0.38072768
0.10877486 0.07085868 0.38056815
0.10911733 0.0708609 0.38056254
0.10942135 0.070838206 0.38042313
0.10969492 0.070795991 0.38017896
0.11001157 0.07078176 0.38008502
0.11031631 0.070759989 0.37995052
0.11067292 0.0707715 0.37999481
0.11098267 0.070753075 0.37987831
0.11129151 0.070734195 0.37975934
0.11163287 0.070736006 0.37975153
0.11193512 0.07071311 0.37961102
0.11226016 0.070704728 0.37954834
0.11257569 0.070690401 0.37945387
0.11288419 0.070671767 0.37933618
0.11316492 0.070635907 0.37912607
0.11350563 0.070637599 0.37911746
0.11383221 0.070630498 0.3790617
0.11422087 0.070661858 0.37921232
0.11453877 0.070649378 0.37912762
0.11492952 0.070681781 0.37928379
0.11518504 0.070631064 0.37899393
0.12130675 0.070456795 0.37772119
0.12139975 0.070315376 0.37694526
0.12162026 0.070248395 0.37656838
0.12196039 0.07025069 0.37656286
0.12222009 0.070206754 0.3763096
0.12258117 0.070221148 0.37636894
0.12291948 0.070222452 0.37635815
0.123222 0.070203356 0.37623802
0.12351202 0.070177265 0.37608036
0.12382981 0.070167035 0.37600783
0.12411772 0.070139997 0.3758451
0.12449359 0.070162676 0.37594879
0.12482284 0.070159011 0.37591141
0.12515363 0.070156232 0.37587875
0.12549524 0.07015954 0.37587863
0.12585813 0.070174664 0.3759419
0.12620568 0.070181206 0.37595913
0.12654422 0.070182703 0.37594935
0.12693945 0.070215546 0.37610748
0.081563532 0.072629839 0.38962439
0.081903264 0.072624408 0.38958013
0.082191274 0.072573356 0.38929114
0.082454152 0.072500631 0.38888583
0.082771555 0.072476253 0.38873982
0.08308167 0.07244572 0.38856083
0.083407655 0.072429225 0.38845703
0.0837337 0.072412916 0.38835424
0.084054165 0.072391927 0.38822633
0.084386162 0.072381012 0.38815236
0.084709659 0.072362915 0.38803989
0.08506161 0.072369181 0.38805798
0.085355818 0.072326466 0.38781342
0.085691772 0.072319314 0.38775951
0.086010545 0.072297789 0.3876285
0.086354911 0.072297864 0.38761327
0.086678721 0.072280794 0.38750604
0.087007739 0.072268173 0.38742274
0.087297231 0.07222297 0.38716465
0.087636165 0.072218858 0.3871268
0.087969877 0.072210483 0.38706613
0.088277631 0.072180964 0.38689202
0.088592194 0.072157204 0.38674882
0.088929258 0.072151884 0.38670442
0.089248419 0.072132148 0.38658267
0.089574382 0.072118022 0.386491
0.089925997 0.072124593 0.38651019
0.090260379 0.072117336 0.38645524
0.090530731 0.072059177 0.3861275
0.090869173 0.072055437 0.38609138
0.091203958 0.072048843 0.38603988
0.09152998 0.07203541 0.38595173
0.091848515 0.072016194 0.38583258
0.092191182 0.072015978 0.38581517
0.092495263 0.071985729 0.38563684
0.092826143 0.071976483 0.385571
0.093150601 0.071962342 0.38547894
0.093485095 0.071956031 0.38542879
0.093812056 0.071943991 0.3853479
0.094144993 0.071936607 0.3852919
0.094425313 0.071889222 0.38502163
0.094730288 0.071860865 0.3848533
0.095060915 0.07185211 0.38478991
0.095405407 0.071853869 0.38478276
0.095726512 0.071838044 0.38468149
0.096063547 0.071834259 0.3846446
0.096401684 0.071831323 0.38461223
0.096701428 0.071799897 0.38442734
0.097001448 0.071768887 0.38424465
0.097329676 0.071758896 0.38417447
0.097654 0.071746118 0.38408929
0.097939074 0.071704671 0.38385069
0.09827698 0.071702078 0.38382003
0.098617554 0.071701437 0.38379979
0.098950028 0.071694933 0.38374814
0.099268205 0.071678147 0.38364145
0.099596798 0.071668968 0.38357544
0.099939704 0.071670122 0.38356468
0.10022464 0.07162983 0.38333213
0.10052922 0.071603812 0.38317594
0.10085015 0.071589574 0.38308278
0.10118012 0.071581826 0.38302431
0.101511 0.071574762 0.38296947
0.1018194 0.071551956 0.38283044
0.10212805 0.071529485 0.38269311
0.10248398 0.071540155 0.38273311
0.10282847 0.071542799 0.38273013
0.10313477 0.071518935 0.38258535
0.10344481 0.07149782 0.38245523
0.10376055 0.071480773 0.3823469
0.10404898 0.071445085 0.38213879
0.10435458 0.07142137 0.38199472
0.1047201 0.071438707 0.38207018
0.1050315 0.071419105 0.38194814
0.10531178 0.071378559 0.38171402
0.10567312 0.07139302 0.38177407
0.1059831 0.071372807 0.38164869
0.10627904 0.071343303 0.38147357
0.10658137 0.071318254 0.38132232
0.10694014 0.071331017 0.38137317
0.10720515 0.071281359 0.38109031
0.10758002 0.071304835 0.38119844
0.10783292 0.071247555 0.38087484
0.10819073 0.071259744 0.38092256
0.10850912 0.071245976 0.38083154
0.10880315 0.071216352 0.38065574
0.1091501 0.071221441 0.38066542
0.1094757 0.071212605 0.38060075
0.10980933 0.071209028 0.38056415
0.11010022 0.071177855 0.38038
0.11045343 0.071187027 0.38041148
0.1106834 0.071116962 0.38001949
0.11104904 0.071134232 0.38009426
0.11136666 0.071120717 0.38000453
0.11165112 0.071086191 0.37980244
0.11200146 0.071093678 0.37982485
0.11230804 0.071073428 0.37969905
0.11261998 0.071056694 0.37959203
0.11297143 0.071064904 0.37961829
0.11326268 0.071035303 0.37944254
0.11356278 0.071011424 0.37929732
0.11385541 0.070983022 0.37912798
0.11424135 0.071012795 0.37926933
0.11459928 0.071025021 0.37931696
0.11501499 0.071072899 0.3795549
0.12138152 0.070837654 0.37794363
0.12141593 0.070661344 0.37698516
0.12171046 0.070636988 0.3768374
0.12206094 0.070645109 0.376863
0.12234529 0.070615053 0.37668484
0.12260605 0.070571564 0.3764351
0.12297126 0.070588276 0.37650648
0.12327588 0.070570216 0.37639233
0.1235756 0.070549443 0.3762638
0.12387264 0.07052727 0.37612775
0.12414531 0.070491374 0.37591854
0.12451742 0.070511982 0.37601069
0.12483863 0.070503742 0.37594894
0.12516923 0.070500813 0.37591562
0.12552162 0.070510156 0.37594765
0.12587692 0.070521072 0.3759881
0.1262155 0.070522606 0.3759785
0.12655829 0.070526458 0.37598127
0.12691218 0.070536464 0.37601683
0.1272642 0.070545383 0.37604657
0.080930948 0.073029153 0.3899259
0.081259906 0.07301373 0.38982859
0.081587091 0.072996862 0.38972345
0.081888199 0.07295692 0.38949502
0.082166329 0.072896898 0.3891595
0.082475834 0.072865121 0.38897467
0.082819402 0.072863564 0.38895118
0.083113462 0.072818644 0.38869613
0.083438531 0.072801158 0.3885875
0.083756782 0.072777882 0.38844797
0.084087253 0.072765373 0.38836581
0.084398694 0.072736576 0.38819674
0.084751576 0.072743587 0.3882187
0.085060842 0.072713241 0.38804129
0.085381709 0.072693005 0.38791782
0.0857227 0.072690025 0.38788632
0.086044177 0.072670572 0.38776693
0.086377271 0.07266105 0.3877005
0.086711638 0.072652668 0.38764012
0.087053739 0.072650813 0.38761449
0.087303743 0.072572388 0.38718042
0.087667778 0.072589017 0.38725337
0.088002749 0.072581552 0.38719773
0.088303417 0.072545961 0.38699201
0.088664442 0.072560035 0.38705122
0.08896549 0.072525099 0.38684899
0.089274138 0.072496615 0.38668111
0.089579493 0.072465681 0.38650015
0.089935966 0.072476178 0.38654017
0.09028361 0.072479509 0.38654184
0.090631805 0.072483249 0.38654575
0.090916649 0.072436482 0.38628027
0.091230683 0.072413243 0.38614023
0.091590017 0.072426014 0.38619211
0.091913514 0.072410434 0.38609284
0.092222832 0.072383851 0.38593489
0.092538349 0.072362311 0.38580376
0.09283682 0.072327651 0.38560268
0.09316989 0.072320096 0.38554612
0.093498893 0.072309457 0.38547301
0.093841247 0.072309181 0.38545516
0.09417998 0.072306119 0.38542247
0.094470471 0.072266191 0.38519317
0.094803214 0.072258748 0.38513702
0.095126837 0.072244436 0.38504425
0.095443301 0.072224803 0.38492307
0.095778599 0.072219513 0.38487837
0.096082024 0.072190315 0.38470614
0.096400984 0.072172955 0.38459703
0.096724957 0.072159447 0.38450843
0.097071089 0.072162516 0.3845081
0.097391218 0.072146304 0.38440502
0.097696394 0.072119161 0.38424373
0.098012976 0.072100602 0.38412809
0.09832973 0.072082289 0.38401377
0.098708488 0.072109409 0.38414142
0.098988205 0.072064236 0.38388398
0.099299006 0.072041914 0.38374823
0.099662371 0.072057761 0.38381577
0.099969797 0.072033197 0.38366801
0.10027432 0.072006695 0.38350999
0.1005829 0.0719833 0.3833684
0.1008918 0.071960278 0.38322884
0.10121368 0.071946651 0.38313925
0.10150819 0.071913712 0.38294685
0.10185347 0.071916856 0.38294655
0.10219745 0.071919039 0.38294113
0.10250272 0.071894065 0.38279107
0.10285497 0.071902104 0.38281679
0.10315617 0.071874537 0.38265285
0.10349247 0.071871489 0.38261956
0.10380258 0.071850367 0.38248989
0.10405063 0.071786538 0.38213298
0.10442679 0.071811244 0.38224727
0.10473472 0.071789011 0.38211173
0.10507071 0.071786091 0.38207895
0.10539051 0.071772173 0.3819876
0.10571866 0.071764015 0.38192692
0.10601877 0.071736924 0.38176546
0.10635412 0.071733773 0.38173139
0.10662138 0.071684875 0.38145381
0.10695329 0.071679607 0.38140845
0.10729938 0.071683854 0.38141367
0.10760585 0.071661673 0.38127831
0.10792331 0.071646951 0.38118255
0.1082487 0.071637549 0.38111514
0.10855006 0.071612366 0.38096374
0.10884894 0.0715857 0.38080445
0.10920745 0.071598299 0.38085401
0.10953412 0.071590006 0.38079241
0.1098515 0.071575709 0.38069889
0.11012068 0.071530193 0.38043928
0.11044782 0.071522482 0.38038081
0.11076827 0.071510516 0.38029963
0.11111927 0.071518272 0.38032332
0.11141953 0.071493424 0.38017365
0.11168201 0.071444564 0.37989628
0.11201452 0.071440667 0.37985796
0.1123532 0.071440697 0.37984058
0.11271278 0.071453996 0.37989369
0.11301594 0.071431555 0.37975675
0.11328845 0.071389914 0.37951776
0.11365891 0.071410082 0.37960729
0.11397444 0.071395703 0.37951326
0.11432865 0.071405582 0.3795481
0.11466515 0.071404375 0.37952402
0.11506416 0.071441971 0.37970617
0.11543783 0.071463667 0.37980378
0.11581255 0.071485892 0.37990415
0.12134919 0.071156137 0.37783256
0.12145761 0.071022309 0.37710419
0.12178037 0.071014211 0.37704346
0.12210204 0.071005538 0.37697962
0.12239163 0.070978299 0.37681723
0.12262975 0.070921443 0.37649763
0.12301265 0.070948392 0.37662295
0.12331939 0.070931405 0.376515
0.1236343 0.070919186 0.37643236
0.12396599 0.07091663 0.37640107
0.12425425 0.070889309 0.37623832
0.12453884 0.070860051 0.37606531
0.12490668 0.0708782 0.37614384
0.12518831 0.070847452 0.37596288
0.12554312 0.070858173 0.37600204
0.12588426 0.070861146 0.37600011
0.12622136 0.070861816 0.37598589
0.12656802 0.070867859 0.37600026
0.080611572 0.073399685 0.39005664
0.080995932 0.073434263 0.39022541
0.081297047 0.073393397 0.38999319
0.081596605 0.073351473 0.38975537
0.081898183 0.073311709 0.38952899
0.082198687 0.073271327 0.38929927
0.082520314 0.073250033 0.389171
0.082811765 0.07320223 0.38890186
0.083144017 0.073190749 0.38882563
0.083471015 0.07317476 0.38872537
0.083789513 0.073151477 0.3885864
0.084124468 0.073142685 0.38852438
0.084456868 0.07313177 0.38845098
0.084781133 0.073113926 0.38834077
0.085095577 0.073087767 0.3881864
0.085419402 0.073069863 0.3880758
0.085761577 0.073067732 0.38804895
0.086089514 0.073053554 0.38795805
0.086427063 0.073047593 0.38791078
0.086755849 0.073034301 0.38782459
0.087052613 0.072994269 0.38759631
0.087378785 0.072979107 0.38750011
0.087711215 0.072969288 0.38743216
0.088027589 0.072946221 0.38729393
0.088351279 0.072929382 0.38718873
0.088668965 0.072907738 0.38705796
0.089033008 0.072924219 0.38712955
0.089325532 0.072882228 0.38689071
0.089653261 0.072869174 0.38680544
0.089997418 0.072869524 0.38679132
0.090313531 0.07284724 0.386657
0.090647258 0.07283929 0.38659874
0.090975963 0.072827362 0.38651937
0.091299303 0.072811268 0.38641781
0.091594495 0.07277292 0.38619816
0.091932334 0.072768606 0.38615909
0.092264995 0.072760247 0.3860985
