# .PCD v0.7 - Point Cloud Data file format
VERSION 0.7
FIELDS x y z
SIZE 4 4 4
TYPE F F F
COUNT 1 1 1
WIDTH 1384
HEIGHT 1
VIEWPOINT 0 0 0 1 0 0 0
POINTS 1384
DATA ascii
0.064747937 0.066390313 0.44696271
0.06512513 0.066371948 0.4468255
0.065495163 0.066346563 0.446641
0.0658985 0.066355012 0.44668415
0.066240974 0.066302449 0.4463166
0.066662766 0.066329435 0.44648439
0.067036368 0.066308416 0.44632903
0.067413621 0.066291243 0.44619948
0.067783862 0.066267416 0.44602504
0.06814307 0.066233136 0.44578028
0.068539403 0.06623514 0.44577956
0.068926297 0.066228032 0.44571757
0.069306202 0.066214345 0.44561115
0.069669135 0.066184685 0.44539717
0.070038699 0.066161603 0.44522744
0.070427716 0.066157073 0.4451825
0.070800535 0.066137448 0.44503596
0.07118389 0.066127852 0.44495669
0.071543187 0.066096112 0.44472852
0.071915545 0.066076718 0.44458333
0.072311036 0.066078693 0.44458175
0.072699592 0.066074334 0.44453761
0.073094279 0.066075556 0.44453087
0.073482856 0.066071272 0.44448715
0.073874384 0.06606967 0.44446138
0.074264482 0.066066824 0.4444271
0.074655674 0.066064976 0.44439951
0.075051695 0.066067398 0.44440052
0.075443909 0.066066451 0.44437888
0.07583493 0.066064484 0.44435027
0.076218054 0.066055678 0.44427568
0.076616287 0.066060007 0.44428924
0.077004805 0.066055946 0.44424644
0.087448008 0.065630257 0.44092667
0.087809861 0.065608703 0.4407647
0.088170424 0.065586388 0.44059756
0.088540144 0.06557104 0.44047722
0.088856399 0.065516405 0.44009292
0.089201622 0.06548351 0.43985468
0.089552 0.065454684 0.43964362
0.089938477 0.065452367 0.43961066
0.090318441 0.065445356 0.43954605
0.0906616 0.065411843 0.43930346
0.091019109 0.06538894 0.43913203
0.091412932 0.065392189 0.43913627
0.091758564 0.065361097 0.4389098
0.092145801 0.065359771 0.43888316
0.092513539 0.065344691 0.4387641
0.092876375 0.065326281 0.43862268
0.093210779 0.065288112 0.4383485
0.093614943 0.065298922 0.43840319
0.094002813 0.065298319 0.4383812
0.094346695 0.065267295 0.43815491
0.09472207 0.06525822 0.4380759
0.095075205 0.065233961 0.43789497
0.095453136 0.065226838 0.43782905
0.095773377 0.065180518 0.43749991
0.096137181 0.065164104 0.43737149
0.096552774 0.065182768 0.43747851
0.096908562 0.065161079 0.43731463
0.097321138 0.06517759 0.43740708
0.097759306 0.06521105 0.43761319
0.098113842 0.065188676 0.43744454
0.098529063 0.065206625 0.43754652
0.10489907 0.065064438 0.43627119
0.10563787 0.064804785 0.43447244
0.10600912 0.064795896 0.43439347
0.10638314 0.064788759 0.43432626
0.10676154 0.064784311 0.43427706
0.10716881 0.064797372 0.43434513
0.10754776 0.064793266 0.43429816
0.056328021 0.067112595 0.44941851
0.056728911 0.067117043 0.44943628
0.057120003 0.067109928 0.44937646
0.057497405 0.067086928 0.44921029
0.057893019 0.067085348 0.44918746
0.058257811 0.067048319 0.44892719
0.058641382 0.067033254 0.44881392
0.059038267 0.067033499 0.44880313
0.059413657 0.067009516 0.44863001
0.059822943 0.067023821 0.44871312
0.060159158 0.066956602 0.44825047
0.060549103 0.06694968 0.44819137
0.060943715 0.066947974 0.44816709
0.061344009 0.066952482 0.44818443
0.061725941 0.066937029 0.44806799
0.062100478 0.066913806 0.44789952
0.062471703 0.066887319 0.44770917
0.06285464 0.066873632 0.44760436
0.063244134 0.066867061 0.44754714
0.063617602 0.066843711 0.44737762
0.064016402 0.066847123 0.44738701
0.06439057 0.06682492 0.447225
0.064766623 0.066804923 0.44707772
0.065157332 0.066800207 0.44703257
0.065508567 0.06675531 0.44671854
0.06591098 0.066762798 0.4467549
0.066291898 0.066748559 0.44664586
0.066674046 0.0667357 0.44654605
0.067049928 0.066716768 0.44640547
0.067417562 0.066689909 0.44621179
0.067789413 0.066667497 0.44604781
0.068195328 0.066678658 0.44610837
0.068562195 0.066651709 0.44591397
0.068926156 0.066622287 0.44570291
0.069326274 0.066627927 0.44572636
0.069719508 0.066626936 0.44570541
0.070091829 0.066606089 0.44555151
0.070463613 0.06658496 0.44539574
0.070825316 0.066554591 0.44517806
0.071230441 0.066565141 0.445234
0.071591608 0.066534713 0.44501588
0.0719686 0.066519246 0.44489774
0.072360665 0.066517808 0.4448733
0.072715931 0.06648273 0.44462386
0.07310687 0.066480488 0.44459394
0.073480114 0.066462249 0.44445702
0.073875651 0.06646426 0.44445547
0.074261673 0.066457748 0.44439679
0.074659899 0.066462159 0.44441113
0.075038694 0.066449314 0.44431004
0.075439647 0.066456124 0.44434026
0.075829104 0.066452786 0.44430268
0.076218337 0.066449292 0.44426388
0.076608211 0.066446386 0.44422898
0.076995969 0.0664417 0.44418207
0.077386372 0.066439301 0.44415051
0.077779174 0.066438995 0.44413278
0.078179024 0.06644468 0.44415507
0.078560494 0.066434763 0.44407299
0.07890366 0.066392712 0.44377613
0.086025223 0.066128723 0.44170067
0.086366624 0.066090517 0.44142848
0.086738653 0.066075973 0.44131443
0.087083444 0.066040918 0.44106323
0.087448679 0.066021606 0.44091716
0.087798156 0.065990627 0.44069311
0.088154741 0.065965228 0.44050634
0.088514827 0.06594266 0.44033843
0.088868454 0.06591551 0.44013983
0.089234732 0.065897934 0.44000515
0.089573905 0.065860577 0.43973836
0.089968435 0.065864079 0.43974435
0.090327762 0.065841883 0.43957868
0.090691328 0.065822966 0.43943486
0.091093503 0.065832101 0.43947825
0.091421276 0.065787628 0.43916368
0.091785222 0.065769441 0.43902463
0.092166394 0.065763697 0.4389686
0.092528135 0.065744199 0.43882072
0.092891924 0.065726317 0.43868354
0.093280844 0.065726288 0.43866548
0.093627155 0.065696359 0.4384478
0.094032094 0.065707654 0.43850526
0.094376676 0.065676838 0.43828163
0.094775543 0.065683916 0.43831074
0.095112205 0.06564799 0.43805292
0.095468096 0.065625563 0.4378852
0.095863715 0.065630533 0.43790016
0.096241146 0.065623052 0.43783203
0.096607767 0.0656083 0.43771526
0.096960798 0.065584466 0.43753797
0.097386569 0.065609828 0.43768877
0.097781092 0.065614015 0.43769833
0.098148994 0.065600388 0.43758893
0.098585561 0.065632574 0.43778509
0.1048815 0.065440938 0.43618608
0.10518972 0.065391801 0.43583927
0.10542799 0.06529969 0.43520603
0.10571318 0.065237194 0.43477029
0.10602212 0.065189764 0.43443486
0.10644475 0.065212339 0.43456596
0.10683922 0.065217555 0.43458128
0.10720199 0.065203443 0.43446782
0.056750812 0.067540407 0.44959545
0.057136625 0.067526817 0.4494929
0.057532646 0.067525402 0.44947127
0.057910949 0.067503355 0.44931227
0.058311056 0.067506842 0.44932318
0.058687668 0.067483276 0.44915387
0.059070624 0.067467272 0.44903487
0.059448373 0.067445569 0.4488779
0.059840802 0.067440696 0.4488329
0.060201306 0.06740015 0.44855031
0.060593169 0.067395002 0.44850338
0.060986448 0.067391492 0.44846717
0.06135603 0.06736201 0.4482581
0.06174998 0.0673595 0.44822839
0.062126972 0.067338623 0.44807649
0.062500201 0.067313954 0.44789928
0.06289044 0.067307822 0.44784528
0.06326697 0.067287169 0.44769463
0.063643999 0.067267299 0.44754916
0.064033628 0.067260921 0.44749334
0.064415157 0.067246154 0.44738168
0.064804479 0.067239664 0.44732502
0.065190062 0.067229383 0.44724309
0.065544464 0.067187279 0.44694936
0.065913022 0.067160092 0.44675484
0.066317886 0.067170002 0.44680697
0.066700123 0.067157015 0.4467068
0.067092516 0.067154333 0.44667509
0.067488089 0.067154862 0.44666463
0.067859165 0.067131147 0.44649291
0.068217248 0.067094922 0.44623786
0.068600804 0.067084029 0.44615132
0.068974569 0.067063741 0.44600213
0.069353998 0.067049146 0.44589084
0.069753632 0.067054152 0.4459098
0.070148669 0.067054704 0.44589901
0.070501193 0.067014836 0.44561946
0.07087788 0.066998251 0.44549465
0.071252592 0.066980004 0.44535872
0.071617566 0.066952847 0.44516355
0.071995251 0.066937804 0.44504881
0.072406135 0.066953622 0.4451392
0.072773241 0.066929005 0.44496065
0.073153444 0.066916637 0.44486353
0.073534332 0.066905022 0.44477135
0.073891394 0.066871963 0.44453663
0.074275084 0.066863239 0.44446349
0.074657798 0.066853717 0.44438508
0.075038299 0.066842325 0.44429415
0.075439408 0.066849314 0.44432536
0.075820893 0.066838935 0.44424102
0.076204613 0.066830628 0.44417039
0.076606132 0.066837929 0.44420347
0.076996043 0.066835076 0.44416898
0.077376254 0.066823877 0.44407898
0.077750564 0.066807717 0.44395596
0.078140162 0.066804789 0.44392082
0.078531504 0.066803381 0.44389573
0.078900926 0.066783436 0.44374731
0.079294957 0.066784412 0.44373795
0.079674453 0.066773184 0.44364744
0.080052741 0.066761069 0.44355094
0.080434203 0.066751711 0.44347268
0.080805756 0.066734254 0.4433406
0.081194535 0.066731118 0.44330359
0.081565715 0.066713616 0.44317114
0.081935428 0.066695102 0.44303182
0.082280688 0.06665694 0.44276205
0.082664654 0.066650353 0.44270191
0.083051801 0.066646375 0.44265908
0.083417729 0.066625506 0.4425039
0.08382237 0.066635586 0.44255435
0.08418557 0.066612795 0.44238633
0.084536202 0.06658031 0.44215393
0.084915139 0.066570304 0.44207081
0.085288011 0.066555679 0.44195688
0.085660614 0.066540964 0.44184232
0.086015038 0.066512331 0.44163531
0.0863676 0.066482514 0.44142044
0.086743467 0.066470832 0.44132593
0.087060004 0.066413991 0.44093153
0.087453343 0.066415988 0.44092771
0.087805174 0.06638658 0.44071537
0.088170022 0.066367231 0.44056976
0.088541985 0.066353396 0.44046065
0.088891931 0.066323236 0.44024321
0.089219362 0.066276625 0.43991652
0.089609578 0.066276856 0.4399007
0.089986183 0.066267066 0.43981826
0.090357408 0.066253409 0.43971017
0.090742603 0.066250063 0.43967044
0.091082878 0.0662141 0.4394142
0.091465481 0.06620907 0.43936324
0.09180171 0.066170678 0.43909079
0.092188448 0.066168845 0.43906096
0.092562303 0.066157825 0.43897003
0.092954457 0.066159919 0.43896616
0.093306266 0.066133402 0.43877238
0.093706243 0.066141106 0.43880558
0.094061732 0.066117473 0.43863079
0.094425261 0.066099659 0.43849465
0.094805472 0.066093616 0.43843657
0.095178045 0.066082336 0.43834358
0.095527537 0.066055171 0.43814528
0.095897384 0.066042252 0.43804145
0.09626212 0.066025928 0.43791494
0.096632659 0.066013701 0.43781561
0.097012594 0.066007964 0.43775925
0.097391434 0.066001534 0.43769822
0.09779565 0.066012278 0.43775105
0.098174125 0.06600564 0.43768856
0.098581091 0.066018127 0.43775287
0.098981649 0.066026241 0.43778813
0.10424744 0.065917209 0.43680114
0.10451873 0.065843813 0.4362956
0.1048798 0.065827303 0.43616703
0.10521664 0.065795764 0.43593878
0.10545403 0.065702491 0.43530154
0.1057817 0.065665938 0.43504012
0.10609819 0.065622747 0.43473464
0.10650976 0.06563846 0.4348194
0.10686371 0.065618679 0.43466899
0.10721093 0.065594926 0.4344922
0.057177711 0.067973025 0.44980165
0.057550959 0.067944385 0.44959995
0.057928789 0.067921504 0.44943628
0.058315191 0.067908913 0.4493407
0.058685519 0.067877896 0.44912308
0.059080347 0.06787546 0.44909444
0.059467591 0.067864388 0.44900867
0.059858363 0.067857467 0.44895026
0.060239248 0.067839503 0.44881871
0.060623705 0.067825757 0.44871509
0.061010689 0.067815021 0.4486312
0.061383482 0.067788735 0.44844446
0.061773788 0.067782007 0.44838697
0.062165163 0.067776531 0.4483377
0.062516257 0.067727476 0.44800019
0.062911987 0.067727104 0.44798455
0.063292526 0.067710474 0.44786131
0.063689403 0.067711428 0.44785434
0.064061932 0.067686647 0.44767711
0.064436309 0.067664102 0.44751456
0.064810574 0.067641705 0.44735304
0.065216869 0.067652822 0.44741294
0.065570824 0.067609832 0.44711503
0.065965042 0.067608625 0.4470934
0.066357501 0.06760563 0.44705981
0.066730693 0.067583174 0.44689748
0.067107432 0.067564547 0.44676045
0.067499064 0.067561038 0.44672328
0.067870535 0.067537516 0.44655374
0.068245605 0.067517817 0.44640943
0.068618841 0.067496553 0.4462547
0.068991914 0.067475356 0.44610038
0.069391511 0.067480206 0.44611818
0.06977091 0.067465469 0.44600642
0.070156567 0.067456923 0.44593549
0.07053899 0.06744536 0.44584459
0.070897125 0.067410834 0.44560185
0.071284279 0.067404136 0.44554302
0.071654491 0.067381576 0.44537923
0.072033994 0.067367956 0.4452745
0.07241758 0.067358285 0.44519579
0.072806567 0.067353703 0.44515073
0.073193051 0.067346878 0.44509071
0.073556684 0.067319199 0.44489285
0.073920146 0.06729167 0.44469589
0.074320234 0.0672976 0.44472
0.074674994 0.067262635 0.4444738
0.075054489 0.067250192 0.44437641
0.075454764 0.067256406 0.44440222
0.075821295 0.067232639 0.44422981
0.076209441 0.067228183 0.44418496
0.076603964 0.06722936 0.44417736
0.07698144 0.067215644 0.4440712
0.077383108 0.067223094 0.44410482
0.0777632 0.067211799 0.44401461
0.078127563 0.067187101 0.44383579
0.07853581 0.067200214 0.44390658
0.078906082 0.067180842 0.44376287
0.079279363 0.06716422 0.44363719
0.079660937 0.06715475 0.44355872
0.080047697 0.067149729 0.44350961
0.080440283 0.067149609 0.4434928
0.080809988 0.067130491 0.44335043
0.081186146 0.067116886 0.44324446
0.081565857 0.067106351 0.44315863
0.081962138 0.067109466 0.44316295
0.082326338 0.067086421 0.44299442
0.08269228 0.067065001 0.44283661
0.083054565 0.067040823 0.44266054
0.083437346 0.067033358 0.44259474
0.083815768 0.067022458 0.44250622
0.08418595 0.067005113 0.44237512
0.08454629 0.066980124 0.44219348
0.084902167 0.066951849 0.44199014
0.085254341 0.066920921 0.44176921
0.085634239 0.066911951 0.44169319
0.085993029 0.066886626 0.44150919
0.086373746 0.066878527 0.44143879
0.086727634 0.066849805 0.44123229
0.087085553 0.066824451 0.44104791
0.087474443 0.066822968 0.44102105
0.08783666 0.066801213 0.44086042
0.088198557 0.06677942 0.44069937
0.088542111 0.066743977 0.44044834
0.088893138 0.066714466 0.44023627
0.089277528 0.066710137 0.4401904
0.08966957 0.06671153 0.44018224
0.090035789 0.066693798 0.4400478
0.090409406 0.066681661 0.43995032
0.090757936 0.06665121 0.4397319
0.09114188 0.066646926 0.43968603
0.091540165 0.06665311 0.43970922
0.091860577 0.066602774 0.43935955
0.092232868 0.066590317 0.43925971
0.092593446 0.066569559 0.43910497
0.092978768 0.066566683 0.4390682
0.093359873 0.06656082 0.43901172
0.09375342 0.066563845 0.43901375
0.094080403 0.066519774 0.43870521
0.094454847 0.066509493 0.43861938
0.094857976 0.066519409 0.43866676
0.095204681 0.066489838 0.43845364
0.095561966 0.066467866 0.43829066
0.095945388 0.066464171 0.4382481
0.096291162 0.06643454 0.4380345
0.096674375 0.066430867 0.43799207
0.097053908 0.066424705 0.43793318
0.097436756 0.066420853 0.43788937
0.097805463 0.066407442 0.43778253
0.098207347 0.066416547 0.43782419
0.098608755 0.066425286 0.43786329
0.098990589 0.066420808 0.43781525
0.099382661 0.066423208 0.43781248
0.10425586 0.066310495 0.43682426
0.10451119 0.066226535 0.436252
0.10489189 0.06622234 0.43620521
0.10521588 0.066182494 0.43592352
0.10550063 0.06611836 0.43548188
0.10585576 0.066098638 0.43533269
0.10622583 0.066088356 0.4352456
0.10656332 0.06605795 0.43502605
0.10692762 0.066044323 0.43491694
0.057164818 0.068355262 0.44968575
0.057572134 0.068367012 0.44975087
0.057963688 0.068360008 0.44969258
0.058334954 0.068329349 0.44947851
0.058741227 0.06833981 0.44953501
0.059111115 0.0683081 0.44931391
0.059506152 0.068305671 0.44928542
0.059872292 0.068270333 0.44904035
0.060263503 0.068263859 0.4489851
0.060662776 0.068266533 0.44898996
0.061027002 0.068229988 0.44873682
0.061410125 0.068214916 0.44862479
0.0618027 0.06821046 0.44858256
0.062187724 0.068197779 0.44848615
0.062562719 0.068174332 0.44831887
0.062946908 0.068161137 0.44821897
0.063325658 0.06814225 0.44808158
0.063719787 0.068140045 0.44805378
0.064101584 0.068124764 0.44793996
0.06448061 0.068106748 0.44780809
0.064859912 0.068089224 0.44767937
0.065234073 0.068066552 0.4475168
0.065617688 0.068053983 0.44742051
0.065996878 0.068036981 0.44729504
0.066370174 0.068014137 0.44713113
0.066752091 0.068000361 0.44702673
0.067134969 0.06798771 0.44692972
0.067513458 0.06797079 0.44680452
0.067914985 0.067977123 0.44683218
0.068278864 0.067945912 0.44661295
0.068646386 0.067918681 0.44641981
0.069015115 0.067892946 0.44623646
0.069410563 0.067893624 0.44622669
0.069787815 0.067876607 0.44610053
0.07018175 0.067875907 0.44608155
0.07056798 0.067867823 0.44601393
0.070959225 0.067864612 0.44597831
0.071328022 0.067840077 0.44580254
0.071698673 0.067817584 0.44564003
0.072063647 0.067789979 0.44544393
0.072440863 0.067774132 0.44532511
0.072815552 0.067756101 0.44519183
0.073203094 0.067750178 0.44513798
0.073605016 0.067757547 0.44517145
0.07396996 0.067730978 0.44498184
0.074337706 0.067707241 0.44481081
0.074709229 0.067687161 0.44466382
0.075073294 0.067660592 0.44447407
0.075470716 0.067664191 0.44448248
0.075842924 0.067645274 0.44434285
0.076228321 0.067638248 0.44428134
0.07660535 0.067623898 0.44417173
0.077002473 0.067627363 0.44417897
0.077375941 0.067610107 0.44405007
0.077752344 0.067595586 0.44393906
0.078129351 0.067581736 0.4438324
0.078508571 0.067569911 0.44373906
0.078896239 0.067565463 0.44369403
0.07927902 0.067556873 0.44362178
0.079661123 0.067547806 0.44354632
0.080041394 0.06753727 0.44346121
0.080416106 0.067522168 0.44334608
0.080806106 0.067520007 0.44331571
0.081181064 0.067505337 0.4432033
0.081560515 0.067494534 0.44311619
0.081946656 0.067489341 0.44306582
0.082296185 0.067454204 0.44281882
0.082680762 0.067447968 0.44276154
0.083046898 0.067426823 0.44260636
0.083436504 0.067424856 0.44257694
0.083805129 0.067406014 0.44243675
0.084168084 0.067382827 0.44226795
0.084533602 0.067361876 0.44211385
0.084883966 0.067329116 0.44188213
0.085254885 0.067312889 0.44175884
0.085624434 0.067295715 0.44162944
0.086006768 0.067288712 0.44156659
0.086357653 0.06725727 0.4413434
0.086771585 0.067274995 0.44144276
0.0871251 0.06724593 0.44123504
0.087487519 0.067223966 0.44107389
0.087857813 0.06720823 0.44095349
0.088203594 0.06717395 0.44071147
0.088537931 0.067131303 0.44041446
0.088941105 0.067140989 0.44046074
0.089296252 0.067114502 0.44026971
0.089705169 0.067128479 0.44034404
0.090062633 0.067103989 0.44016603
0.090448521 0.067100815 0.44012773
0.090803027 0.06707447 0.43993744
0.091195822 0.067076519 0.43993336
0.091601022 0.067087628 0.43998861
0.091905192 0.067024976 0.43956006
0.092270151 0.06700699 0.4394244
0.092637517 0.066990905 0.43930119
0.093009904 0.066978566 0.43920246
0.093381844 0.066966005 0.43910226
0.093802184 0.066988111 0.43922934
0.094155312 0.066962235 0.43904173
0.094528057 0.066950463 0.4389466
0.094902419 0.066939943 0.43885955
0.095207237 0.066880636 0.43845272
0.095622346 0.066898979 0.43855488
0.096004494 0.066894218 0.43850547
0.096327513 0.066848449 0.43818724
0.096703231 0.066839479 0.4381102
0.0970838 0.066833906 0.43805543
0.097481757 0.066840313 0.43807906
0.097838357 0.066818431 0.4379172
0.098208323 0.066805802 0.43781602
0.098610297 0.066814966 0.4378576
0.099016994 0.06682723 0.4379195
0.099396311 0.066821009 0.4378601
0.099782705 0.066819571 0.43783209
0.10021062 0.066845849 0.43798557
0.10388769 0.066711098 0.43691391
0.10419083 0.066656858 0.43653962
0.10453163 0.066627041 0.43632513
0.10489624 0.066612557 0.43621111
0.10526359 0.066599898 0.43610907
0.10558452 0.066558093 0.43581602
0.10590508 0.06651634 0.43552342
0.10624706 0.066488311 0.43532059
0.057597321 0.068794735 0.44993311
0.057996649 0.068796702 0.44993374
0.058370933 0.068769135 0.44974118
0.058763124 0.068762906 0.44968805
0.059143428 0.068742946 0.44954503
0.059529245 0.068729609 0.44944528
0.059898946 0.068697967 0.44922581
0.060296785 0.068698801 0.44921857
0.060678132 0.068680957 0.44908914
0.06106209 0.068666287 0.44898045
0.061435312 0.0686398 0.44879436
0.06180919 0.068614379 0.44861522
0.06220638 0.068615004 0.44860631
0.062578797 0.068588473 0.44841978
0.062950619 0.068561614 0.44823101
0.063352339 0.068567462 0.44825605
0.063733138 0.068550721 0.44813335
0.064129815 0.068551168 0.44812292
0.064508088 0.06853205 0.44798458
0.064899988 0.068527572 0.44794181
0.06525436 0.068483755 0.44764182
0.065641351 0.068474472 0.44756755
0.066021658 0.068458393 0.44744879
0.066433541 0.068475045 0.44754389
0.066781476 0.068425983 0.44720939
0.06717591 0.068424851 0.44718814
0.067537837 0.068390809 0.44695172
0.067924999 0.068382576 0.44688392
0.068306044 0.068368316 0.44677669
0.068693817 0.068360917 0.44671419
0.069046862 0.068319239 0.44642764
0.06941881 0.068296634 0.4462657
0.069825768 0.068308532 0.44632909
0.070216194 0.068304211 0.4462865
0.070598528 0.068292096 0.44619295
0.070971392 0.068271033 0.44604081
0.071362421 0.068267569 0.44600362
0.071746707 0.068257719 0.44592458
0.072094396 0.068213373 0.44562015
0.072477706 0.06820301 0.44553772
0.072855182 0.068187296 0.44542027
0.0732489 0.068186879 0.44540268
0.073640168 0.068184189 0.44537014
0.073998667 0.068151362 0.44514069
0.074370414 0.068131015 0.44499272
0.07473094 0.068100646 0.44477928
0.075118855 0.068095431 0.44473004
0.075494699 0.068079382 0.44460994
0.075871974 0.068064779 0.44449931
0.076269023 0.068067975 0.44450483
0.076609164 0.068020619 0.44418013
0.077006549 0.068024315 0.44418874
0.077392846 0.06801822 0.44413343
0.077766739 0.068001337 0.44400761
0.078148842 0.067991771 0.44392946
0.078532405 0.067983568 0.44386017
0.07890033 0.067961968 0.44370341
0.0792659 0.067938566 0.44353479
0.079657577 0.067937665 0.44351301
0.080033623 0.067923509 0.44340461
0.080421068 0.067919105 0.44335985
0.080803096 0.067910194 0.44328567
0.081187591 0.067903444 0.44322547
0.081560053 0.067886733 0.44310018
0.081947416 0.06788253 0.44305652
0.082299322 0.067849137 0.44282228
0.08267574 0.067836165 0.44272128
0.083039321 0.06781283 0.4425526
0.083427064 0.067809358 0.44251347
0.083795227 0.067790076 0.44237116
0.08415845 0.067767002 0.44220394
0.084518284 0.067741416 0.44202042
0.084904023 0.067736737 0.44197324
0.085282378 0.067726247 0.44188806
0.085658729 0.067714252 0.44179302
0.086003192 0.067677274 0.44153494
0.086394183 0.067677096 0.44151685
0.086773209 0.067667574 0.44143781
0.087122023 0.067634679 0.44120628
0.087515607 0.067636698 0.44120234
0.087895624 0.067628235 0.4411301
0.088272408 0.067617387 0.44104218
0.088597968 0.067567557 0.44070002
0.088984393 0.067564391 0.44066209
0.089311317 0.067516267 0.44033089
0.089729659 0.067537367 0.4404512
0.090072796 0.067501925 0.44020265
0.090482526 0.067516491 0.44028017
0.090872593 0.067516305 0.44026151
0.091225922 0.067488946 0.44006556
0.091609679 0.067484237 0.44001728
0.091987416 0.067475148 0.43994039
0.092329115 0.067439809 0.43969232
0.092680976 0.067412175 0.43949434
0.093057625 0.06740272 0.43941495
0.093448862 0.067403853 0.43940452
0.093822166 0.067392111 0.4393101
0.094154336 0.067351036 0.43902439
0.094562508 0.067364432 0.43909377
0.094907619 0.06733299 0.43887079
0.095265776 0.067311019 0.43870956
0.095673896 0.067324385 0.43877858
0.096022613 0.067296021 0.43857551
0.096399777 0.067287728 0.4385033
0.096767075 0.067272641 0.43838674
0.097101912 0.067235209 0.43812451
0.097498208 0.067240447 0.43814036
0.097866811 0.067226633 0.43803194
0.098253183 0.067225076 0.43800339
0.098623522 0.067212611 0.4379037
0.099015854 0.067215174 0.43790191
0.099403307 0.067214414 0.43787843
0.099780783 0.067206949 0.43781114
0.10017633 0.06721165 0.43782315
0.10057193 0.067216359 0.43783516
0.10095177 0.06721054 0.43777847
0.10145622 0.067287408 0.43826038
0.10217811 0.067250483 0.43798211
0.10327803 0.067207254 0.43764371
0.10355996 0.067138143 0.43717468
0.10387424 0.067090444 0.436845
0.10418667 0.067041911 0.43650988
0.10452324 0.067009211 0.43627787
0.1049167 0.067013085 0.43628398
0.10529002 0.067004114 0.43620637
0.10566346 0.066995293 0.43612966
0.10599289 0.066958725 0.43587238
0.10628978 0.066901945 0.43548349
0.10659105 0.066848323 0.4351151
0.058017898 0.069219857 0.45008394
0.058401015 0.069202445 0.44995841
0.058784813 0.069186047 0.44983941
0.059159443 0.069159172 0.44965219
0.059534803 0.069133483 0.4494727
0.059952419 0.069156893 0.44961226
0.060334772 0.069139577 0.44948706
0.060726698 0.069133393 0.44943407
0.061092626 0.069097884 0.44919044
0.061440755 0.069042832 0.44881967
0.061836705 0.069041871 0.44880053
0.062235534 0.069044121 0.44880214
0.062615052 0.069025055 0.44866517
0.062992625 0.069004081 0.44851571
0.06338878 0.069003619 0.44849947
0.063769691 0.068986669 0.44837603
0.064151295 0.068970665 0.4482587
0.064543039 0.068965696 0.44821298
0.064900041 0.068923883 0.4479278
0.065285824 0.068912968 0.44784331
0.065683186 0.068914331 0.44783857
0.066049337 0.068883128 0.44762212
0.066423215 0.068860307 0.44746009
0.066844471 0.068886563 0.4476169
0.067229249 0.068875164 0.44752893
0.067644738 0.068895161 0.44764495
0.06875392 0.068816394 0.44709095
0.069109 0.068776146 0.44681531
0.069450557 0.068722986 0.44645566
0.069833986 0.068711616 0.44636753
0.070242174 0.06872461 0.44643754
0.070619509 0.068707436 0.44631156
0.071019955 0.068712823 0.44633201
0.071405351 0.068703644 0.44625783
0.071748599 0.068654254 0.44592237
0.072135605 0.068647042 0.44586086
0.072501436 0.068619862 0.44566962
0.072892413 0.068616651 0.44563395
0.073293775 0.068623208 0.44566163
0.073653325 0.068590745 0.44543588
0.074020602 0.068565778 0.44525877
0.074424565 0.068574898 0.44530284
0.074790739 0.068549268 0.44512135
0.07513953 0.068508051 0.44483852
0.07552439 0.068499997 0.44477099
0.075910881 0.068493493 0.44471344
0.07629022 0.068480626 0.44461459
0.076670326 0.068468593 0.44452101
0.077054359 0.068460159 0.44445077
0.077438958 0.068452314 0.44438431
0.077796079 0.068420388 0.44416144
0.078180335 0.068412505 0.44409466
0.078558363 0.068399303 0.44399321
0.078913867 0.068366714 0.44376588
0.079292633 0.068354495 0.44367075
0.079681449 0.068351023 0.4436323
0.080054425 0.06833405 0.44350627
0.080428481 0.068318166 0.44338718
0.080810487 0.068309166 0.44331264
0.081183732 0.068292879 0.44319081
0.081563719 0.068282381 0.44310656
0.081949286 0.068276636 0.44305307
0.082311317 0.068251438 0.4428733
0.082680255 0.068232171 0.44273195
0.083061665 0.068223335 0.44265825
0.083438583 0.068210907 0.44256112
0.083834328 0.068213917 0.44256419
0.084197566 0.068190567 0.44239607
0.084572509 0.068176873 0.44229066
0.08492171 0.068142645 0.44205195
0.085327253 0.068153739 0.44210717
0.085675508 0.068119183 0.44186625
0.086051486 0.068106882 0.4417696
0.086419106 0.068088099 0.44163093
0.086796336 0.06807702 0.44154218
0.087179676 0.068070821 0.44148499
0.087541573 0.068048015 0.44131997
0.087917857 0.068036526 0.44122845
0.088314794 0.068041071 0.44124076
0.088647105 0.067995988 0.44093123
0.089002505 0.067968942 0.44073862
0.089376993 0.067956649 0.44064161
0.08974649 0.067940675 0.4405207
0.090112962 0.067922562 0.44038591
0.090513818 0.067930415 0.44041935
0.090888485 0.067918628 0.44032544
0.091252007 0.067898639 0.44017833
0.091641434 0.067898028 0.44015676
0.091978669 0.067858912 0.43988556
0.092400976 0.067882612 0.44002154
0.09274447 0.067848466 0.4397825
0.093097426 0.067821495 0.43958995
0.093467511 0.067807183 0.43947935
0.093839161 0.067794114 0.43937677
0.094244137 0.067805126 0.43943027
0.094600506 0.067781232 0.43925741
0.094988242 0.067779906 0.4392308
0.095327631 0.067744233 0.43898156
0.095698215 0.067730933 0.43887728
0.096052237 0.067706071 0.43869799
0.096434504 0.067701228 0.43864846
0.096793137 0.067679912 0.43849209
0.097187862 0.067683876 0.43849957
0.097536504 0.067655869 0.43829978
0.097922541 0.067653902 0.43826869
0.098267041 0.067623384 0.43805256
0.098677494 0.0676383 0.43813074
0.099046618 0.067624882 0.43802533
0.099399664 0.067600638 0.43784976
0.099788032 0.067600511 0.43783036
0.100168 0.067594722 0.43777418
0.10055833 0.067595929 0.43776339
0.10094236 0.067592919 0.43772516
0.1013333 0.067594536 0.43771687
0.10171951 0.067593001 0.43768808
0.10210612 0.067591742 0.43766111
0.1024349 0.06755235 0.43738717
0.10281344 0.06754595 0.43732679
0.10319477 0.06754142 0.43727848
0.10350379 0.067489773 0.43692514
0.10386106 0.067469865 0.4367772
0.10420485 0.067441382 0.43657374
0.1045258 0.067398369 0.43627626
0.10490957 0.067396045 0.43624201
0.10532071 0.067411236 0.43632123
0.10568106 0.067393951 0.43619007
0.10604934 0.067381822 0.43609232
0.058411904 0.06961327 0.45002756
0.058799617 0.069601342 0.44993806
0.059180439 0.069581464 0.44979709
0.059577145 0.069580406 0.44977775
0.059953503 0.069555745 0.44960576
0.060352024 0.069556959 0.44960099
0.060742706 0.069549188 0.44953799
0.061118055 0.069524072 0.44936281
0.061513402 0.069521874 0.44933578
0.061885815 0.069493957 0.44914243
0.062284954 0.069496214 0.44914401
0.062639341 0.069448821 0.44882467
0.063017294 0.069427997 0.44867691
0.06340722 0.069420531 0.44861552
0.063808851 0.069425911 0.44863695
0.064182386 0.069400817 0.4484615
0.064563721 0.069384433 0.4483422
0.064946599 0.06936989 0.44823474
0.065323427 0.069349088 0.44808686
0.065710127 0.069338985 0.44800794
0.066096142 0.069328263 0.447925
0.066460408 0.069294982 0.4476963
0.066886768 0.06932646 0.44788587
0.069439165 0.069106765 0.44636828
0.07143826 0.06913051 0.44644946
0.071782976 0.069082066 0.44612202
0.072166443 0.069071233 0.44603738
0.072554782 0.069065168 0.44598347
0.072909109 0.069026977 0.44572201
0.073306583 0.069029808 0.44572544
0.073685728 0.069015458 0.44561782
0.074084155 0.069019206 0.44562703
0.074477762 0.069018453 0.44560716
0.07481695 0.068967544 0.44526333
0.075202569 0.068959758 0.44519788
0.075566411 0.068932176 0.44500458
0.075945869 0.068919055 0.44490457
0.076346107 0.068924822 0.44492644
0.076702371 0.068891034 0.44469297
0.077091083 0.068886586 0.44464874
0.077463783 0.068867952 0.44451293
0.077849455 0.068860985 0.44445238
0.078232244 0.068851538 0.44437575
0.078585908 0.068816692 0.44413513
0.078970939 0.068809517 0.44407305
0.079343297 0.068791427 0.44394052
0.079724304 0.068780974 0.44385722
0.08010269 0.068768382 0.44375995
0.08045686 0.068735212 0.44352993
0.080827661 0.068716511 0.44339326
0.081214555 0.068711601 0.44334546
0.081589043 0.068696298 0.44323057
0.081986167 0.068700112 0.44323891
0.082338654 0.068666659 0.44300681
0.082704924 0.068644956 0.44285053
0.08308354 0.068633668 0.44276127
0.083464235 0.068624184 0.4426837
0.083853193 0.068621568 0.44265026
0.084240317 0.068617463 0.44260728
0.084599361 0.068590626 0.44241759
0.084997132 0.068595313 0.44243112
0.08536569 0.068576477 0.44229293
0.085689679 0.06852217 0.44192594
0.086083449 0.068523906 0.44192028
0.086456023 0.068508834 0.44180626
0.086819284 0.068486542 0.44164556
0.087201484 0.068479329 0.44158208
0.087601952 0.068486467 0.44161105
0.087969735 0.068468094 0.44147551
0.088329896 0.068443976 0.44130293
0.088705339 0.068431862 0.44120765
0.089063346 0.06840647 0.44102666
0.089450769 0.068403795 0.44099212
0.089778826 0.068355925 0.44066623
0.090180807 0.068364523 0.44070429
0.090527229 0.068331107 0.44047144
0.090923034 0.068335101 0.44047967
0.09133219 0.068349034 0.44055203
0.091627784 0.068278246 0.44007814
0.092010401 0.068272613 0.44002423
0.092413567 0.068282217 0.44006845
0.09276624 0.06825459 0.43987271
0.093142867 0.068244748 0.4397915
0.093528233 0.068241358 0.43975183
0.09389744 0.068226255 0.43963665
0.09424942 0.068198815 0.43944192
0.094675943 0.068225309 0.43959469
0.095019057 0.068191737 0.43936035
0.095347136 0.068147689 0.43905854
0.09575399 0.068160072 0.4391202
0.096089192 0.06812156 0.43885398
0.096494369 0.068132758 0.43890795
0.096852511 0.068110794 0.43874824
0.097216189 0.06809289 0.43861461
0.097591698 0.068083383 0.43853503
0.097984374 0.068085864 0.43853268
0.098357365 0.068074711 0.43844241
0.098740242 0.068070456 0.4383966
0.0990633 0.068025164 0.43808642
0.099438295 0.068015747 0.43800724
0.099811405 0.068005122 0.43792021
0.10019317 0.068000458 0.43787158
0.10056018 0.06798584 0.43775883
0.1009421 0.067981385 0.43771142
0.10132893 0.06798026 0.43768546
0.10170887 0.067974538 0.43762982
0.10206762 0.067954741 0.43748352
0.10242498 0.067934178 0.43733227
0.1028128 0.067933902 0.43731159
0.10320271 0.067934997 0.43729967
0.10353323 0.067897141 0.43703702
0.10387079 0.067864157 0.43680573
0.10421281 0.067834333 0.43659469
0.1045429 0.06779699 0.43633524
0.10494919 0.06780915 0.43639442
0.10534698 0.067815758 0.43641773
0.10569651 0.067791358 0.43624154
0.10609604 0.067799099 0.43627205
0.058823325 0.070027426 0.45010474
0.059225567 0.070032574 0.45012537
0.059600197 0.070005216 0.44993705
0.059990413 0.069996424 0.4498679
0.060368247 0.069973379 0.44970715
0.060752362 0.069957867 0.44959477
0.061143044 0.069950081 0.44953191
0.061541066 0.06995073 0.44952321
0.061915502 0.069924742 0.44934326
0.062283751 0.069892131 0.44912073
0.062695965 0.069908962 0.44921583
0.063064121 0.06987676 0.4489958
0.063442849 0.069856606 0.44885305
0.063819043 0.069833927 0.44869405
0.064218454 0.069836766 0.448699
0.064589813 0.069809258 0.44850886
0.064997114 0.069820702 0.44856897
0.065383188 0.06980934 0.44848239
0.065750085 0.069777749 0.44826588
0.066141076 0.069771968 0.44821504
0.071817152 0.06951005 0.44632024
0.072206378 0.069504522 0.44627005
0.072577067 0.069481321 0.44610631
0.072941087 0.069452018 0.44590339
0.073333144 0.069449574 0.44587287
0.073696457 0.069420092 0.44566864
0.074085154 0.06941469 0.44561899
0.074499018 0.069432825 0.44572031
0.074865974 0.069407262 0.44554114
0.075209245 0.069360122 0.44522339
0.075585023 0.069343306 0.44510019
0.075978406 0.069342725 0.4450812
0.076347843 0.06932041 0.44492263
0.076734133 0.069313549 0.44486317
0.077106416 0.06929417 0.44472331
0.077498905 0.069293052 0.44470063
0.077866271 0.06926959 0.44453448
0.078268111 0.069276884 0.44456565
0.078605615 0.06922745 0.4442327
0.079023235 0.069248699 0.44435331
0.079392321 0.069227427 0.44420099
0.079766661 0.069210924 0.44407922
0.080128804 0.069184057 0.4438909
0.080532767 0.069193356 0.44393462
0.080889493 0.069162205 0.4437187
0.081245452 0.069130689 0.44350043
0.081644744 0.06913618 0.44351947
0.082019001 0.069120511 0.44340274
0.08235272 0.069071002 0.44306886
0.082741238 0.069067687 0.44303131
0.083123788 0.069059461 0.44296214
0.083495706 0.069042511 0.442837
0.083883971 0.069039181 0.44279912
0.084274903 0.069038056 0.44277543
0.084666386 0.069037408 0.44275463
0.085038267 0.069020838 0.44263172
0.085379496 0.068979666 0.44235095
0.085787609 0.068992652 0.4424175
0.086122751 0.068947114 0.44210863
0.086515248 0.068947688 0.44209546
0.086856656 0.068907715 0.44182229
0.087257572 0.068915099 0.44185269
0.087599806 0.068876304 0.44158691
0.087995924 0.068880014 0.44159362
0.08836437 0.068862125 0.44146183
0.088744491 0.068853453 0.44138905
0.089122646 0.068843342 0.44130701
0.089478865 0.068816453 0.44111738
0.089846492 0.06879852 0.44098511
0.090192184 0.068764031 0.44074667
0.090600692 0.068777509 0.44081569
0.090985931 0.068773299 0.44077119
0.09132769 0.068736389 0.44051716
0.09169545 0.068719283 0.44038996
0.092093855 0.068725199 0.44041023
0.092429906 0.068684712 0.44013315
0.092835091 0.068695739 0.44018605
0.093191668 0.068670854 0.44000882
0.093556404 0.068652153 0.43987122
0.093955785 0.068658933 0.43989682
0.094304949 0.068629101 0.43968782
0.094692551 0.06862738 0.43965882
0.095033072 0.068591692 0.43941221
0.095422126 0.068591177 0.4393909
0.095790602 0.068575941 0.43927518
0.096164338 0.068564579 0.43918425
0.096497208 0.068524279 0.43890795
0.096914656 0.068544134 0.43901691
0.097245909 0.068503097 0.43873587
0.097645402 0.068510287 0.43876353
0.098012105 0.068494484 0.43864402
0.098395623 0.068490513 0.43860018
0.098763704 0.068475872 0.43848801
0.099115752 0.06845028 0.43830565
0.099474102 0.068429224 0.43815228
0.09982077 0.068400316 0.43794864
0.10018167 0.068381354 0.43780863
0.1005634 0.06837669 0.43776017
0.10094853 0.068374373 0.43772662
0.10133462 0.068372734 0.43769738
0.1017032 0.068359315 0.43759272
0.10208528 0.068355054 0.43754664
0.10245413 0.068342 0.43744421
0.10286584 0.068357512 0.43752459
0.10321119 0.068328984 0.43732309
0.10352162 0.068277642 0.43697545
0.10383107 0.068226039 0.43662623
0.10420774 0.06821882 0.43656102
0.10460225 0.068223283 0.4365705
0.10497574 0.068214059 0.43649241
0.10539391 0.06823384 0.43659976
0.10581324 0.068254203 0.43671086
0.05922294 0.070427507 0.45009062
0.059623342 0.070430458 0.45009699
0.06002355 0.070433155 0.45010158
0.060393617 0.07040067 0.4498814
0.060788963 0.070397891 0.44985089
0.06117554 0.070385054 0.44975612
0.061539181 0.070346177 0.44949478
0.061945833 0.070356637 0.44954875
0.062322717 0.070333362 0.44938698
0.062676869 0.070284888 0.44906431
0.063092835 0.070305921 0.44918555
0.063484311 0.070299566 0.44913176
0.063824482 0.070236839 0.44871771
0.064241722 0.070259154 0.448847
0.064614147 0.070232488 0.44866326
0.06500119 0.070221946 0.44858247
0.065390855 0.070214361 0.44852045
0.065788694 0.070215583 0.44851461
0.072225116 0.069917731 0.44637167
0.072593682 0.06989225 0.44619426
0.072992899 0.0698964 0.44620594
0.073349498 0.069859907 0.44595814
0.073742785 0.069858566 0.44593462
0.074136205 0.069857366 0.445912
0.074520163 0.069847308 0.4458327
0.074901484 0.069834888 0.44573835
0.075294867 0.069833793 0.4457162
0.075627439 0.069776602 0.44533595
0.076027438 0.069781885 0.44535437
0.076412566 0.06977354 0.4452858
0.076772682 0.069742553 0.44507265
0.077153139 0.069730259 0.4449788
0.077529088 0.069714054 0.44485986
0.07792338 0.069714427 0.44484657
0.078333117 0.069728531 0.44492096
0.078654021 0.069663815 0.44449234
0.079038367 0.069655657 0.44442454
0.07942193 0.069646895 0.44435281
0.079781137 0.069616951 0.44414595
0.080168724 0.069611967 0.44409817
0.080539033 0.069592088 0.44395539
0.080922052 0.069583327 0.44388348
0.081305228 0.069574796 0.44381297
0.081667528 0.06954857 0.44362944
0.082064383 0.06955187 0.44363436
0.082423747 0.069523521 0.44343725
0.082763128 0.069478668 0.44313484
0.083141059 0.069466442 0.44304049
0.083515331 0.069451287 0.44292742
0.083912201 0.069454975 0.44293454
0.084287144 0.069440573 0.44282615
0.084691018 0.069450021 0.44286978
0.085056975 0.069428436 0.4427155
0.085403867 0.069391564 0.44246367
0.085819893 0.069410935 0.44257045
0.086174652 0.069380805 0.44236153
0.086521782 0.069344833 0.44211534
0.086913094 0.069344431 0.44209588
0.08729028 0.069332823 0.44200492
0.087623529 0.06928657 0.44169304
0.088034019 0.069301531 0.44177133
0.088396259 0.069278546 0.44160771
0.088773593 0.069267541 0.44152042
0.089161299 0.069264688 0.44148505
0.089532487 0.069249086 0.44136831
0.089866318 0.069204852 0.4410691
0.090267792 0.069212876 0.4411028
0.090650089 0.069206171 0.44104269
0.091007113 0.069180317 0.44086051
0.091401815 0.069183215 0.44086143
0.091753222 0.06915345 0.44065419
0.092128061 0.069141515 0.44056058
0.092505813 0.069131866 0.44048142
0.092851326 0.069098301 0.44024989
0.093218602 0.069081165 0.44012287
0.093583748 0.069062568 0.43998665
0.09398853 0.069073282 0.44003701
0.09435688 0.069057219 0.43991685
0.094723158 0.069039784 0.43978786
0.095096081 0.069027334 0.43969053
0.095474862 0.069019206 0.4396207
0.095827132 0.068992049 0.4394297
0.096223839 0.068996988 0.43944299
0.096575387 0.06896963 0.43925062
0.096943207 0.068954065 0.43913326
0.097278073 0.068915285 0.43886808
0.097660668 0.068910487 0.43881917
0.098060019 0.068917505 0.43884555
0.098426938 0.068901755 0.4387269
0.098801441 0.068891428 0.43864274
0.099202305 0.06889949 0.43867558
0.099540219 0.068863936 0.4384307
0.099866964 0.068820961 0.43813851
0.10019805 0.068781294 0.4378674
0.1005959 0.068787597 0.43788892
0.10097646 0.068782069 0.43783504
0.10136431 0.068781532 0.43781289
0.10174018 0.068772905 0.43773919
0.1021407 0.068780929 0.43777153
0.10251326 0.06877014 0.43768403
0.10287517 0.068752319 0.43755171
0.10321669 0.068721056 0.43733376
0.10354146 0.068678916 0.43704671
0.10389229 0.068654314 0.43687111
0.10428698 0.068658762 0.43688044
0.1046636 0.068651333 0.4368141
0.10503996 0.068643786 0.43674695
0.10542081 0.068639219 0.43669873
0.10585854 0.068671577 0.43688545
0.059638925 0.070847012 0.45019972
0.060037255 0.070847385 0.4501895
0.060441688 0.07085491 0.45022467
0.060821906 0.070834123 0.45007989
0.061214644 0.070828095 0.45002881
0.061597224 0.070810467 0.44990396
0.061967906 0.070779473 0.44969413
0.06237717 0.070792668 0.44976494
0.0627468 0.070760988 0.44955063
0.063097358 0.070708342 0.44920304
0.063500024 0.070714384 0.4492282
0.063876763 0.070691653 0.44907057
0.064272061 0.070689619 0.44904435
0.064663313 0.070683174 0.44899002
0.065053627 0.070675813 0.44892976
0.065443262 0.070667788 0.44886526
0.065841682 0.070669286 0.44886124
0.072249919 0.07033705 0.44651067
0.072625063 0.070317663 0.4463729
0.073019803 0.070317358 0.44635621
0.073405504 0.070308395 0.44628441
0.07377819 0.070287123 0.44613451
0.074163884 0.070278421 0.44606426
0.074558452 0.07027816 0.44604754
0.07494241 0.070267968 0.44596776
0.075335316 0.07026621 0.44594151
0.075665027 0.07020583 0.44554308
0.076052703 0.070199609 0.44548827
0.076420709 0.070175372 0.44531915
0.076807998 0.070169009 0.44526333
0.077199265 0.070166312 0.44523081
0.077566981 0.070142351 0.4450632
0.077966422 0.070147179 0.44507831
0.078324385 0.070114814 0.44485736
0.078717105 0.070113741 0.44483483
0.079078019 0.070084497 0.44463351
0.079446368 0.070062086 0.44447559
0.079814367 0.070039608 0.44431704
0.080213718 0.070044704 0.44433349
0.080583647 0.070024192 0.44418743
0.080960535 0.070009895 0.44408071
0.081341639 0.069999367 0.44399786
0.081723183 0.069989316 0.44391796
0.082095578 0.069971569 0.44378918
0.082443327 0.069933079 0.4435288
0.082837746 0.069934353 0.44352061
0.083153613 0.069869608 0.44309363
0.08352641 0.06985309 0.44297248
0.083935663 0.069867074 0.44304463
0.084345952 0.069881774 0.44312137
0.084706761 0.069855556 0.44293848
0.085116528 0.069869742 0.44301185
0.085496195 0.069859207 0.44292834
0.085852295 0.069829598 0.4427239
0.086185783 0.069781959 0.44240505
0.086586297 0.069788769 0.44243142
0.086932473 0.069751926 0.4421809
0.087316297 0.069745474 0.44212312
0.087672718 0.069717295 0.44192743
0.088097617 0.069743581 0.44207704
0.088473745 0.069731191 0.44198135
0.088826068 0.069700226 0.44176793
0.08918231 0.069672599 0.44157565
0.089527644 0.069636725 0.44133103
0.089924768 0.069641277 0.44134256
0.090271041 0.06960658 0.44110534
0.090694629 0.069631524 0.44124603
0.091026925 0.069586478 0.44094315
0.09144067 0.069603831 0.44103551
0.091807157 0.069585189 0.44089991
0.092158511 0.069555297 0.4406929
0.092524722 0.069536813 0.44055817
0.092874378 0.069506109 0.44034591
0.09327215 0.069511518 0.44036245
0.093622342 0.069481567 0.44015491
0.09402924 0.069493778 0.44021443
0.094407223 0.069484599 0.4401384
0.094753012 0.069451898 0.43991336
0.095107295 0.069425665 0.43972921
0.095520787 0.069442697 0.43981907
0.095855415 0.069402479 0.43954632
0.096239388 0.06939818 0.43950096
0.096600778 0.069377683 0.43935302
0.096978977 0.069369398 0.43928233
0.097338624 0.06934794 0.43912819
0.0977346 0.069352441 0.43913844
0.09807273 0.069316015 0.43888947
0.098457113 0.069312453 0.43884853
0.098882012 0.069337316 0.43898752
0.099172927 0.069268405 0.43853274
0.099571772 0.069275118 0.43855676
0.099912062 0.069241203 0.43832353
0.10027072 0.069220237 0.43817222
0.10063329 0.069202103 0.43803886
0.10099828 0.069185793 0.4379169
0.10138825 0.069186635 0.43790352
0.10175522 0.069171846 0.4377912
0.10217155 0.069190584 0.43789098
0.10256241 0.069192007 0.43788117
0.10291554 0.069168054 0.43771073
0.10321923 0.069111176 0.43733189
0.10360198 0.069107473 0.43728951
0.10395876 0.069086529 0.43713802
0.10429896 0.069054782 0.43691805
0.10469069 0.069057234 0.43691459
0.10508405 0.069060743 0.43691769
0.060043342 0.071252771 0.45022026
0.060456432 0.071270488 0.45031956
0.060851675 0.071267061 0.45028523
0.061223026 0.071235895 0.45007554
0.061625004 0.071240522 0.45009196
0.062008984 0.071224436 0.44997737
0.062376644 0.07118991 0.44974628
0.0627767 0.07119257 0.44975004
0.063142262 0.071156323 0.44950792
0.06353572 0.071151771 0.44946596
0.063906468 0.071121998 0.44926471
0.064303651 0.071121819 0.44925025
0.064696878 0.071117312 0.44920835
0.065083452 0.071105585 0.44912082
0.065486103 0.071111463 0.44914445
0.065915383 0.071145996 0.44934896
0.07224384 0.070726402 0.44645879
0.072647244 0.070734456 0.44649491
0.073041148 0.070733219 0.44647232
0.073424824 0.07072214 0.44638753
0.073807351 0.070710093 0.44629657
0.074196577 0.07070455 0.44624665
0.07458692 0.070700124 0.44620368
0.074982688 0.070700854 0.44619319
0.075358056 0.070682451 0.44606185
0.075708076 0.070640579 0.44578242
0.076101787 0.0706397 0.44576159
0.076459296 0.070605397 0.44552985
0.076859839 0.070610993 0.44554973
0.077207506 0.070568189 0.44526419
0.077601358 0.070567816 0.44524637
0.077971376 0.070545897 0.44509247
0.078388765 0.070566833 0.44520897
0.078761883 0.070547916 0.44507387
0.07912311 0.070518568 0.44487301
0.079485208 0.070490301 0.44467887
0.079851203 0.070465744 0.44450811
0.080252051 0.070472032 0.44453186
0.080604948 0.070436366 0.44429094
0.08099106 0.070429914 0.44423419
0.081389569 0.070434265 0.44424558
0.081735849 0.070393592 0.44397286
0.082128227 0.07039281 0.44395176
0.082508579 0.070381783 0.44386595
0.082902908 0.070382729 0.44385564
0.083240286 0.07033553 0.44354168
0.083567858 0.070280537 0.4431785
0.083955497 0.070276342 0.44313556
0.084381625 0.07030426 0.44329503
0.084727801 0.070265591 0.44303471
0.085094437 0.070244193 0.4428831
0.085501261 0.070255987 0.44294086
0.085888676 0.07025183 0.44289786
0.086227715 0.070208296 0.44260663
0.086589858 0.070183888 0.44243598
0.087015606 0.070211038 0.44259015
0.087357387 0.070170462 0.44231752
0.087747052 0.07016857 0.44228858
0.088149562 0.070176907 0.44232407
0.088520981 0.070160538 0.44220376
0.088878214 0.070133112 0.44201374
0.089243487 0.070112243 0.44186503
0.089626037 0.070105083 0.44180262
0.089967445 0.070065923 0.44153857
0.090353884 0.070062019 0.44149664
0.090709023 0.070033997 0.44130269
0.091097541 0.070031866 0.44127181
0.091487385 0.070030786 0.44124746
0.091834538 0.069997162 0.44101807
0.092216857 0.069990508 0.44095856
0.092575237 0.06996581 0.44078538
0.092984408 0.069979571 0.44085431
0.093289189 0.069914967 0.44042963
0.093646362 0.06989 0.44025457
0.094060697 0.069907732 0.44034842
0.094428495 0.069890872 0.44022435
0.094818674 0.069890641 0.44020495
0.095182002 0.069870703 0.44006142
0.095533155 0.069842033 0.43986285
0.095917992 0.069838114 0.43982011
0.096283011 0.069819853 0.43968704
0.096657701 0.069808722 0.43959883
0.096999861 0.069774292 0.43936381
0.097352855 0.069747902 0.43917936
0.097781263 0.069775529 0.43933505
0.09811414 0.069735035 0.43906179
0.098478168 0.069716908 0.43892932
0.098892175 0.069734186 0.43901965
0.09925805 0.069717504 0.43889618
0.099614903 0.069694653 0.43873382
0.099950217 0.069656961 0.43847802
0.10029837 0.069628477 0.43828017
0.100674 0.069619216 0.43820325
0.10107494 0.069627456 0.43823645
0.10141798 0.069595903 0.43801913
0.1018188 0.069604084 0.43805191
0.10220507 0.069602296 0.4380219
0.1025833 0.069595069 0.43795761
0.10294674 0.069577895 0.43783066
0.10332882 0.069573417 0.43778357
0.10363508 0.069518089 0.43741649
0.10402115 0.069516525 0.4373877
0.10435967 0.069483317 0.43715972
0.10474019 0.069478214 0.43710855
0.10514785 0.069491059 0.43717036
0.060476113 0.071692109 0.45045114
0.060847189 0.071660064 0.45023713
0.061249565 0.071665049 0.45025563
0.061640404 0.071656555 0.45018947
0.062016621 0.071631297 0.45001784
0.062423341 0.071641356 0.45006809
0.062820837 0.071640767 0.45005137
0.063187711 0.071605489 0.44981661
0.063558996 0.071575619 0.44961581
0.0639636 0.071583413 0.44965148
0.064325675 0.07154379 0.44938934
0.064717904 0.071537994 0.44933954
0.065122426 0.071545795 0.44937506
0.065509349 0.071534246 0.44928905
0.065942012 0.071572497 0.4495157
0.066408046 0.071646303 0.44996554
0.072697297 0.071178779 0.4467881
0.073051356 0.071138464 0.4465203
0.073465146 0.07115645 0.44661835
0.073841885 0.071138553 0.44649106
0.074252211 0.071153015 0.44656688
0.074628063 0.071134463 0.44643545
0.074977651 0.071091212 0.44614893
0.075372659 0.07109125 0.44613397
0.075766504 0.071090192 0.44611222
0.076141723 0.071071766 0.44598129
0.076515593 0.071052276 0.44584367
0.07686352 0.071009018 0.44555682
0.077275462 0.071025036 0.44564188
0.077646539 0.071003526 0.44549143
0.078016378 0.070981108 0.44533524
0.078418076 0.070987746 0.44536123
0.078763135 0.070943311 0.44506681
0.079155602 0.070941806 0.4450416
0.079537787 0.070931144 0.44495896
0.079911694 0.070913248 0.44483081
