# .PCD v0.7 - Point Cloud Data file format
VERSION 0.7
FIELDS x y z
SIZE 4 4 4
TYPE F F F
COUNT 1 1 1
WIDTH 1416
HEIGHT 1
VIEWPOINT 0 0 0 1 0 0 0
POINTS 1416
DATA ascii
0.11868563 0.017578863 0.38820812
0.119003 0.017574754 0.38809666
0.11930235 0.017568018 0.38792714
0.1196243 0.017564634 0.38783172
0.11995651 0.017562777 0.38776994
0.1203072 0.017563624 0.38776788
0.12063126 0.017560592 0.38768014
0.12092742 0.017553531 0.38750342
0.12124536 0.017549656 0.38739708
0.1215592 0.017545216 0.38727823
0.12190434 0.017545303 0.38725933
0.12224633 0.017544938 0.38723043
0.12251397 0.017533936 0.38696671
0.12290163 0.017540123 0.3870824
0.12319733 0.017533189 0.38690847
0.12350392 0.017527839 0.38676953
0.12381529 0.017523194 0.38664615
0.12414444 0.017521085 0.38657871
0.12448933 0.017521203 0.38656035
0.12478917 0.017514998 0.38640252
0.12510958 0.017511705 0.386309
0.12543128 0.017508611 0.3862198
0.12578036 0.017509347 0.386215
0.12609039 0.017504651 0.38609055
0.12640208 0.017500218 0.38597178
0.12672721 0.017497662 0.38589439
0.12701491 0.017489966 0.38570368
0.12733386 0.017486602 0.38560858
0.12767063 0.017485699 0.38556764
0.12799743 0.017483439 0.3854968
0.12833551 0.017482726 0.38546008
0.12869127 0.017484417 0.38547638
0.12900034 0.017479774 0.38535303
0.12934949 0.017480575 0.3853496
0.12970044 0.017481614 0.38535148
0.1300613 0.017483974 0.38538253
0.13044825 0.017489826 0.38549048
0.13080542 0.017491663 0.38550985
0.13123156 0.01750269 0.38573182
0.098902948 0.018158164 0.39450216
0.099236049 0.018155124 0.39441696
0.099559657 0.01815038 0.39429465
0.099875987 0.018144345 0.3941443
0.10020429 0.018140519 0.3940419
0.10046442 0.018124422 0.39367294
0.10078901 0.018120022 0.39355806
0.10112864 0.01811835 0.39350235
0.10144582 0.018112678 0.39335981
0.10174735 0.018104265 0.39315763
0.10209541 0.018104158 0.39313588
0.10241196 0.018098485 0.39299312
0.10273375 0.01809377 0.39287126
0.10307554 0.018092601 0.39282626
0.10339295 0.018087171 0.39268881
0.1037593 0.01809031 0.3927373
0.10404485 0.018079391 0.39248061
0.10440125 0.018080814 0.39249185
0.10468504 0.018069694 0.39223072
0.10500719 0.018065246 0.39211443
0.10536254 0.018066524 0.39212242
0.10571136 0.018066676 0.39210591
0.10605389 0.018065752 0.39206597
0.10635548 0.018057888 0.39187542
0.10666832 0.018051974 0.39172727
0.10699591 0.01804859 0.39163387
0.10733666 0.018047441 0.39158899
0.10766818 0.018044753 0.39151067
0.10800745 0.018043375 0.39146078
0.10826478 0.01802836 0.39111501
0.10860769 0.018027648 0.39107949
0.10894424 0.01802589 0.39102131
0.10929287 0.018026132 0.39100647
0.10963983 0.018026102 0.39098564
0.10994264 0.018018832 0.39080784
0.11030205 0.018020859 0.39083153
0.11059579 0.018012177 0.39062303
0.11093851 0.018011497 0.3905881
0.11124038 0.018004213 0.39040989
0.11156303 0.018000329 0.39030537
0.11191013 0.018000398 0.39028659
0.11223972 0.01799766 0.39020687
0.11257984 0.017996624 0.39016408
0.11290329 0.017992938 0.39006376
0.11324093 0.017991528 0.39001283
0.11352867 0.017982222 0.38979068
0.11384559 0.017977579 0.38966963
0.11419399 0.017977923 0.3896566
0.11450797 0.01797286 0.38952643
0.11484192 0.017970957 0.38946465
0.11514742 0.017964624 0.3893069
0.11547103 0.017961146 0.389211
0.11579211 0.017957298 0.38910705
0.1161319 0.017956363 0.38906625
0.11645638 0.017953075 0.3889744
0.11678061 0.017949767 0.38888213
0.11712237 0.017949168 0.38884851
0.11745141 0.017946623 0.38877276
0.11775028 0.017939501 0.38859782
0.11806902 0.01793544 0.38848916
0.11835729 0.017926784 0.38828105
0.11874329 0.01793294 0.38839361
0.1190517 0.017927378 0.38825241
0.11937547 0.01792415 0.38816181
0.11971844 0.017923817 0.38813385
0.1200301 0.017918814 0.38800472
0.12033996 0.017913571 0.38787043
0.12068155 0.017913068 0.38783872
0.12096757 0.017904341 0.387629
0.12127057 0.017898172 0.3874746
0.12161838 0.01789863 0.38746372
0.12193122 0.017893955 0.38734168
0.12226716 0.017892689 0.3872934
0.12260968 0.017892387 0.38726601
0.12291423 0.01788656 0.38711908
0.12324344 0.017884349 0.3870503
0.12358293 0.017883634 0.38701394
0.12387527 0.017876122 0.38683045
0.12423365 0.017878152 0.38685352
0.12452435 0.017870458 0.38666612
0.12477345 0.017856857 0.3863509
0.12516785 0.017864065 0.3864859
0.12550974 0.017863762 0.38645837
0.12582308 0.017859407 0.38634321
0.12613635 0.017855065 0.38622832
0.12646283 0.017852614 0.38615432
0.1267641 0.017846625 0.38600382
0.12709358 0.017844629 0.38593969
0.12740041 0.017839473 0.38580719
0.12773524 0.017838255 0.38575986
0.12803875 0.01783268 0.38561833
0.12838027 0.017832417 0.38559163
0.12870622 0.017829996 0.38551828
0.12903069 0.017827384 0.38544083
0.12936296 0.017825862 0.38538691
0.12972495 0.017828431 0.3854214
0.13007087 0.017828785 0.38540804
0.13041848 0.017829368 0.38539964
0.13077651 0.01783137 0.38542181
0.13112083 0.017831495 0.38540351
0.13146752 0.01783194 0.3853921
0.13180415 0.017831026 0.38535127
0.098322086 0.018530389 0.39501306
0.098635569 0.018523509 0.39484727
0.09894111 0.01851519 0.39465082
0.099246055 0.018506819 0.3944532
0.09955959 0.018500105 0.39429086
0.099860042 0.018491011 0.39407781
0.10017394 0.018484464 0.39391905
0.10048361 0.018477185 0.39374459
0.10081118 0.018473236 0.39364111
0.10115644 0.018472545 0.39360702
0.10147903 0.018467734 0.3934851
0.10178731 0.018460358 0.39330852
0.10211118 0.018455852 0.39319307
0.10243075 0.018450603 0.39306173
0.10276638 0.018448273 0.39299256
0.10310884 0.018447177 0.3929497
0.10345687 0.018447084 0.39292809
0.10376875 0.018440567 0.39276969
0.10408667 0.018435167 0.39263499
0.10441618 0.018431842 0.39254454
0.10472137 0.018424267 0.39236346
0.1050734 0.018424954 0.3923583
0.10540686 0.018422388 0.39228392
0.10573871 0.01841956 0.3922039
0.10606547 0.018415866 0.3921054
0.10639387 0.018412482 0.39201349
0.10671533 0.01840792 0.39189649
0.10705478 0.018406484 0.39184597
0.10738986 0.018404307 0.39177969
0.10773174 0.018403307 0.39173841
0.10801934 0.01839307 0.39150053
0.10832949 0.018386725 0.39134544
0.10866078 0.018383997 0.39126733
0.10900152 0.018382883 0.39122352
0.10933143 0.018379951 0.39114103
0.10966491 0.018377637 0.39107168
0.10998092 0.018372424 0.39094052
0.11033009 0.018372761 0.39092755
0.11059868 0.018359724 0.39062992
0.11098249 0.01836583 0.39073962
0.11129996 0.018360956 0.3906157
0.11161083 0.018355027 0.39046928
0.11196565 0.018356342 0.39047697
0.11226742 0.018348977 0.39029992
0.11258063 0.018343521 0.39016357
0.11295 0.018347219 0.39022186
0.1132732 0.018343423 0.39012069
0.1136021 0.018340567 0.39003956
0.11390267 0.018333169 0.38986176
0.11420514 0.018326119 0.38969144
0.11452606 0.018322065 0.38958475
0.11487377 0.018322309 0.38956943
0.11521235 0.018321099 0.38952321
0.11553451 0.018317292 0.38942173
0.11586884 0.018315431 0.38936162
0.11615624 0.018306188 0.38914457
0.11650912 0.018307287 0.38914734
0.11683041 0.01830343 0.38904473
0.11716363 0.018301461 0.38898227
0.1174632 0.01829426 0.38880864
0.11780963 0.018294383 0.38879049
0.11812338 0.018289439 0.38866484
0.11844341 0.018285498 0.38856035
0.11874709 0.018279061 0.38840288
0.11912953 0.018284751 0.38850307
0.11942284 0.018276768 0.38831273
0.11977305 0.018277511 0.38830778
0.1200404 0.018265646 0.38803494
0.1203566 0.018261258 0.38792092
0.12071078 0.018262642 0.38792956
0.12104581 0.018261127 0.3878766
0.12133525 0.018252764 0.38767812
0.12165318 0.018248724 0.38757151
0.12196447 0.018243711 0.38744423
0.12231719 0.018244909 0.38744879
0.12267905 0.018247455 0.38748202
0.12298997 0.018242437 0.38735455
0.12325781 0.01823107 0.38709235
0.12364459 0.018237311 0.38720399
0.12391032 0.018225716 0.38693687
0.12426844 0.018227734 0.38695881
0.12458067 0.018223029 0.38683802
0.12489381 0.01821848 0.38672051
0.12522003 0.018215863 0.38664401
0.12554085 0.018212473 0.38655114
0.12583402 0.018205103 0.38637379
0.12616481 0.018203203 0.38631245
0.12654601 0.018208565 0.38640535
0.12684117 0.018201554 0.38623556
0.12718272 0.018201215 0.3862074
0.12749419 0.018196587 0.38608819
0.12777394 0.018187469 0.38587373
0.12809087 0.018183678 0.38577235
0.12841482 0.018180903 0.38569245
0.12871344 0.018174563 0.385537
0.12905684 0.018174564 0.38551602
0.12938248 0.01817207 0.38544211
0.12972303 0.018171679 0.38541281
0.13007471 0.018172843 0.38541651
0.13042003 0.018173119 0.38540131
0.13077702 0.018175015 0.38542047
0.13110827 0.018173328 0.3853637
0.13142058 0.018169032 0.38525158
0.1318312 0.018178318 0.38542742
0.13216552 0.01817706 0.38537976
0.13253258 0.018180301 0.38542739
0.097990453 0.018884264 0.3951031
0.098274276 0.01887152 0.39481735
0.09862195 0.01887108 0.39478913
0.098938011 0.01886462 0.39463481
0.099249594 0.018857352 0.39446366
0.099570774 0.018851953 0.39433149
0.099894799 0.018847132 0.39421138
0.10023626 0.018845621 0.39416048
0.10050054 0.01882966 0.39380738
0.1008601 0.018831596 0.39382854
0.10115156 0.01882085 0.39358446
0.10150648 0.018821944 0.39358792
0.10183909 0.018818911 0.39350504
0.10213411 0.018808976 0.39327782
0.10247797 0.018808065 0.39323935
0.1028083 0.018804694 0.39314932
0.10313726 0.018801091 0.39305446
0.10346515 0.018797319 0.39295599
0.1037861 0.018792318 0.39283186
0.10414606 0.018794388 0.39285544
0.10447042 0.01879004 0.3927449
0.10480287 0.018787174 0.39266527
0.10509548 0.018777207 0.39243719
0.1054436 0.018777195 0.39241713
0.10577522 0.018774251 0.3923358
0.10610625 0.018771222 0.39225271
0.10645163 0.018770743 0.39222282
0.10673511 0.018759387 0.39196563
0.10710723 0.018763637 0.3920345
0.10742348 0.0187581 0.39189887
0.10776179 0.018756442 0.39184424
0.10808038 0.018751368 0.39171827
0.10836686 0.018740775 0.39147696
0.10870332 0.018738868 0.39141706
0.10906405 0.018741142 0.3914445
0.10937385 0.018734679 0.39128941
0.10971059 0.018732855 0.39123118
0.11002447 0.018727152 0.39109194
0.11039951 0.018731862 0.39117011
0.11072708 0.018728513 0.39107999
0.11103187 0.018721348 0.39091009
0.11138294 0.018722005 0.39090356
0.11164777 0.018708205 0.39059517
0.11198229 0.018706134 0.3905316
0.11230094 0.01870143 0.39041311
0.11265794 0.018703125 0.39042813
0.11296913 0.018697225 0.3902846
0.11329287 0.018693432 0.39018506
0.1136448 0.018694302 0.39018276
0.11393304 0.018684721 0.3899624
0.11424887 0.018679706 0.38983732
0.1145937 0.018679451 0.38981149
0.11490447 0.018673664 0.38967022
0.11522673 0.018669771 0.38956851
0.11553928 0.018664334 0.38943452
0.11588038 0.018663529 0.38939714
0.11626039 0.018668972 0.38949022
0.11655435 0.018660611 0.38929513
0.11687854 0.018657122 0.38920176
0.1171963 0.018652631 0.38908747
0.11749803 0.018645622 0.38892063
0.11786217 0.018648533 0.38896066
0.11816818 0.018642252 0.388809
0.11850355 0.018640624 0.3887544
0.11884941 0.018640656 0.38873434
0.11915737 0.018634761 0.38859066
0.11945948 0.018627983 0.38842863
0.11977913 0.018623974 0.38832429
0.1201416 0.018626627 0.38835883
0.12044506 0.018620145 0.38820288
0.12072597 0.018610219 0.38797516
0.12105005 0.018606985 0.387887
0.1213655 0.018602449 0.38777164
0.12169732 0.018600443 0.38770896
0.1220413 0.018600298 0.38768512
0.12236737 0.018597435 0.38760462
0.12269914 0.01859545 0.38754237
0.12300295 0.018589249 0.38739228
0.12331049 0.018583648 0.38725469
0.12368225 0.018587727 0.38731879
0.12397673 0.018580204 0.38714111
0.12429923 0.018576909 0.38705158
0.12465094 0.018577985 0.38705307
0.12498046 0.018575758 0.38698572
0.12524658 0.018564148 0.38672292
0.125569 0.018560922 0.3866348
0.12590043 0.018559041 0.38657466
0.12622127 0.018555613 0.38648233
0.12656245 0.018555183 0.38645244
0.12689652 0.018553723 0.386401
0.12717341 0.018543929 0.38617608
0.12751225 0.018543195 0.38613987
0.12782465 0.018538633 0.38602388
0.12814687 0.018535517 0.38593799
0.12845668 0.018530624 0.38581514
0.12879364 0.018529667 0.3857742
0.1290907 0.018522987 0.38561416
0.12940851 0.018519314 0.3855167
0.12977941 0.018523237 0.38557735
0.13008957 0.018518493 0.38545758
0.13041936 0.018516559 0.38539636
0.13074744 0.018514397 0.38533029
0.13113382 0.018520476 0.38543582
0.13145657 0.018517565 0.38535422
0.13182542 0.018521143 0.38540763
0.13211471 0.018513553 0.38522869
0.13251686 0.018521778 0.38537878
0.13277271 0.018509567 0.38510367
0.097722687 0.019250875 0.39545196
0.098028779 0.01924216 0.3952539
0.098315887 0.019229796 0.39498085
0.098647691 0.019226227 0.39488846
0.098921411 0.019211406 0.3945649
0.099281192 0.019213345 0.39458555
0.099604249 0.019208185 0.39446038
0.099908195 0.019199392 0.39426059
0.10023239 0.019194534 0.39414158
0.10055962 0.019190295 0.39403519
0.10088152 0.019185066 0.39390853
0.10120009 0.019179245 0.39376965
0.10155724 0.01918075 0.39378116
0.10185334 0.019170752 0.39355645
0.1022023 0.019170739 0.39353672
0.10253374 0.019167451 0.39344975
0.10288723 0.019168293 0.39344752
0.10316098 0.019154327 0.39314127
0.10351527 0.019155355 0.39314279
0.10385267 0.019153263 0.39308023
0.10417852 0.019149059 0.39297432
0.10447465 0.019139439 0.39275721
0.10482835 0.0191404 0.39275718
0.10518856 0.019142533 0.39278123
0.10549995 0.019135799 0.39262331
0.10581475 0.019129727 0.39247888
0.10613991 0.01912556 0.39237356
0.10648882 0.019125685 0.39235628
0.10679972 0.019119009 0.3921994
0.10711881 0.019113833 0.39207333
0.10742801 0.019106934 0.39191186
0.10778567 0.019108672 0.39192754
0.10810199 0.019103093 0.3917931
0.1084313 0.019099835 0.39170626
0.10877509 0.019099141 0.39167196
0.10909953 0.019095067 0.39156836
0.10940507 0.019087719 0.3913976
0.10975542 0.019088211 0.39138755
0.11006815 0.019082179 0.39124376
0.11039871 0.019079268 0.39116383
0.11076088 0.019081816 0.39119589
0.11106019 0.019073559 0.39100638
0.11138364 0.019069482 0.39090252
0.11170126 0.019064434 0.39077881
0.11201777 0.019059233 0.39065191
0.11237284 0.019060602 0.39065963
0.11273308 0.019062838 0.39068508
0.11301941 0.0190526 0.39045495
0.1133327 0.019046955 0.39031884
0.11367827 0.019046752 0.39029428
0.11399377 0.019041531 0.39016688
0.11431649 0.019037539 0.39006463
0.11461826 0.019030098 0.38989168
0.11498379 0.019033253 0.38993585
0.11526419 0.01902234 0.3896918
0.11560485 0.019021409 0.38965216
0.11594232 0.019019958 0.38960192
0.11626146 0.019015521 0.38949046
0.11661111 0.019016083 0.3894814
0.11691339 0.01900894 0.38931447
0.11727177 0.019010933 0.38933471
0.11757681 0.019004293 0.3891781
0.1179079 0.019001894 0.38910827
0.11820672 0.018994318 0.38893253
0.11856777 0.018996762 0.38896182
0.11886545 0.018989066 0.38878354
0.11916155 0.018981161 0.38860101
0.11949711 0.01897957 0.38854772
0.11984383 0.018979756 0.38853076
0.12013947 0.018971873 0.3883487
0.1204674 0.018969126 0.38827163
0.12083361 0.018972397 0.38831785
0.12115125 0.018968051 0.38820806
0.12146205 0.018962659 0.38807693
0.12175496 0.018954512 0.38788939
0.12206164 0.018948551 0.38774654
0.12240763 0.018948708 0.3877289
0.12272478 0.018944411 0.38762015
0.12305637 0.018942362 0.38755739
0.12337574 0.018938448 0.38745642
0.12372904 0.018939748 0.38746214
0.12403328 0.018933555 0.38731456
0.12432497 0.018925486 0.38712856
0.12467726 0.018926661 0.38713166
0.12500066 0.018923452 0.38704515
0.12532593 0.01892055 0.38696483
0.12565465 0.018918175 0.38689536
0.12592372 0.018906862 0.38664302
0.12628083 0.018908793 0.38666156
0.12659903 0.018904904 0.38656107
0.12691188 0.018900234 0.38644463
0.12723838 0.018897621 0.38637027
0.12759183 0.018899018 0.38637781
0.12786064 0.018887898 0.38612953
0.12818281 0.0188847 0.38604316
0.12849073 0.018879427 0.38591439
0.12883869 0.018880047 0.38590607
0.12910333 0.018868491 0.38564888
0.12949185 0.018875048 0.38576195
0.12976262 0.018864455 0.38552442
0.1301229 0.018866895 0.38555327
0.13047805 0.018868584 0.38556677
0.13080315 0.018865926 0.38549149
0.13113122 0.01886371 0.38542521
0.13145095 0.018860312 0.38533476
0.13181545 0.018863335 0.3853755
0.13214791 0.018861769 0.38532248
0.13248502 0.018860875 0.38528317
0.13278526 0.018854752 0.38513705
0.13317777 0.018861726 0.38525853
0.13360079 0.018872973 0.3854672
0.097402297 0.019607605 0.39558941
0.097698003 0.019596595 0.39534831
0.09803427 0.019593772 0.39527228
0.098356895 0.019588249 0.39514181
0.098641589 0.01957524 0.3948603
0.098938696 0.019564778 0.39463013
0.099272311 0.019561581 0.39454651
0.09960454 0.019558134 0.39445782
0.099939279 0.019555204 0.3943795
0.10028472 0.019554382 0.39434364
0.10058649 0.01954508 0.39413679
0.10092761 0.019543463 0.39408481
0.10127667 0.019543387 0.39406392
0.10158259 0.019535016 0.39387572
0.10191852 0.019532453 0.39380464
0.10225917 0.01953081 0.39375207
0.10258526 0.019526407 0.3936438
0.10294124 0.019527704 0.39365038
0.10320412 0.01951139 0.39330199
0.10357001 0.019514596 0.393347
0.10385971 0.019503472 0.39310318
0.10420881 0.019503541 0.39308491
0.10454403 0.019501023 0.39301443
0.10486422 0.019495722 0.39288792
0.10521791 0.019496666 0.3928872
0.10555441 0.019494429 0.39282236
0.10585392 0.019485395 0.3926205
0.1061645 0.019478455 0.39246085
0.10650874 0.019477714 0.39242607
0.10683313 0.019473363 0.39231849
0.10715071 0.019467801 0.39218652
0.10747932 0.019464269 0.39209545
0.10782415 0.019463694 0.39206392
0.1081619 0.019461846 0.39200667
0.10849757 0.019459637 0.39194214
0.10881613 0.019454382 0.39181626
0.10913971 0.019450054 0.39170903
0.10946754 0.019446513 0.39161757
0.10979831 0.019443508 0.39153695
0.1101023 0.019435801 0.39136159
0.11042934 0.019432195 0.39126882
0.11078727 0.019434031 0.3912856
0.11110673 0.01942913 0.39116669
0.11140088 0.019419847 0.39095956
0.11175963 0.019421848 0.39097956
0.11208897 0.019418739 0.39089671
0.11241096 0.019414382 0.39078867
0.11274338 0.019411849 0.39071733
0.11305146 0.019405151 0.39056218
0.11339947 0.019405331 0.39054534
0.11370319 0.019397952 0.39037645
0.11403251 0.019394968 0.39029598
0.11438327 0.01939564 0.39028907
0.11468701 0.019388361 0.39012215
0.11499336 0.019381564 0.38996488
0.1152968 0.01937432 0.38979864
0.1156356 0.019373043 0.38975242
0.1159843 0.019373426 0.3897396
0.11631288 0.019370461 0.38965935
0.1166406 0.019367363 0.38957646
0.11696972 0.019364519 0.38949868
0.11731743 0.019364761 0.38948292
0.11762586 0.019358538 0.38933709
0.1179168 0.019349478 0.38913429
0.1182771 0.01935182 0.38916069
0.11857209 0.019343497 0.38897264
0.11893217 0.019345809 0.38899842
0.11924053 0.019339718 0.38885525
0.11958862 0.019340089 0.38884196
0.11986689 0.019329196 0.3886022
0.12018729 0.019325143 0.38849998
0.12051687 0.019322582 0.38842776
0.12083839 0.01931875 0.38832992
0.12118633 0.019319151 0.3883172
0.12151036 0.019315748 0.388228
0.12178842 0.019305076 0.38799271
0.12214794 0.019307343 0.38801742
0.12243748 0.019298567 0.38782018
0.12277973 0.019298125 0.38779047
0.12311239 0.01929618 0.38773054
0.12345856 0.019296359 0.38771328
0.1237773 0.019292263 0.38761005
0.12408353 0.019286245 0.38746825
0.1244085 0.019283162 0.38738543
0.12471823 0.019277744 0.38725567
0.12504551 0.019275058 0.38718081
0.125376 0.019272882 0.38711619
0.12567914 0.019266525 0.38696757
0.12597254 0.019258717 0.38678977
0.1263382 0.019261966 0.38683406
0.12662856 0.019253746 0.38664806
0.12693375 0.019247822 0.38650814
0.12726086 0.019245245 0.38643542
0.12761602 0.01924691 0.38644791
0.12793072 0.01924248 0.38633803
0.12823874 0.019237075 0.3862085
0.12854339 0.019231193 0.38606942
0.12885803 0.019226834 0.38596091
0.12915181 0.019219393 0.38579056
0.12951146 0.019221768 0.38581726
0.12986203 0.019222787 0.38581672
0.13015154 0.019214785 0.38563511
0.13049553 0.019214846 0.38561535
0.13079679 0.019208632 0.38546965
0.13116543 0.019212324 0.38552272
0.13149111 0.019209716 0.38544941
0.13181768 0.019207254 0.38537899
0.13213433 0.019203361 0.38527986
0.13250108 0.019206753 0.38532689
0.13285445 0.019208189 0.38533473
0.13314468 0.019200517 0.38515979
0.13350105 0.019202396 0.38517645
0.13386425 0.019205244 0.3852126
0.096806332 0.019980103 0.39605391
0.097121142 0.019972663 0.39588755
0.097431153 0.019964295 0.39570272
0.097721025 0.019951878 0.3954376
0.098034367 0.019944321 0.39526883
0.098360106 0.019939333 0.39515087
0.09867657 0.019932503 0.39499646
0.098993763 0.019925876 0.39484599
0.099324577 0.019922018 0.39475039
0.099630713 0.01991326 0.39455768
0.099949941 0.019907169 0.39441779
0.1002909 0.019905435 0.39436421
0.10064114 0.019905547 0.39434707
0.10098548 0.0199045 0.39430699
0.1012947 0.019896556 0.39413026
0.10160786 0.019889439 0.39396992
0.10194883 0.019887801 0.39391804
0.10231227 0.019890537 0.39395276
0.10262579 0.019883582 0.39379552
0.10297105 0.019882808 0.39376062
0.10327808 0.019874677 0.39358008
0.10357704 0.019865056 0.39336997
0.10389768 0.019859642 0.39324313
0.10424631 0.019859601 0.39322263
0.10458685 0.019858018 0.39317164
0.10492808 0.019856583 0.39312351
0.10523508 0.019848693 0.39294761
0.10560723 0.019853109 0.39301524
0.10590193 0.01984298 0.39279497
0.10625041 0.019842964 0.39277476
0.1065925 0.019841759 0.39273101
0.10692942 0.019839602 0.39266843
0.10720102 0.019825377 0.39236701
0.10752906 0.019821651 0.39227331
0.10785516 0.019817591 0.39217299
0.1082033 0.019817593 0.39215305
0.10854352 0.019816151 0.39210445
0.10888091 0.019814204 0.39204589
0.1091914 0.019807385 0.39189091
0.10953478 0.01980656 0.39185449
0.10987303 0.019804815 0.39179984
0.11015906 0.019793697 0.39155975
0.11047232 0.019787529 0.39141753
0.11081454 0.01978657 0.39137834
0.11115336 0.019785009 0.39132726
0.11146343 0.01977836 0.39117551
0.11182215 0.019780355 0.3911947
0.11212908 0.019773208 0.39103302
0.11240617 0.019760856 0.3907685
0.11274864 0.019760041 0.39073199
0.11310396 0.019761475 0.39074001
0.11344688 0.019760739 0.39070508
0.11373609 0.019750684 0.39048588
0.11407918 0.019750018 0.39045224
0.11439718 0.019745022 0.39033306
0.11474024 0.01974437 0.39029968
0.11506034 0.019739781 0.39018852
0.11537519 0.019734325 0.39006016
0.11569922 0.019730467 0.38996339
0.11599983 0.019722648 0.38978833
0.11638395 0.019729035 0.38989398
0.11667981 0.019720463 0.38970402
0.1170309 0.019721251 0.38969898
0.11734046 0.019715056 0.38955593
0.11767022 0.019712282 0.3894805
0.1179928 0.019708324 0.38938165
0.11831424 0.0197042 0.38927954
0.1186146 0.019696599 0.38910869
0.11896532 0.019697381 0.38910341
0.11927998 0.019692207 0.38898051
0.11966723 0.019699011 0.38909414
0.1199426 0.01968741 0.38884431
0.12027132 0.019684609 0.38876823
0.12062702 0.019686228 0.38877943
0.12087626 0.019670511 0.38844824
0.12121374 0.019669205 0.38840169
0.12158609 0.019673545 0.3884666
0.12186579 0.019662917 0.38823587
0.12220425 0.019661799 0.38819298
0.12250049 0.019653918 0.38801652
0.12285738 0.019655777 0.38803241
0.12314225 0.01964614 0.38782129
0.12347508 0.019644186 0.38776186
0.12379605 0.019640362 0.38766548
0.12415772 0.019642998 0.38769662
0.12446453 0.019636963 0.38755661
0.12477258 0.019631159 0.38742113
0.12507126 0.019623917 0.38725731
0.12538476 0.019619033 0.38713998
0.12577613 0.019626323 0.38726297
0.12601735 0.019610213 0.38692409
0.12635244 0.019608757 0.38687447
0.12670371 0.019609813 0.38687432
0.12698369 0.019599855 0.38665694
0.12729475 0.01959474 0.38653511
0.12763859 0.019594686 0.38651305
0.12810959 0.019614097 0.38687497
0.12844342 0.019612463 0.38682172
0.12866658 0.01959398 0.38643622
0.12883203 0.019566836 0.38587984
0.12915909 0.019564314 0.38580918
0.12949932 0.01956379 0.38577789
0.12988891 0.019570712 0.38589337
0.13022415 0.019569431 0.38584715
0.13052309 0.019562712 0.38569367
0.13087441 0.019563859 0.38569528
0.13118932 0.019559572 0.38558978
0.13153361 0.019559681 0.38557088
0.1318372 0.019553747 0.38543296
0.13217644 0.019553119 0.38539958
0.13250901 0.019551512 0.38534686
0.13284864 0.019550949 0.38531476
0.13320208 0.019552419 0.38532275
0.1335495 0.019553 0.38531318
0.13391657 0.019556446 0.38536006
0.096499525 0.020340573 0.39625025
0.096808232 0.020331664 0.39605778
0.097086415 0.020316429 0.39574209
0.097366117 0.020301621 0.39543468
0.097703345 0.020298868 0.39536211
0.098032258 0.020294415 0.39525637
0.098359697 0.020289689 0.39514533
0.098688163 0.02028521 0.39503899
0.099023521 0.020282174 0.39496076
0.099384584 0.020284405 0.39498502
0.099698655 0.020277061 0.39482284
0.10006252 0.020279866 0.39485818
0.10032646 0.020262465 0.39450014
0.10065205 0.020257594 0.39438602
0.10098604 0.020254441 0.39430529
0.1013427 0.020255839 0.39431322
0.10164464 0.020246331 0.39410871
0.10198596 0.020244705 0.39405763
0.10232934 0.020243498 0.39401466
0.10265414 0.020238636 0.39390054
0.10298818 0.02023562 0.39382231
0.10333098 0.020234343 0.39377791
0.10363263 0.020225041 0.39357728
0.10395467 0.020219769 0.39345509
0.10427786 0.020214753 0.39333785
0.10460858 0.020211229 0.3932496
0.1049605 0.02021181 0.39324117
0.10529812 0.020209642 0.39317927
0.10561525 0.02020357 0.39304131
0.10597002 0.02020471 0.39304373
0.10627116 0.020195654 0.39284775
0.10662169 0.020196013 0.39283484
0.10695317 0.020192772 0.39275193
0.10726912 0.020186631 0.39261255
0.10757237 0.020178147 0.39242762
0.10791577 0.020177223 0.39238968
0.10826298 0.020177016 0.39236563
0.10855488 0.020166535 0.39214182
0.10891349 0.020168476 0.39215949
0.1092332 0.020163221 0.39203727
0.10955185 0.02015781 0.39191192
0.10986356 0.020151153 0.39176238
0.11021404 0.02015163 0.39175153
0.1105464 0.020148803 0.39167637
0.11083176 0.020137452 0.3914355
0.11116996 0.020135744 0.3913821
0.11149767 0.020132152 0.39129207
0.11181679 0.020127036 0.39117232
0.11216212 0.020126654 0.39114463
0.11248273 0.020121854 0.39103103
0.11280806 0.020117925 0.39093435
0.1131362 0.020114517 0.39084777
0.11346204 0.020110724 0.39075372
0.11382473 0.020113466 0.39078659
0.11411037 0.020102616 0.39055538
0.11447134 0.020105066 0.3905825
0.1147371 0.02009083 0.39028546
0.11510023 0.020093674 0.39032024
0.11544427 0.020093182 0.39029017
0.11579449 0.020093763 0.39028093
0.11611354 0.020088948 0.39016688
0.116378 0.020074746 0.38987049
0.1167208 0.020074103 0.38983741
0.11699942 0.020062456 0.38959068
0.11734737 0.020062732 0.38957539
0.11771726 0.020066746 0.38963273
0.11802293 0.020059822 0.38947764
0.11838628 0.020062709 0.38951308
0.11868555 0.020054756 0.38933799
0.11899385 0.020048371 0.3891933
0.11934747 0.020049633 0.38919711
0.11967348 0.020046268 0.38911104
0.11996868 0.020037772 0.38892537
0.12030241 0.020035742 0.38886526
0.12059952 0.020027645 0.38868734
0.12094037 0.020026837 0.38865086
0.12128444 0.020026563 0.38862479
0.12159061 0.020020053 0.38847762
0.12192707 0.020018551 0.3884277
0.12223598 0.020012548 0.38829038
0.12254131 0.020005994 0.38814238
0.12288244 0.020005306 0.38810819
0.12318631 0.019998567 0.38795665
0.12352676 0.019997798 0.38792077
0.12382745 0.01999061 0.38776049
0.1242034 0.019995576 0.38783595
0.12452625 0.01999199 0.3877455
0.12483522 0.019986203 0.38761231
0.12512746 0.019977778 0.38742805
0.12543136 0.01997125 0.38728055
0.12579237 0.019973833 0.3873097
0.12610947 0.019969445 0.38720363
0.12646374 0.019970953 0.38721195
0.12683067 0.019974446 0.38725871
0.12719326 0.019977236 0.38729185
0.12746261 0.019965408 0.38704157
0.12762004 0.019936159 0.3864536
0.12799665 0.019941218 0.3865307
0.12848999 0.019964384 0.38695875
0.12883283 0.019964105 0.38693231
0.12907131 0.019947698 0.38659334
0.1306119 0.019920066 0.38595295
0.13094912 0.019919056 0.38591236
0.13121681 0.019907499 0.38566747
0.13154307 0.019904865 0.38559547
0.13189718 0.01990645 0.38560516
0.13218914 0.01989867 0.38543347
0.13251117 0.019895446 0.38535002
0.13287607 0.019898659 0.38539124
0.13318926 0.019894131 0.38528255
0.13355628 0.019897643 0.3853296
0.13392068 0.019900754 0.38536882
0.13427778 0.019902762 0.38538668
0.13460678 0.019900609 0.38532397
0.095823653 0.020697599 0.39639312
0.096181765 0.02069908 0.39640266
0.096526109 0.020697594 0.39635539
0.096788108 0.020678528 0.39597142
0.097107634 0.020671848 0.39582455
0.097448722 0.020669788 0.39576617
0.097737499 0.020656684 0.39549634
0.098060846 0.020650959 0.39536768
0.098394081 0.020647347 0.39527947
0.098712198 0.0206406 0.39513123
0.099064171 0.020640953 0.39511889
0.09940096 0.020638155 0.39504617
0.099749103 0.020637723 0.39501867
0.10008056 0.020633854 0.39492542
0.10039389 0.02062629 0.39476135
0.10069681 0.020616641 0.39455745
0.1010088 0.020608917 0.39439029
0.10134684 0.02060654 0.39432544
0.10168454 0.020604108 0.39425948
0.10205078 0.020607458 0.39430419
0.10236949 0.02060122 0.39416537
0.10269087 0.02059556 0.39403757
0.10304946 0.020597372 0.39405274
0.10335486 0.020588582 0.39386502
0.10370558 0.020588849 0.39385051
0.1040208 0.020582085 0.39370149
0.10434355 0.020576855 0.39358181
0.10468858 0.020576034 0.39354646
0.10498606 0.02056591 0.39333311
0.1053412 0.02056711 0.39333627
0.10564657 0.020558612 0.39315403
0.10599329 0.020558195 0.39312622
0.1063201 0.020553928 0.39302483
0.10667111 0.020554358 0.39301315
0.10696524 0.020543851 0.39279243
0.10731108 0.02054332 0.39276233
0.10765368 0.020542171 0.39272043
0.10793739 0.020529829 0.39246449
0.10830437 0.020533355 0.3925119
0.10859301 0.020522051 0.39227578
0.10893081 0.02052008 0.39221811
0.109272 0.020518759 0.39217275
0.10960597 0.020516094 0.39210171
0.1099188 0.0205095 0.39195558
0.1102669 0.020509513 0.39193571
0.11058519 0.020503998 0.39181009
0.11093251 0.020503882 0.39178765
0.11128382 0.020504499 0.39177927
0.1115453 0.020488614 0.3914555
0.11186942 0.020484298 0.39135277
0.1122222 0.020485241 0.39135051
0.11251479 0.020475222 0.39113879
0.11286357 0.020475464 0.39112306
0.11318872 0.020471426 0.39102557
0.11350872 0.020466486 0.39091083
0.11386975 0.02046895 0.39093751
0.11419316 0.020464659 0.39083511
0.11451399 0.020459933 0.39072439
0.11483064 0.020454491 0.3906
0.1151227 0.020444714 0.39039284
0.11543715 0.020438962 0.39026251
0.11584578 0.020449869 0.39045027
0.11611103 0.020435473 0.39015484
0.11647825 0.020439057 0.39020273
0.11674587 0.020425195 0.38991755
0.11706808 0.020420941 0.38981572
0.11743523 0.020424524 0.38986352
0.11775618 0.020420076 0.38975799
0.1180869 0.020417342 0.38968515
0.11840837 0.02041303 0.38958219
0.11870033 0.020403674 0.38938293
0.11901776 0.020398732 0.38926798
0.11938739 0.020402743 0.3893238
0.11972196 0.020400757 0.38926518
0.12000263 0.02038962 0.38903195
0.12035909 0.02039139 0.38904497
0.12067229 0.020385845 0.38891843
0.12102223 0.020386517 0.38891047
0.12130071 0.020375183 0.38867345
0.12164451 0.020374853 0.38864639
0.12199038 0.02037487 0.38862589
0.12231798 0.020371849 0.38854742
0.12263903 0.020367756 0.38844848
0.12295765 0.020363279 0.38834229
0.12325816 0.020355839 0.38817954
0.1235668 0.020349778 0.38804314
0.12386215 0.020341571 0.38786572
0.12421659 0.020343086 0.38787374
0.12458128 0.020346265 0.3879135
0.12487929 0.020338569 0.38774583
0.125154 0.020327132 0.38750684
0.12553769 0.020333404 0.38760552
0.12588321 0.020333476 0.387586
0.12625977 0.020338554 0.38766184
0.12653659 0.020327579 0.38743168
0.12692685 0.020334836 0.38754901
0.12725823 0.020332647 0.38748634
0.13079841 0.020293048 0.38650087
0.13102938 0.0202755 0.38614565
0.13128315 0.020261561 0.38585922
0.13159174 0.020256136 0.38573492
0.1319463 0.020257797 0.38574556
0.13220763 0.020245172 0.38548419
0.13254879 0.020244811 0.38545626
0.13287717 0.020242497 0.38539124
0.13322173 0.020242659 0.38537332
0.1335661 0.020242788 0.38535482
0.13391362 0.020243393 0.38534534
0.13427486 0.020246062 0.38537517
0.13460097 0.020243438 0.38530421
0.13499838 0.020251524 0.3854371
0.095587641 0.021074422 0.3968862
0.095912561 0.021068549 0.3967568
0.096178226 0.021049747 0.39638397
0.096500769 0.021043487 0.39624727
0.096823893 0.0210374 0.39611375
0.097138219 0.02102945 0.39594516
0.097467735 0.021024834 0.39583933
0.097775966 0.021015676 0.39564791
0.098081961 0.021006107 0.3954488
0.098422378 0.02100395 0.39538914
0.098765872 0.021002462 0.39534205
0.099087007 0.02099625 0.39520597
0.099428013 0.020994276 0.39514965
0.099772699 0.020993086 0.3951081
0.1001032 0.020988937 0.39501077
0.10043808 0.020985728 0.39493111
0.10079961 0.02098809 0.39495629
0.10107112 0.020971758 0.3946296
0.10140176 0.020967769 0.39453515
0.10173372 0.020964069 0.39444619
0.10206281 0.020959813 0.39434671
0.10239087 0.020955376 0.39424375
0.10272146 0.020951482 0.394151
0.10304871 0.020946937 0.39404598
0.10339312 0.020945895 0.39400685
0.10373525 0.020944407 0.39395922
0.10406698 0.020940833 0.39387238
0.10434746 0.020927003 0.39359263
0.10470945 0.02092956 0.39362106
0.10504328 0.020926489 0.39354357
0.10537648 0.020923313 0.39346412
0.10568631 0.020915534 0.39329806
0.10600454 0.020909464 0.39316413
0.10634884 0.020908553 0.3931272
0.10667094 0.0209033 0.39300862
0.10702371 0.020904077 0.39300328
0.10735372 0.020900415 0.39291453
0.10769814 0.020899571 0.39287874
0.10798164 0.020886956 0.39262158
0.10830379 0.020881869 0.39250594
0.10866258 0.020883854 0.39252329
0.10901812 0.020885205 0.39252862
0.10930922 0.020874245 0.39230254
0.10965001 0.020872809 0.39225546
0.10996645 0.020866763 0.39212173
0.11031447 0.020866729 0.39210096
0.11063527 0.020861564 0.39198375
0.1109656 0.020858223 0.39190072
0.11129369 0.020854481 0.39181021
0.11157619 0.020842249 0.39156014
0.1119377 0.020844802 0.39158785
0.11224464 0.020837214 0.39142501
0.11260196 0.020838991 0.3914381
0.11289317 0.020828564 0.39122188
0.11324675 0.020829672 0.39122236
0.11355631 0.020822698 0.39107102
0.11391913 0.020825509 0.39110336
0.11424819 0.020822143 0.39101976
0.11454564 0.020813061 0.39082873
0.11483552 0.020802658 0.39061296
0.11520541 0.020806771 0.39066967
0.11555018 0.020806329 0.39064094
0.11585531 0.020798782 0.39047867
0.11617382 0.020793671 0.39036217
0.11650684 0.020791182 0.39029488
0.11680754 0.020782953 0.39011988
0.11714018 0.020780442 0.39005214
0.11745264 0.020774374 0.38991767
0.11781047 0.020776346 0.38993406
0.11813013 0.020771595 0.38982421
0.11846294 0.020769175 0.38975814
0.11877914 0.020763867 0.38963786
0.11910024 0.020759441 0.38953415
0.11940691 0.020752538 0.38938388
0.11977152 0.020755712 0.38942271
0.12009279 0.020751381 0.3893207
0.12037637 0.020740578 0.38909733
0.12073641 0.020742975 0.38912153
0.12104918 0.020737261 0.38899356
0.12140152 0.020738337 0.38899297
0.12169422 0.020729247 0.38880169
0.12203919 0.020729091 0.38877791
0.12235194 0.020723479 0.38865182
0.12266617 0.020718144 0.38853094
0.12301122 0.020718031 0.38850799
0.12332405 0.02071251 0.38838357
0.12363845 0.020707279 0.38826466
0.12395714 0.020702796 0.38815972
0.12427635 0.020698423 0.38805684
0.12459931 0.020694699 0.38796613
0.12491955 0.020690544 0.38786733
0.1252421 0.020686794 0.38777617
0.12558261 0.020686021 0.38774076
0.12599413 0.020696923 0.38792413
0.12638964 0.020705139 0.38805717
0.13167654 0.020613318 0.38598025
0.13195218 0.020602649 0.3857595
0.13231605 0.020605778 0.38579708
0.13263249 0.020601522 0.38569644
0.13295312 0.02059794 0.38560838
0.1332242 0.020586716 0.38537726
0.13356937 0.020586973 0.38536108
0.13394146 0.02059136 0.38542223
0.13427094 0.020589197 0.38536075
0.13462886 0.020591393 0.38538086
0.13498488 0.020593291 0.38539538
0.13536912 0.02059947 0.38549006
0.095287047 0.021437755 0.39711362
0.095607571 0.021430731 0.39696479
0.095890209 0.021415299 0.39666015
0.096189789 0.021403749 0.39642745
0.096530594 0.021401424 0.39636558
0.096852221 0.02139488 0.39622548
0.097166851 0.021386843 0.39605772
0.097460568 0.021374276 0.3958061
0.097816005 0.021375287 0.39580584
0.098154441 0.02137259 0.3957369
0.098445766 0.021359688 0.39547896
0.098780535 0.021356272 0.39539665
0.099127792 0.021355571 0.39536455
0.099442147 0.021347813 0.39520174
0.09979859 0.02134911 0.3952066
0.10013622 0.021346388 0.39513695
0.10046938 0.021342738 0.39505014
0.10082882 0.021344673 0.39506668
0.10115342 0.021339247 0.3949469
0.10147247 0.021332687 0.39480615
0.10176843 0.021321341 0.39457676
0.10211983 0.021321645 0.39456299
0.10244688 0.021316878 0.39445534
0.10278899 0.021315273 0.39440614
0.10309989 0.021307224 0.39423767
0.10344928 0.021307157 0.3942169
0.10378471 0.021304227 0.3941431
0.10408788 0.021294719 0.39394751
0.10444865 0.021297012 0.39397031
0.10474093 0.021285379 0.39373544
0.10509394 0.021286119 0.39372942
0.10541024 0.021279441 0.39358619
0.10576639 0.021280833 0.39359212
0.10607463 0.021272602 0.3934201
0.10643193 0.021274231 0.39343038
0.10673676 0.021265399 0.39324719
0.10705777 0.021259837 0.39312446
0.10738004 0.021254558 0.39300695
0.10772058 0.021252919 0.3929567
0.10807142 0.021253318 0.3929441
0.10839957 0.021249264 0.39284915
0.10871133 0.021242037 0.39269552
0.10902947 0.021236096 0.39256564
0.10932908 0.021226592 0.39236993
0.10966414 0.021224016 0.39230219
0.11001948 0.021225365 0.39230701
0.11032533 0.02121719 0.39213574
0.11067338 0.021217154 0.39211494
0.11102129 0.021217091 0.39209357
0.11135525 0.021214375 0.39202315
0.11162826 0.021200098 0.39173907
0.1120018 0.021204943 0.39180833
0.11230058 0.021195646 0.39161628
0.11262374 0.021190995 0.39151004
0.11297227 0.021191129 0.39149219
0.11327098 0.021181948 0.39130223
0.11359738 0.021177988 0.39120868
0.11396024 0.021180827 0.39124072
0.11427529 0.021174787 0.39110875
0.11456121 0.021163406 0.39087811
0.11491709 0.021164978 0.39088666
0.11525789 0.021163769 0.39084387
0.11555704 0.021154948 0.39066043
0.11589164 0.021152643 0.39059737
0.11618309 0.021142505 0.39038965
0.1165591 0.021147769 0.39046627
0.11687978 0.021142988 0.39035746
0.11718811 0.021136012 0.39020807
0.11751729 0.021132829 0.39012867
0.11785602 0.021131368 0.39008111
0.1181989 0.021130666 0.39004749
0.11847054 0.021117268 0.38977954
0.11881372 0.021116659 0.38974765
0.11911012 0.021107767 0.38956285
0.11945586 0.021107646 0.3895399
0.11979711 0.021106731 0.38950229
0.12011284 0.021101341 0.38938212
0.12043565 0.021097219 0.3892853
0.12081122 0.021102339 0.389359
0.12112905 0.021097373 0.38924661
0.12139476 0.021083383 0.38896772
0.12174673 0.021084409 0.38896585
0.12205495 0.021077875 0.38882452
0.12237248 0.021072986 0.38871348
0.12273686 0.021076165 0.3887513
0.12301565 0.021064671 0.38851842
0.1233637 0.021065067 0.38850492
0.12367354 0.021058956 0.38837135
0.12399231 0.021054395 0.38826632
0.12433916 0.021054611 0.38824949
0.12465248 0.021049168 0.38812819
0.12498624 0.021047195 0.38807091
0.12533818 0.021048291 0.3880702
0.12571287 0.021053182 0.38813949
0.13172588 0.020965295 0.38612151
0.13201255 0.020956181 0.38593265
0.1323633 0.020957259 0.38593155
0.13266499 0.020950584 0.38578764
0.13295138 0.020941533 0.3856
0.13328901 0.020940583 0.3855615
0.13362494 0.020939363 0.3855181
0.13394527 0.020935716 0.38542995
0.1342836 0.020934895 0.38539386
0.13463748 0.020936493 0.38540232
0.13499635 0.02093886 0.38542488
0.13532412 0.020936403 0.38535869
0.13572504 0.020945244 0.38550043
0.1361368 0.02095571 0.38567206
0.09502618 0.021810666 0.39750859
0.095282041 0.02178864 0.39708847
0.095600672 0.021781074 0.39693189
0.095894217 0.02176787 0.39667252
0.096187301 0.02175466 0.396413
0.096541837 0.021755392 0.39640754
0.096874312 0.021751167 0.39631167
0.097179905 0.021740956 0.39610672
0.097516313 0.021737689 0.39602828
0.097866595 0.021737527 0.39600635
0.098211728 0.021736229 0.3959637
0.098514728 0.021725643 0.39575183
0.098850802 0.021722404 0.39567372
0.099173568 0.021716274 0.39554298
0.0994635 0.021703022 0.39528245
0.099834561 0.021707505 0.39534488
0.10014938 0.021699768 0.39518476
0.10049623 0.021699002 0.39515156
0.10084219 0.02169805 0.39511493
0.10120543 0.021700807 0.3951458
0.10147281 0.021683063 0.39480338
0.10182984 0.021684537 0.3948108
0.10216995 0.021682404 0.39475253
0.10246412 0.021670569 0.39451763
0.10282782 0.021673473 0.39455101
0.10312434 0.021662246 0.3943271
0.10346904 0.021661181 0.39428815
0.10380905 0.021659141 0.39423147
0.10411189 0.021649387 0.3940343
0.10448115 0.021653468 0.39408889
0.10479956 0.02164701 0.39395174
0.10512117 0.021641258 0.39382735
0.10546657 0.021640431 0.39379254
0.10578875 0.021634853 0.3936713
0.10611686 0.021630524 0.39357272
0.10646766 0.021630833 0.3935585
0.1067537 0.021618025 0.39330563
0.10706945 0.021611296 0.39316332
0.10742386 0.021612391 0.39316332
0.10773582 0.021604966 0.39300832
0.10808983 0.021605993 0.39300704
0.10841604 0.02160148 0.39290494
0.10873359 0.021595269 0.39277199
0.10907771 0.021594359 0.39273539
0.10939124 0.02158742 0.39258912
0.10972472 0.021584449 0.39251497
0.11002418 0.021574823 0.39231986
0.11037351 0.021575009 0.39230311
0.11070129 0.021570994 0.39220989
0.11105559 0.021572156 0.39221081
0.11139993 0.021571379 0.39217648
0.11172947 0.021567753 0.39209032
0.11203562 0.02155965 0.39192274
0.11232145 0.021547697 0.39168519
0.11268153 0.021550018 0.39170706
0.11301129 0.021546543 0.39162356
0.11332787 0.021540586 0.39149493
0.11368146 0.021541679 0.39149442
0.1139965 0.02153548 0.39136136
0.11432127 0.021531153 0.39126229
0.11466175 0.021529801 0.39121729
0.11495771 0.021520127 0.39102101
0.1152663 0.021512864 0.39086863
0.11559965 0.021510255 0.39080068
0.11592884 0.021506883 0.39071897
0.11625043 0.021502133 0.39061213
0.11659966 0.021502506 0.39059836
0.1169042 0.021494661 0.39043528
0.11725371 0.021495106 0.39042276
0.11760833 0.02149648 0.39042711
0.1178746 0.021481747 0.39013892
0.11821029 0.021479717 0.39008138
0.11853972 0.021476557 0.39000338
0.11884862 0.021469714 0.38985842
0.11917683 0.021466387 0.38977733
0.11948236 0.021459004 0.3896226
0.11984096 0.021461168 0.3896412
0.12014025 0.021452732 0.3894673
0.12052116 0.021458872 0.38955802
0.12085015 0.021455765 0.38948083
0.12117139 0.021451302 0.38937902
0.12147929 0.021444505 0.38923493
0.12178562 0.021437474 0.38908648
0.12209117 0.021430343 0.38893628
0.12240198 0.02142418 0.3888036
0.12276622 0.021427371 0.38884068
0.12308333 0.02142234 0.38872859
0.12338672 0.021414964 0.38857383
0.12375164 0.02141827 0.38861299
0.12405407 0.021410776 0.38845614
0.12441672 0.021413689 0.38848811
0.12470867 0.021404449 0.38829961
0.12507714 0.021408362 0.38834965
0.12541015 0.021406196 0.38828945
0.1258439 0.02142119 0.38854054
0.13177726 0.021317864 0.38626876
0.13210264 0.021314826 0.38619271
0.13237931 0.021303959 0.38597485
0.13270815 0.021301527 0.38590983
0.13298494 0.021290774 0.385694
0.13334198 0.021292889 0.38571137
0.133701 0.021295309 0.38573426
0.13400309 0.021288667 0.385593
0.13431524 0.02128366 0.38548133
0.13466574 0.021284742 0.38547993
0.13503231 0.021288348 0.3855243
0.13538054 0.021289051 0.38551602
0.13574868 0.021292876 0.38556433
0.13609831 0.021293785 0.3855598
0.1364748 0.021298882 0.38563111
0.094689034 0.022166558 0.39758611
0.09501075 0.022159435 0.39743975
0.095281892 0.022140617 0.39708355
0.095603473 0.022133611 0.39693922
0.095930994 0.022128031 0.39682037
0.096235789 0.022117266 0.39660853
0.096557163 0.022110375 0.39646617
0.096889541 0.022106046 0.3963697
0.09723293 0.022104252 0.39631861
0.097555421 0.022097738 0.39618286
0.097905762 0.022097554 0.39616057
0.098223522 0.022090044 0.396007
0.098560862 0.022086976 0.39593291
0.098883495 0.022080645 0.39580035
0.099224053 0.02207835 0.39574009
0.099542648 0.022071199 0.39559278
0.099858843 0.022063568 0.39543682
0.10019314 0.022059979 0.39535326
0.10052262 0.022055354 0.3952511
0.10085365 0.022051103 0.39515567
0.10121015 0.022052426 0.39516002
0.10154048 0.022048062 0.39506251
0.10186362 0.02204217 0.39493755
0.10220493 0.02204024 0.39488354
0.10254467 0.022037983 0.39482364
0.10287202 0.022033088 0.39471647
0.10318491 0.02202514 0.39455456
0.10349725 0.022017131 0.39439151
0.10383045 0.022013593 0.3943086
0.10418937 0.022015519 0.39432347
0.10454149 0.022015996 0.39431235
0.10482986 0.02200309 0.39406154
0.10516696 0.022000467 0.39399481
0.1055099 0.021999076 0.39395019
0.10582107 0.021991095 0.3937875
0.10616766 0.0219905 0.39375702
0.10649013 0.021984927 0.39363745
0.10684878 0.02198684 0.39365184
0.10710941 0.021968635 0.39330602
0.1074774 0.021972496 0.39335525
0.10781557 0.021970257 0.39329523
0.10813739 0.021964712 0.39317599
0.10846182 0.021959728 0.39306679
0.10875934 0.021949347 0.39286095
0.1091219 0.021952117 0.39289048
0.10944515 0.021946987 0.39277861
0.10975333 0.021938873 0.39261332
0.11009672 0.02193783 0.39257452
0.11040182 0.021929188 0.39239973
0.11074297 0.021927739 0.39235359
0.11112143 0.02193366 0.3924394
0.11141469 0.021922782 0.39222455
0.11176548 0.021923255 0.39221278
0.1120974 0.021920037 0.3921349
0.11242852 0.021916684 0.39205462
0.11268797 0.021899419 0.39172551
0.11305416 0.021902943 0.39176822
0.11339707 0.02190195 0.3917301
0.11369875 0.021893024 0.39155009
0.11403845 0.021891449 0.39150149
0.11437952 0.021890145 0.39145777
0.11472488 0.021889672 0.39142886
0.11505552 0.021886399 0.39134985
0.11535689 0.021877594 0.39117196
0.1156091 0.021859547 0.39082879
0.11596384 0.021860935 0.39083311
0.11629871 0.021858582 0.39077049
0.11662761 0.021855125 0.39068815
0.11697283 0.021854736 0.39066064
0.11731154 0.021853138 0.39061147
0.11765841 0.021853067 0.39058959
0.11795121 0.021842977 0.39038867
0.11823662 0.021831589 0.39016446
0.11860106 0.021834813 0.39020145
0.11892755 0.021831051 0.39011356
0.11924964 0.021826509 0.39001173
0.11957114 0.021821883 0.38990834
0.11985248 0.021809977 0.3896749
0.12019546 0.021809326 0.38964254
0.12054094 0.021809125 0.38961825
0.12087832 0.021807473 0.38956794
0.12121885 0.021806389 0.38952783
0.12151085 0.021796608 0.38933232
0.12182362 0.021790599 0.38920423
0.12216415 0.021789571 0.38916507
0.12254051 0.02179493 0.38923994
0.12283869 0.021786386 0.38906652
0.12312745 0.021776227 0.38886428
0.12348039 0.021777445 0.38886517
0.1237573 0.021765282 0.38862711
0.12408459 0.021762025 0.38854811
0.12443992 0.02176369 0.38855693
0.12480561 0.021767149 0.38859782
0.12512682 0.021762855 0.38850027
0.12550442 0.021768365 0.3885777
0.12595688 0.021786794 0.38888571
0.13212001 0.021662014 0.38624007
0.13246614 0.021662325 0.38622463
0.13275206 0.021652812 0.3860341
0.13309096 0.021651974 0.3859981
0.1334004 0.021646351 0.38587692
0.13372317 0.02164292 0.38579479
0.13403645 0.021637974 0.38568568
0.13436773 0.021635951 0.38562867
0.13471162 0.021635963 0.3856079
0.13504572 0.021634405 0.38555917
0.13539463 0.021635229 0.38555288
0.13574898 0.021636907 0.38556182
0.13612318 0.021641739 0.38562694
0.13646808 0.021641895 0.38560879
0.13684733 0.021647489 0.38568747
0.094382361 0.022529857 0.3977924
0.094708435 0.022523593 0.39766318
0.09494701 0.022496644 0.39716876
0.095277272 0.022491537 0.39705995
0.095617734 0.022488868 0.39699408
0.095959134 0.022486435 0.39693239
0.096300744 0.022484072 0.39687189
0.096604891 0.022473007 0.39665776
0.096934147 0.022467848 0.39654782
0.097258992 0.022461705 0.39642051
0.097588569 0.022456694 0.39631313
0.09790796 0.022449384 0.39616516
0.09826576 0.022450902 0.39617294
0.098580845 0.022442682 0.39600888
0.098925531 0.022441238 0.39596432
0.099253409 0.022436004 0.39585286
0.099594519 0.022433788 0.39579463
0.099911891 0.022426261 0.39564261
0.10022525 0.022417886 0.39547569
0.10058414 0.022419719 0.39548877
0.10092289 0.022417065 0.39542264
0.10124492 0.02241073 0.3952916
0.10157051 0.022405226 0.3951751
0.10192776 0.022406718 0.39518204
0.10220441 0.022390541 0.39487731
0.10255931 0.022391556 0.39487576
0.10290474 0.022390507 0.39483777
0.10321571 0.022381991 0.3946681
0.10355271 0.02237916 0.39459863
0.10390203 0.022379002 0.39457625
0.10421492 0.022371024 0.39441594
0.10455547 0.022369014 0.3943609
0.10486501 0.022360411 0.39418954
0.10520012 0.022357294 0.39411491
0.10552575 0.022352194 0.39400524
0.10585742 0.022348398 0.3939186
0.10620663 0.022348322 0.39389747
0.1065226 0.02234127 0.39375335
0.10686453 0.022339696 0.39370576
0.10719524 0.022335792 0.39361709
0.10754548 0.022335969 0.39360029
0.10786656 0.022330109 0.39347708
0.1082051 0.022327891 0.39341804
0.10850533 0.02231781 0.39322039
0.10884073 0.022315001 0.39315087
0.109123 0.02230135 0.39289039
0.10947569 0.022302136 0.39288414
0.1097979 0.022296723 0.39276871
0.11017462 0.02230238 0.39284822
0.11047173 0.02229194 0.39264417
0.11082572 0.022293003 0.39264277
0.11110144 0.022278367 0.39236477
0.11145165 0.022278709 0.39235061
0.11180905 0.022280486 0.39236167
0.11214201 0.022277398 0.39228699
0.11245385 0.022270143 0.39213899
0.11276478 0.022262754 0.39198855
0.11308698 0.022257628 0.39187795
0.11343967 0.02225852 0.39187333
0.11375192 0.022251491 0.39172915
0.11406937 0.022245521 0.39160371
