# .PCD v0.7 - Point Cloud Data file format
VERSION 0.7
FIELDS x y z
SIZE 4 4 4
TYPE F F F
COUNT 1 1 1
WIDTH 1338
HEIGHT 1
VIEWPOINT 0 0 0 1 0 0 0
POINTS 1338
DATA ascii
-0.03636393 0.043921258 0.30706334
-0.036092591 0.043920897 0.30706787
-0.035818469 0.043917127 0.3070485
-0.035561945 0.043935023 0.30718064
-0.035281416 0.043923318 0.30710569
-0.034992076 0.043900378 0.30695215
-0.034749512 0.043936227 0.30720955
-0.034477353 0.043934923 0.30720723
-0.034213036 0.04394367 0.30727509
-0.033881128 0.043865051 0.30673197
-0.029705435 0.043695629 0.30564019
-0.029436639 0.043696906 0.30565491
-0.029179458 0.043715611 0.30579147
-0.02772207 0.043545231 0.30462739
-0.027457904 0.043552469 0.30468342
-0.027181091 0.043539599 0.30459869
-0.026900373 0.04352016 0.30446795
-0.02662068 0.043501999 0.30434611
-0.02636764 0.043527462 0.30452943
-0.026090218 0.043512795 0.30443192
-0.02580693 0.043487933 0.30426303
-0.025527565 0.043469232 0.30413717
-0.025257178 0.043465581 0.30411658
-0.024977194 0.043445162 0.30397862
-0.024706591 0.043440793 0.30395287
-0.0244318 0.04342889 0.30387437
-0.024155537 0.043414067 0.3037754
-0.023885401 0.043410055 0.30375198
-0.023616016 0.04340734 0.30373758
-0.023330433 0.043374438 0.30351189
-0.023050973 0.043352291 0.30336145
-0.022775805 0.043337796 0.30326444
-0.022500327 0.043322355 0.30316076
-0.022237441 0.043331079 0.30322617
-0.021962173 0.043315601 0.30312213
-0.021690356 0.043306626 0.30306354
-0.021408144 0.043276425 0.30285633
-0.021141453 0.043277223 0.30286607
-0.020868832 0.043265756 0.30278984
-0.020597095 0.043255843 0.30272445
-0.020325566 0.043246109 0.30266029
-0.020048983 0.043225229 0.30251801
-0.019777492 0.04321491 0.30244964
-0.019507933 0.043208588 0.30240917
-0.019227833 0.043178421 0.30220175
-0.018960748 0.043177042 0.30219579
-0.018691519 0.043170676 0.30215481
-0.018421877 0.043163158 0.30210578
-0.01814016 0.043126717 0.30185419
-0.017873436 0.043125361 0.30184814
-0.017601283 0.043110676 0.30174872
-0.017332977 0.043105099 0.30171302
-0.017055439 0.043076031 0.30151281
-0.016791595 0.043081179 0.30155209
-0.016516846 0.043058075 0.30139348
-0.016248096 0.043050103 0.30134079
-0.015979482 0.043042228 0.30128872
-0.015709529 0.043030426 0.30120909
-0.01543732 0.043011934 0.30108258
-0.0151594 0.042976603 0.30083817
-0.014892894 0.042972956 0.30081543
-0.014628731 0.042976055 0.30083987
-0.014358192 0.042960189 0.30073154
-0.014084211 0.042933244 0.30054554
-0.013817054 0.042926461 0.30050066
-0.013545156 0.042904396 0.30034876
-0.013283581 0.042914808 0.3004241
-0.013010365 0.042887263 0.30023369
-0.012746154 0.042888887 0.30024743
-0.012471111 0.042853355 0.30000097
-0.012207043 0.042854812 0.30001345
-0.011932475 0.042818654 0.29976252
-0.011666102 0.042810939 0.29971063
-0.011406505 0.042828295 0.29983425
-0.011135489 0.042802598 0.29965636
-0.010871758 0.042804338 0.29967049
-0.010600518 0.042775858 0.29947305
-0.010331743 0.042756129 0.29933679
-0.010071815 0.042772938 0.29945627
-0.0097987531 0.042733368 0.29918101
-0.0095332973 0.042725712 0.2991291
-0.0092699798 0.04272747 0.29914302
-0.0090008313 0.042701669 0.29896396
-0.0087396149 0.042713072 0.29904535
-0.0084696887 0.042681314 0.29882443
-0.008205926 0.042679567 0.29881361
-0.0079410905 0.042671937 0.29876155
-0.0076744324 0.042653657 0.29863486
-0.0074118879 0.042657752 0.29866481
-0.0071455729 0.042639662 0.29853931
-0.0068832608 0.042644981 0.29857767
-0.0066146776 0.042610332 0.29833615
-0.0063520023 0.042612448 0.298352
-0.0060887067 0.042610411 0.29833865
-0.0058261682 0.042613719 0.29836276
-0.0055596596 0.042586949 0.29817614
-0.005295163 0.042573694 0.29808414
-0.0050317734 0.042568419 0.29804793
-0.0047669485 0.042549755 0.29791793
-0.0045052939 0.04255886 0.29798234
-0.0042407508 0.042540126 0.29785174
-0.0039766636 0.042523801 0.29773793
-0.0037133188 0.042513669 0.29766744
-0.0034507276 0.042511292 0.29765117
-0.0031863991 0.042485353 0.29746994
-0.0029231263 0.042470112 0.29736349
-0.0026611562 0.042472661 0.29738155
-0.0023982944 0.042459983 0.29729301
-0.0021362971 0.042461388 0.29730296
-0.0018742149 0.042461272 0.29730222
-0.0016111534 0.042435333 0.29712057
-0.001348303 0.042405974 0.29691496
-0.0010865895 0.042406853 0.29692101
-0.00082439528 0.042383581 0.29675794
-0.00056261121 0.0423696 0.29665983
-0.00030106469 0.042364802 0.29662594
-3.9568051e-05 0.042350329 0.29652426
0.00022172253 0.042330563 0.2963855
0.00048285871 0.042318624 0.29630145
0.00074398663 0.04231457 0.29627261
0.001005072 0.042310826 0.29624581
0.0012660717 0.042305753 0.29620969
0.0015273959 0.042311393 0.29624853
0.0017880216 0.042298853 0.29616004
0.0020488745 0.042294197 0.29612663
0.0023087319 0.042272355 0.29597288
0.0025689644 0.04226112 0.29589331
0.0028301412 0.042266048 0.2959269
0.0030889646 0.04223796 0.29572925
0.003347859 0.042215139 0.29556838
0.0036088247 0.04221984 0.29560021
0.003869866 0.042224731 0.29563329
0.0041286349 0.04220577 0.29549929
0.0043866541 0.042181842 0.29533052
0.004645993 0.042172585 0.29526436
0.0049050874 0.042162195 0.29519024
0.0051642819 0.042153671 0.29512915
0.0054235728 0.042146709 0.29507893
0.0056819185 0.042133372 0.29498401
0.0059372396 0.042099755 0.29474705
0.0061946418 0.042083092 0.29462871
0.0064528817 0.042073239 0.29455802
0.0067136809 0.042080179 0.29460484
0.006971295 0.042067379 0.2945134
0.0072288387 0.042055096 0.29442552
0.0074885939 0.042056069 0.29443043
0.0077452129 0.042039964 0.29431567
0.0079988465 0.042009216 0.29409835
0.0082559362 0.04199798 0.29401764
0.0085110236 0.041977555 0.29387248
0.0087695578 0.041974828 0.29385117
0.0090281349 0.041972455 0.29383233
0.0092851976 0.041963372 0.29376641
0.009546943 0.041975364 0.29384801
0.0098033855 0.041964032 0.29376626
0.010061505 0.041960265 0.29373744
0.010311593 0.041924041 0.29348129
0.010567687 0.041913401 0.29340422
0.010826356 0.041913245 0.29340053
0.011079269 0.041891325 0.29324439
0.011336613 0.041886784 0.29320985
0.011595242 0.041887078 0.29320911
0.011853492 0.041886024 0.29319885
0.012111412 0.041883875 0.29318088
0.012370859 0.041886982 0.29319969
0.01263131 0.041893288 0.29324082
0.012889022 0.041890439 0.29321781
0.013148596 0.041893631 0.29323703
0.013409256 0.041900102 0.29327911
0.013667434 0.041898713 0.29326618
0.013929285 0.041908424 0.29333085
0.014189409 0.041912682 0.29335731
-0.036966391 0.044264928 0.30754286
-0.036683727 0.044251438 0.30745628
-0.036396988 0.044232801 0.30733392
-0.036124408 0.044231217 0.30732998
-0.035840519 0.044215661 0.30722889
-0.035573803 0.044221211 0.3072744
-0.035296392 0.044213451 0.3072274
-0.035029396 0.044218726 0.30727091
-0.034753218 0.044212401 0.30723375
-0.034494262 0.044228055 0.30734926
-0.03422907 0.0442359 0.30741048
-0.029443048 0.043976475 0.30571291
-0.029177904 0.043983385 0.30576664
-0.027731486 0.043829169 0.30472228
-0.027468638 0.043838713 0.30479401
-0.027197391 0.043834899 0.30477282
-0.026919937 0.04382091 0.30468085
-0.026646826 0.043813787 0.30463651
-0.026363147 0.043788951 0.30446902
-0.026091293 0.043783464 0.30443594
-0.025807301 0.043757271 0.30425888
-0.02553218 0.043745738 0.30418369
-0.025261158 0.043741047 0.30415601
-0.024992494 0.043740395 0.30415633
-0.024713563 0.043721549 0.30403015
-0.024442524 0.043716419 0.30399925
-0.02416911 0.043706875 0.30393758
-0.023894666 0.043695245 0.30386135
-0.023617271 0.043677878 0.30374524
-0.023334445 0.043649968 0.30355567
-0.023065669 0.04364799 0.30354643
-0.02279241 0.043637384 0.30347708
-0.022515656 0.043619756 0.30335888
-0.022233807 0.043591712 0.30316821
-0.021972258 0.043603275 0.30325291
-0.021700658 0.043594938 0.30319908
-0.021417428 0.043562725 0.30297926
-0.021147169 0.043556429 0.30293953
-0.020879371 0.0435551 0.30293435
-0.020599145 0.043527473 0.30274621
-0.020332664 0.043528549 0.30275762
-0.020060493 0.04351731 0.30268335
-0.019785613 0.043499812 0.30256546
-0.019517573 0.043497086 0.30255026
-0.019239122 0.043470759 0.30237088
-0.018964209 0.043451797 0.30224264
-0.01869656 0.043449178 0.30222803
-0.018430304 0.043449763 0.30223566
-0.018152282 0.043422226 0.30204761
-0.017887782 0.043426707 0.30208218
-0.017616507 0.043414611 0.30200145
-0.017338047 0.043384179 0.30179304
-0.017059378 0.043352254 0.30157426
-0.016795455 0.043357391 0.30161318
-0.016525373 0.043346547 0.30154088
-0.016259866 0.043347538 0.30155089
-0.015981888 0.043314766 0.30132595
-0.015718039 0.043319829 0.30136415
-0.015438698 0.04328163 0.30110136
-0.015171911 0.043277912 0.30107835
-0.014896878 0.043250117 0.30088782
-0.014630489 0.043246873 0.30086797
-0.014360419 0.043232419 0.30077013
-0.014092027 0.043222576 0.3007043
-0.013819335 0.04319891 0.30054227
-0.013555107 0.043201301 0.30056143
-0.01328808 0.043194689 0.30051792
-0.013015862 0.043170583 0.30035263
-0.012748169 0.043160807 0.30028698
-0.012483581 0.043161351 0.30029306
-0.01220805 0.043123264 0.30003032
-0.011938806 0.043106191 0.29991373
-0.011673892 0.043104336 0.29990298
-0.011405684 0.043089949 0.29980496
-0.011136035 0.043069307 0.29966336
-0.010871853 0.043069325 0.29966542
-0.0084760971 0.042977709 0.29904324
-0.0082108648 0.04296932 0.29898623
-0.0079413131 0.042937003 0.29876277
-0.0076769167 0.042931311 0.29872444
-0.0074122795 0.042923823 0.29867357
-0.0071473615 0.0429141 0.29860711
-0.0068817227 0.042899139 0.29850411
-0.0066184006 0.042898007 0.29849732
-0.0063530263 0.04288293 0.29839343
-0.0060892361 0.042877708 0.29835805
-0.0058275028 0.042887155 0.29842469
-0.0055637551 0.042881973 0.29838946
-0.0053000799 0.042876862 0.29835472
-0.0050344276 0.042854398 0.29819912
-0.0047688182 0.042829841 0.29802892
-0.004505028 0.042819716 0.29795912
-0.004241528 0.042811275 0.29790092
-0.0039795358 0.042817939 0.29794782
-0.0037143673 0.04278896 0.2977466
-0.0034505539 0.042772382 0.29763162
-0.0031888867 0.042781856 0.29769793
-0.0029256374 0.042769924 0.29761517
-0.0026626426 0.042759724 0.29754442
-0.0023994651 0.042744044 0.29743552
-0.0021373399 0.042745572 0.29744625
-0.00187455 0.042732388 0.29735458
-0.0016116627 0.042712338 0.29721504
-0.0013493148 0.042701583 0.29714021
-0.0010871752 0.042693846 0.29708624
-0.00082494749 0.04267665 0.29696643
-0.00056310819 0.042672936 0.29694033
-0.00030123183 0.04265755 0.29683301
-3.9537903e-05 0.042635724 0.29668078
0.00022186743 0.042609841 0.2965003
0.00048303074 0.042590588 0.29636592
0.00074410014 0.042579465 0.29628798
0.0010051753 0.042574339 0.2962518
0.0012666438 0.042584553 0.29632226
0.0015273785 0.042570807 0.29622597
0.0017884022 0.04256795 0.29620534
0.0020488873 0.042554624 0.29611185
0.002310358 0.042562466 0.29616559
0.0025704021 0.042545095 0.29604381
0.0028316251 0.042548634 0.29606751
0.00308997 0.042511974 0.29581144
0.0033496323 0.042497735 0.29571131
0.0036100668 0.04249464 0.29568863
0.0038698916 0.042485256 0.29562223
0.0041290196 0.042469889 0.29551408
0.0043888334 0.04246299 0.29546475
0.0046461462 0.042434003 0.29526174
0.0049072215 0.042440634 0.2953065
0.0051643844 0.042414472 0.29512301
0.005426391 0.042428676 0.29522038
0.0056843329 0.042411257 0.29509762
0.0059456835 0.042419683 0.29515463
0.0062018516 0.042391971 0.29496017
0.0064597516 0.042377848 0.29486018
0.0067167371 0.042359054 0.29472765
0.0069765095 0.042358574 0.2947225
0.0072314334 0.042329747 0.29452005
0.0074893157 0.042319633 0.29444775
0.0077510513 0.042331241 0.29452655
0.0080051944 0.042301975 0.29432085
0.0082569979 0.042262569 0.29404461
0.0085148765 0.042255707 0.29399472
0.0087733595 0.042252161 0.29396784
0.0090312995 0.042246278 0.29392466
0.0092912884 0.042250033 0.29394847
0.0095500425 0.042248126 0.29393283
0.0098064449 0.042236194 0.29384741
0.010063672 0.042228326 0.29379016
0.010316891 0.042204466 0.29362163
0.01057147 0.042187188 0.29349887
0.01083173 0.042192876 0.2935358
0.011083929 0.042167626 0.29335743
0.01134041 0.042159434 0.29329774
0.011596881 0.042151585 0.29324031
0.011856984 0.042156987 0.29327503
0.012114082 0.042151697 0.29323533
0.012373925 0.042155985 0.29326218
0.012633087 0.042157818 0.29327193
0.012892246 0.042159569 0.29328105
0.013151059 0.042160142 0.29328188
0.013411142 0.042164683 0.29331031
0.013670489 0.042166777 0.29332167
0.013931656 0.042174309 0.29337075
-0.036964975 0.044535022 0.30752239
-0.036691252 0.044532299 0.30751073
-0.03641367 0.044524807 0.30746612
-0.036140535 0.044522688 0.30745852
-0.035875317 0.044530362 0.30751851
-0.035585113 0.0445069 0.30736345
-0.035322897 0.044518359 0.30744949
-0.035027973 0.044488449 0.30724978
-0.034773596 0.044509973 0.30740523
-0.034509476 0.044519272 0.30747619
-0.034249924 0.04453465 0.30758911
-0.033998605 0.044561069 0.30777824
-0.027737051 0.044107173 0.30477488
-0.027473573 0.044115845 0.30484015
-0.027211364 0.044126753 0.30492085
-0.026927793 0.044102885 0.3047612
-0.026658816 0.044102684 0.30476502
-0.026379125 0.044084575 0.30464503
-0.026109066 0.044082351 0.30463478
-0.025830861 0.044066187 0.30452815
-0.025550697 0.044046301 0.30439574
-0.0252739 0.044031873 0.3043009
-0.025004135 0.044029508 0.30428946
-0.02472158 0.044004329 0.30412027
-0.024448399 0.04399547 0.30406383
-0.024172651 0.043981738 0.30397364
-0.023903802 0.043980397 0.30396903
-0.023633655 0.043976609 0.30394745
-0.023364468 0.043974541 0.3039377
-0.023074318 0.043932509 0.30365172
-0.02280237 0.043924559 0.30360124
-0.022528239 0.043912165 0.30351993
-0.022263464 0.043917935 0.30356413
-0.021978253 0.043883041 0.3033272
-0.021703586 0.043868594 0.30323157
-0.021426369 0.04384857 0.30309731
-0.021167161 0.043865364 0.3032175
-0.020895001 0.043855395 0.30315268
-0.020614127 0.043826651 0.30295798
-0.020344546 0.04382148 0.30292615
-0.020074472 0.043815095 0.30288586
-0.019800799 0.04380057 0.3027893
-0.019522266 0.043774765 0.30261469
-0.019242015 0.043744322 0.30240795
-0.018973261 0.043739539 0.30237857
-0.018704787 0.043735277 0.30235267
-0.018437058 0.043732654 0.30233809
-0.018166943 0.043724217 0.30228323
-0.017893177 0.043706603 0.30216494
-0.017617196 0.043682978 0.30200493
-0.01735607 0.04369602 0.30209845
-0.017068567 0.043642029 0.30172846
-0.01680181 0.043640207 0.30171907
-0.016527962 0.043619622 0.30157989
-0.016256552 0.043604907 0.30148122
-0.015993383 0.043612167 0.30153447
-0.015724769 0.043604583 0.301485
-0.015446486 0.043569453 0.30124509
-0.015171253 0.043541864 0.30105716
-0.014902801 0.043533091 0.30099934
-0.014634235 0.043523658 0.30093688
-0.01436221 0.043503411 0.30079958
-0.014100298 0.043513611 0.30087274
-0.013831984 0.043504063 0.30080932
-0.013571665 0.043519784 0.30092058
-0.0063544298 0.043156084 0.29845268
-0.006090668 0.043151461 0.29842162
-0.0058272155 0.043148708 0.29840353
-0.0055641555 0.043148745 0.29840463
-0.005301123 0.043149009 0.29840726
-0.0050361343 0.043132551 0.29829416
-0.0047717281 0.043119546 0.2982049
-0.0045088786 0.043119919 0.29820809
-0.0042464463 0.043124571 0.29824087
-0.0039809276 0.043096438 0.2980468
-0.0037163792 0.043075573 0.29790294
-0.0034521697 0.043055765 0.29776636
-0.0031887963 0.04304399 0.29768527
-0.0029259105 0.043037277 0.29763913
-0.0026629693 0.043028358 0.29757768
-0.0024003878 0.043023936 0.29754728
-0.0021370691 0.0430036 0.29740676
-0.0018754611 0.043016825 0.29749829
-0.0016122457 0.0429915 0.29732314
-0.001349614 0.042974941 0.29720855
-0.0010875652 0.042973436 0.29719806
-0.00082509447 0.042949036 0.29702914
-0.00056306954 0.042935971 0.29693857
-0.0003012603 0.042930976 0.29690379
-3.9516435e-05 0.042931259 0.2969054
0.00022207423 0.042901222 0.29669726
0.00048343177 0.042882968 0.2965706
0.00074464025 0.042868927 0.296473
0.0010056966 0.042855691 0.29638088
0.0012669102 0.042853214 0.29636315
0.0015279116 0.042845629 0.29631007
0.0017898588 0.0428629 0.29642877
0.002050797 0.042854682 0.29637116
0.0023115024 0.042843997 0.29629645
0.0025705174 0.042807326 0.29604197
0.0028305554 0.042792883 0.29594111
0.0030898664 0.042770799 0.29578742
0.0033508891 0.042774003 0.29580849
0.0036118072 0.042775508 0.29581782
0.0038710511 0.042758305 0.29569769
0.0041314852 0.042755593 0.29567769
0.0043898178 0.042732738 0.29551837
0.0046484005 0.042714737 0.29539257
0.0049074534 0.042702746 0.29530826
0.0051675639 0.042700686 0.29529262
0.0054273708 0.042696442 0.29526174
0.0056871139 0.042692102 0.29523018
0.0059467847 0.042687625 0.29519764
0.0062061413 0.042681359 0.2951526
0.0064665657 0.042682637 0.29515976
0.0067186225 0.042630725 0.29479903
0.0069759376 0.042614799 0.29468706
0.0072339624 0.042604197 0.29461187
0.0074955039 0.042614322 0.29467997
0.0077529121 0.042601053 0.29458621
0.0080136675 0.042606436 0.29462141
0.0082612652 0.042543724 0.29418567
0.0085217906 0.042549379 0.29422259
0.0087795723 0.042541403 0.29416525
0.0090380041 0.042536933 0.29413211
0.0092944484 0.042523637 0.29403782
0.0095510045 0.042511545 0.29395184
0.0098120999 0.042519759 0.29400623
0.010064146 0.042489346 0.2937935
0.010320578 0.042478517 0.29371607
0.010577494 0.042470157 0.29365569
0.01083718 0.042473044 0.29367304
0.01109784 0.042479537 0.29371521
0.011341423 0.042421848 0.29331359
0.011599262 0.042418867 0.2932902
0.011859712 0.042425364 0.29333225
0.012117737 0.042423077 0.29331353
0.012377606 0.042427216 0.29333916
0.012635691 0.042425193 0.29332218
0.012895595 0.042429239 0.29334706
0.013153502 0.042426672 0.2933262
0.01341413 0.042432815 0.29336551
0.013673343 0.042434338 0.29337281
0.013932614 0.042435974 0.29338083
0.014192453 0.042439256 0.29340014
0.014455582 0.042452071 0.29348537
0.014717123 0.04245986 0.29353577
0.014981842 0.04247639 0.29364654
-0.037263278 0.044839107 0.30772805
-0.036994897 0.044843089 0.30776262
-0.036715716 0.044833954 0.30770707
-0.036460105 0.044853672 0.30784953
-0.036157899 0.044815935 0.30759758
-0.035893906 0.044825349 0.30766919
-0.035587873 0.044782005 0.30737862
-0.035312995 0.044777505 0.30735463
-0.035058446 0.044798903 0.30750835
-0.03479505 0.044809248 0.30758619
-0.034545086 0.044837195 0.30778477
-0.034291316 0.044860605 0.30795214
-0.034037657 0.044884536 0.30812308
-0.02747838 0.044392876 0.30488488
-0.027209802 0.044393532 0.30489472
-0.026934013 0.044382319 0.30482298
-0.026671385 0.044392787 0.30490008
-0.026392771 0.044376586 0.30479398
-0.026118297 0.044367097 0.30473384
-0.025831966 0.044337049 0.30453253
-0.025568418 0.044345882 0.30459824
-0.025285067 0.044320203 0.30442676
-0.025021793 0.044329531 0.30449575
-0.024736356 0.044299386 0.30429348
-0.024454029 0.044274196 0.30412525
-0.02418738 0.044277161 0.30415031
-0.023909632 0.044259641 0.30403462
-0.023643464 0.044263396 0.30406502
-0.023370225 0.04425386 0.30400407
-0.0230857 0.044222482 0.30379301
-0.022827005 0.044240419 0.30392069
-0.022540139 0.044203542 0.30367172
-0.022259323 0.044177793 0.30349913
-0.021985177 0.04416481 0.30341423
-0.021723807 0.044177491 0.30350554
-0.021444794 0.044154163 0.30334947
-0.021174205 0.044147808 0.30330992
-0.020900737 0.044135217 0.30322745
-0.020630194 0.044128552 0.30318564
-0.02035713 0.044116244 0.30310506
-0.020088067 0.044112407 0.30308256
-0.019808507 0.0440851 0.30289876
-0.019535031 0.044070777 0.30280411
-0.01925599 0.044043325 0.30261919
-0.01898871 0.044042386 0.30261639
-0.018720986 0.044040363 0.30260611
-0.018445164 0.044018965 0.30246264
-0.018175835 0.044012666 0.30242285
-0.017907199 0.044007875 0.30239338
-0.017633226 0.043989636 0.30227143
-0.017366646 0.043989558 0.3022742
-0.017082401 0.043944038 0.3019647
-0.01679744 0.043895207 0.30163231
-0.016535293 0.043905389 0.30170542
-0.016264224 0.043891814 0.30161527
-0.015995899 0.04388532 0.30157366
-0.01573229 0.043891761 0.30162093
-0.0055640847 0.043411881 0.29839444
-0.0053010508 0.043412127 0.29839694
-0.0050368523 0.043402374 0.29833063
-0.0047728145 0.043393001 0.29826689
-0.0045090392 0.043385074 0.29821301
-0.0042463886 0.043387655 0.29823133
-0.003981811 0.043369595 0.29810768
-0.003718805 0.043367304 0.29809242
-0.0034542626 0.043345403 0.29794225
-0.0031904033 0.043329172 0.29783103
-0.0029268353 0.043314345 0.2977294
-0.0026642813 0.043313086 0.297721
-0.002401317 0.043304164 0.29765981
-0.0021386626 0.043299332 0.2976267
-0.001875096 0.043272093 0.29743958
-0.0016129473 0.043274067 0.29745314
-0.001350132 0.043255448 0.2973251
-0.0010876991 0.043243073 0.29723993
-0.00082577346 0.043249432 0.29728347
-0.00056335749 0.043224104 0.29710916
-0.00030146295 0.043229576 0.29714653
-3.9471171e-05 0.043201618 0.29695401
0.0002223402 0.043204382 0.29697266
0.00048413163 0.043202356 0.29695824
0.00074545655 0.043174714 0.29676777
0.0010063902 0.043144643 0.29656053
0.0012675307 0.043134 0.29648677
0.0015288802 0.043132894 0.29647848
0.0017908415 0.043146834 0.29657358
0.0020515923 0.043131772 0.29646927
0.0023135333 0.0431423 0.2965408
0.0025710543 0.043076631 0.29608852
0.0028345087 0.043113306 0.29633969
0.0030917455 0.043057211 0.29595309
0.0033529899 0.043061294 0.29598016
0.0036124794 0.043043885 0.29585937
0.0038722474 0.043031905 0.29577589
0.0041335947 0.04303788 0.29581574
0.0043930877 0.043024987 0.29572582
0.0046506049 0.042995259 0.29552019
0.0049103191 0.042987928 0.29546839
0.0051684915 0.0429685 0.29533347
0.0054278588 0.042960402 0.29527631
0.0056870021 0.042951349 0.29521254
0.0059468476 0.042948157 0.29518899
0.0062063197 0.042942651 0.29514948
0.0064675156 0.042949028 0.29519159
0.0067245262 0.042928196 0.29504666
0.0069778375 0.042886175 0.29475603
0.0072393175 0.042895574 0.29481873
0.0074949535 0.04287089 0.29464716
0.0077533638 0.042863186 0.29459226
0.0080143083 0.042869549 0.29463392
0.0082725063 0.042861279 0.29457501
0.0085287252 0.042843569 0.29445115
0.0087820664 0.042812869 0.29423794
0.0090409033 0.04280996 0.29421568
0.0093003605 0.042810064 0.29421407
0.0095561901 0.042793918 0.29410076
0.0098167043 0.042799044 0.29413357
0.010068578 0.042767204 0.29391229
0.01032668 0.042762756 0.29387918
0.010583389 0.042752892 0.29380882
0.010840921 0.042746741 0.29376391
0.011094346 0.042725068 0.29361227
0.011354133 0.042728323 0.29363191
0.011605541 0.042700604 0.29343861
0.011860603 0.042687241 0.2933439
0.012120065 0.042689942 0.29335958
0.012379703 0.042693146 0.29337862
0.012639693 0.042697392 0.29340482
0.012899241 0.042700015 0.29341978
0.013157353 0.042697869 0.2934019
0.013416795 0.042700037 0.29341364
0.013676314 0.042702369 0.29342639
0.013936081 0.042705368 0.29344374
0.014195839 0.042708229 0.29346004
0.014454549 0.042707894 0.29345435
0.014717723 0.042720519 0.29353765
-0.037278555 0.045129601 0.30784553
-0.037005935 0.045128576 0.30784574
-0.036744911 0.045141786 0.30794299
-0.036473177 0.045141939 0.30795115
-0.036202163 0.04514299 0.30796537
-0.035905216 0.045111477 0.30775738
-0.035628706 0.045105353 0.30772257
-0.035340451 0.045084152 0.30758485
-0.035080813 0.045099422 0.30769584
-0.034813013 0.04510434 0.30773622
-0.034569852 0.045141526 0.30799663
-0.034297209 0.045140494 0.3079963
-0.034056474 0.045181774 0.30828461
-0.027483655 0.044670761 0.30493474
-0.027215753 0.04467262 0.30495274
-0.026945276 0.044670243 0.30494177
-0.026673835 0.044666201 0.30491939
-0.026401596 0.044660736 0.30488724
-0.026113855 0.044628657 0.30467337
-0.025839085 0.04461832 0.30460781
-0.025575679 0.044627592 0.30467609
-0.025300013 0.044615433 0.30459806
-0.025024878 0.04460397 0.30452466
-0.024759373 0.044609603 0.30456796
-0.02448722 0.044603255 0.3045294
-0.024200125 0.044569246 0.30430192
-0.023919906 0.04454729 0.30415666
-0.023650099 0.044544432 0.30414176
-0.023372421 0.044526529 0.30402404
-0.023107704 0.044533178 0.30407393
-0.02281124 0.044478089 0.30370221
-0.022537751 0.044467013 0.30363098
-0.022259288 0.044445746 0.30349007
-0.021994455 0.044451516 0.30353373
-0.021731438 0.044461127 0.30360362
-0.021451442 0.044435821 0.30343494
-0.021184903 0.044438101 0.30345461
-0.020904206 0.044410363 0.30326924
-0.020628547 0.044392746 0.30315295
-0.020360855 0.044392038 0.30315199
-0.020096539 0.04439877 0.30320188
-0.019819451 0.044377085 0.30305764
-0.019545797 0.044362601 0.30296248
-0.01926871 0.044339824 0.30281067
-0.018993141 0.044319946 0.30267856
-0.018727409 0.044322781 0.3027015
-0.018448014 0.044292893 0.30250093
-0.018177399 0.044283528 0.30244046
-0.017914142 0.04429207 0.30250221
-0.01765432 0.044309493 0.30262461
-0.017365653 0.044253949 0.30224857
-0.017099231 0.044254243 0.30225384
-0.016806774 0.044186097 0.30179161
-0.016531633 0.044162013 0.30163029
-0.0050354572 0.043653961 0.29824188
-0.0047731753 0.043659955 0.29828355
-0.0045095901 0.043654036 0.2982437
-0.004246912 0.043656711 0.29826257
-0.003983391 0.043650508 0.29822069
-0.0037189715 0.043632891 0.2981008
-0.0034550405 0.043618768 0.29800469
-0.0031909463 0.043600094 0.29787743
-0.0029287681 0.043606605 0.29792222
-0.0026662105 0.043608189 0.29793325
-0.0024023871 0.043587167 0.29778981
-0.0021390705 0.043571316 0.29768163
-0.001877025 0.043580551 0.29774481
-0.0016134873 0.043552518 0.29755327
-0.0013512016 0.043553967 0.29756311
-0.0010886667 0.043546159 0.29750967
-0.00082591915 0.043522209 0.29734588
-0.0005634689 0.043498956 0.29718679
-0.00030153475 0.0435098 0.29726061
-3.9446291e-05 0.043494944 0.29715878
0.00022246783 0.043480933 0.2970627
0.00048423826 0.043469146 0.29698172
0.000745981 0.043463998 0.29694605
0.0010072326 0.043440334 0.2967838
0.0012683735 0.043422628 0.29666224
0.0015297573 0.04341786 0.29662901
0.0017916727 0.043427356 0.29669318
0.0020520901 0.043402746 0.29652429
0.0023143708 0.043418657 0.29663211
0.0025746571 0.043397706 0.29648811
0.0028334234 0.043357346 0.29621145
0.0030932433 0.043338567 0.29608214
0.0033534402 0.043327577 0.29600602
0.00361394 0.043321796 0.29596543
0.0038757776 0.04333175 0.29603225
0.0041338881 0.043301407 0.29582372
0.0043940665 0.04329503 0.2957789
0.0046527558 0.043275524 0.29564431
0.0049125329 0.04326766 0.29558921
0.0051703956 0.043244567 0.29543006
0.0054310057 0.04324558 0.29543546
0.0056897406 0.04323224 0.29534274
0.0059501082 0.043231927 0.29533902
0.0062110927 0.043235935 0.29536474
0.0064686476 0.043216702 0.29523167
0.0067241942 0.043186061 0.29502058
0.0069844308 0.043186698 0.29502311
0.0072431141 0.043178033 0.29496202
0.0074976403 0.043146033 0.29474151
0.007758419 0.043150961 0.29477319
0.008015966 0.043138176 0.29468381
0.0082734255 0.04312573 0.29459667
0.0085313423 0.043116361 0.29453051
0.0087907529 0.043114856 0.29451805
0.0090499306 0.043112334 0.29449859
0.0093074683 0.043102361 0.29442814
0.0095613934 0.043076646 0.29425013
0.0098180976 0.043064483 0.2941646
0.010075865 0.043057486 0.29411435
0.010333164 0.043048881 0.29405305
0.010590913 0.043042537 0.29400712
0.010844127 0.043018501 0.29384029
0.011100003 0.043005899 0.29375154
0.011359559 0.043007798 0.29376176
0.011613567 0.042989079 0.29363111
0.011869284 0.042977367 0.29354826
0.012124183 0.042963248 0.29344893
0.012384486 0.042968467 0.29348159
0.012646195 0.042978257 0.29354545
0.012900231 0.042962089 0.29343197
0.013159243 0.042962812 0.29343379
0.01341919 0.042966496 0.29345578
0.013678991 0.042969581 0.2934736
0.013937628 0.042968962 0.29346609
0.014199739 0.042978883 0.29353052
0.014458626 0.04297886 0.29352695
0.014721847 0.042991493 0.2936098
0.014982043 0.042995013 0.2936303
0.015242747 0.042999841 0.29365972
-0.037299197 0.045426846 0.30800718
-0.037025839 0.045425098 0.3080025
-0.036762059 0.045435164 0.3080779
-0.036487766 0.045432284 0.30806553
-0.036209278 0.045424107 0.30801708
-0.035928812 0.0454133 0.30795079
-0.035640236 0.045392007 0.30781335
-0.035374779 0.04540005 0.30787483
-0.035111934 0.045411602 0.30796
-0.034839556 0.045410905 0.30796203
-0.034585893 0.04543478 0.30813074
-0.034304682 0.045422573 0.30805463
-0.034058463 0.045456864 0.30829382
-0.033810314 0.045489106 0.3085191
-0.027490174 0.044950791 0.30499837
-0.027228404 0.044962887 0.30508575
-0.026952457 0.04495158 0.30501431
-0.026683737 0.044952225 0.30502391
-0.026408287 0.044941429 0.30495578
-0.026141305 0.044944972 0.30498493
-0.025867902 0.044937432 0.30493882
-0.025591228 0.044923995 0.30485263
-0.025314454 0.044910096 0.30476326
-0.025047446 0.044913411 0.30479059
-0.024773529 0.044904273 0.30473343
-0.024489457 0.044876322 0.30454853
-0.02422538 0.044884812 0.30461085
-0.023929369 0.044833653 0.3042683
-0.02365871 0.044829372 0.30424386
-0.023382615 0.044814572 0.30414799
-0.023106443 0.044799291 0.30404875
-0.022839433 0.044801611 0.30406895
-0.02255784 0.044775046 0.303893
-0.022281688 0.044758771 0.30378687
-0.022010496 0.044752192 0.30374649
-0.021745235 0.044757657 0.30378777
-0.021466583 0.044735346 0.30364054
-0.021183278 0.044702664 0.30342278
-0.020906668 0.044683445 0.30329639
-0.0206408 0.044686988 0.30332443
-0.020372482 0.044685256 0.30331659
-0.020104656 0.044684567 0.30331579
-0.019822828 0.04465232 0.30310073
-0.019557554 0.044656996 0.30313623
-0.019275947 0.044623982 0.30291584
-0.019010155 0.044627171 0.30294117
-0.018732674 0.044602621 0.3027781
-0.018461464 0.044592511 0.30271301
-0.018178293 0.044552792 0.30244687
-0.017921651 0.044577874 0.30262059
-0.017658148 0.044586394 0.3026818
-0.0039827195 0.04390683 0.29816517
-0.0037194679 0.043902408 0.29813558
-0.0034559083 0.043893408 0.29807487
-0.0031937093 0.043901633 0.29813108
-0.0029296186 0.043883007 0.29800487
-0.0026672578 0.04388918 0.29804701
-0.0024035894 0.043872837 0.29793623
-0.0021413795 0.043882389 0.29800117
-0.0018772215 0.043849103 0.29777518
-0.0016143263 0.043839291 0.2977086
-0.0013513222 0.043822166 0.29759222
-0.0010889026 0.043820314 0.29757953
-0.00082586746 0.043784667 0.29733732
-0.00056355557 0.043772068 0.29725152
-0.00030145934 0.043768924 0.29722992
-3.9418133e-05 0.043785449 0.29734179
0.00022263867 0.043766078 0.29720986
0.00048475637 0.043773126 0.29725727
0.00074635417 0.043744732 0.29706398
0.001007429 0.043708384 0.29681662
0.001268729 0.043694776 0.29672354
0.0015302132 0.043691069 0.29669774
0.001791831 0.043691695 0.29670125
0.0020531984 0.043686822 0.29666743
0.0023146027 0.043683741 0.29664567
0.0025757968 0.043677721 0.29660389
0.0028375206 0.043680962 0.29662493
0.0030977565 0.043662678 0.29649979
0.0033554691 0.043614428 0.2961711
0.0036150024 0.043595109 0.29603878
0.0038763848 0.043599185 0.2960653
0.0041358643 0.043582685 0.29595205
0.004396704 0.043581635 0.29594365
0.0046578576 0.043583624 0.29595584
0.0049163485 0.043561809 0.29580635
0.0051763258 0.043554701 0.29575661
0.0054351133 0.043538738 0.29564673
0.0056910808 0.043502681 0.29540032
0.0059502469 0.043493148 0.29533401
0.0062109432 0.043495145 0.29534587
0.0064695384 0.043482844 0.29526067
0.0067272573 0.04346583 0.2951434
0.0069889901 0.043475058 0.29520422
0.0072462535 0.043456815 0.29507846
0.0075059049 0.043453664 0.29505512
0.007763816 0.043440975 0.294967
0.0080208248 0.043424226 0.29485121
0.008278884 0.043414041 0.29477996
0.0085334666 0.043386791 0.2945928
0.0087918174 0.043379746 0.29454276
0.0090508722 0.043376468 0.29451829
0.0093083763 0.043366164 0.29444599
0.0095681632 0.043366753 0.29444763
0.0098259207 0.043358367 0.29438823
0.010080094 0.043334991 0.29422706
0.010334995 0.043315835 0.29409444
0.010593452 0.043312162 0.29406697
0.010848591 0.043295413 0.29395062
0.011105052 0.043284602 0.29387453
0.011364938 0.043287333 0.29389033
0.011621966 0.043279298 0.29383296
0.011879084 0.043271933 0.29378012
0.01212867 0.043238036 0.29354706
0.012385934 0.043232348 0.29350552
0.012646715 0.043238923 0.29354712
0.012904553 0.043235369 0.29351991
0.013163567 0.04323582 0.29351985
0.013425324 0.043245092 0.29357961
0.013681468 0.043236263 0.29351649
0.01394131 0.043239236 0.29353338
0.014202169 0.043245196 0.29357049
0.014461033 0.043244977 0.2935656
0.014721671 0.043249972 0.29359609
0.014984554 0.043261278 0.29366934
-0.037308671 0.045710716 0.30807656
-0.037044726 0.045720659 0.3081508
-0.036781158 0.04573122 0.30822912
-0.036499035 0.0457187 0.30815181
-0.03621532 0.045703977 0.30805963
-0.035928093 0.045684569 0.30793583
-0.035654239 0.045681994 0.30792543
-0.035399087 0.045703538 0.30807751
-0.035114501 0.045687117 0.30797365
-0.03485417 0.045702238 0.3080824
-0.034591045 0.045713905 0.30816779
-0.034324367 0.045721028 0.3082225
-0.03406724 0.045741085 0.30836436
-0.033820201 0.045775127 0.30860043
-0.027493579 0.045225821 0.30502737
-0.027230268 0.045235492 0.30509791
-0.026965834 0.045243464 0.30515695
-0.026701272 0.045251384 0.30521557
-0.026425211 0.045239784 0.30514249
-0.026157923 0.045243114 0.30517003
-0.025893256 0.045251098 0.30522895
-0.025592482 0.045195486 0.30485883
-0.025318954 0.045187324 0.30480868
-0.02503827 0.045166075 0.30467021
-0.024772326 0.045171242 0.30470991
-0.024504848 0.045173697 0.30473122
-0.024233295 0.045168608 0.30470163
-0.023949459 0.045140263 0.30451503
-0.023673324 0.045125946 0.30442309
-0.023406394 0.04512905 0.30444857
-0.023134667 0.045122877 0.30441141
-0.022855109 0.045101102 0.30426896
-0.022570131 0.045067988 0.30404994
-0.022290548 0.045044985 0.30389905
-0.022021621 0.045043211 0.30389136
-0.021747565 0.045030776 0.30381167
-0.021471117 0.045013022 0.30369604
-0.021198934 0.045003869 0.3036384
-0.020917045 0.044973619 0.30343834
-0.02064771 0.04496992 0.30341738
-0.020373486 0.044955343 0.30332294
-0.020113079 0.044971265 0.30343425
-0.01983822 0.044954874 0.30332744
-0.019555686 0.044920407 0.30309871
-0.019294871 0.044935558 0.30320466
-0.019031284 0.04494461 0.30326936
-0.018741986 0.044892311 0.30292007
-0.018474527 0.044891581 0.3029187
-0.018193023 0.044856206 0.30268344
-0.017929971 0.044865936 0.30275255
-0.0037189783 0.044160295 0.29809132
-0.0034570254 0.044171374 0.29816651
-0.0031936604 0.044164769 0.29812223
-0.002930532 0.044160526 0.29809391
-0.0026674652 0.044156492 0.29806685
-0.0024043196 0.044150122 0.29802406
-0.0021417784 0.044154659 0.29805481
-0.0018783077 0.044138633 0.29794669
-0.0016145271 0.044108938 0.29774624
-0.0013515396 0.044093601 0.29764265
-0.0010888012 0.044080958 0.29755723
-0.00082680717 0.04410002 0.29768574
-0.00056409853 0.044080995 0.29755706
-0.00030163096 0.044064146 0.29744306
-3.9369264e-05 0.044053566 0.2973713
0.00022285385 0.044060193 0.29741564
0.00048490596 0.044044089 0.29730651
0.0007469533 0.044038989 0.29727161
0.0010081996 0.044001568 0.29701844
0.0012696435 0.043986406 0.2969155
0.0015307182 0.043965816 0.29677585
0.0017922638 0.043962784 0.29675466
0.0020536955 0.043958075 0.29672211
0.0023151401 0.043954674 0.2966983
0.0025767908 0.043955475 0.29670283
0.0028387385 0.043960717 0.29673728
0.0030984262 0.043933026 0.29654938
0.0033592319 0.043924265 0.29648918
0.0036166131 0.043875214 0.29615697
0.0038784489 0.043883171 0.29620954
0.0041386262 0.043872539 0.29613653
0.0043983436 0.043858577 0.29604104
0.0046585095 0.043850407 0.29598457
0.004917277 0.043830626 0.29584968
0.005178045 0.043829769 0.29584247
0.0054353606 0.043801177 0.29564795
0.0056985365 0.043820258 0.2957752
0.0059544025 0.043783922 0.29552835
0.0062147696 0.043782339 0.29551598
0.0064745215 0.043776717 0.29547635
0.0067308126 0.043749034 0.29528776
0.0069901873 0.043742705 0.29524323
0.0072497232 0.043737814 0.29520828
0.0075087557 0.043730319 0.29515579
0.0077654491 0.043710161 0.29501772
0.0080266809 0.043716017 0.29505527
0.0082765603 0.043661635 0.29468611
0.0085373111 0.043666154 0.29471445
0.008794657 0.043653503 0.29462686
0.0090546599 0.04365439 0.29463059
0.0093144653 0.043654297 0.29462767
0.0095716799 0.043642398 0.29454499
0.0098257968 0.043617375 0.29437369
0.010084856 0.043615013 0.29435524
0.010338482 0.04358986 0.29418299
0.01060148 0.043604486 0.29427913
0.010852558 0.043570541 0.29404742
0.011113026 0.043575019 0.29407495
0.011371428 0.043571372 0.29404756
0.011626467 0.043555282 0.29393619
0.011880714 0.043536991 0.29380992
0.012135123 0.043520067 0.29369274
0.012394283 0.043520525 0.29369295
0.012649883 0.04350872 0.29361022
0.01290952 0.043511 0.29362252
0.013169792 0.043515272 0.29364827
0.013426287 0.043507151 0.29359031
0.013685795 0.043508917 0.29359901
0.01394492 0.04350942 0.2935991
0.014205469 0.043514259 0.29362842
0.014464805 0.04351528 0.29363194
0.014725538 0.043520395 0.29366297
0.01498799 0.043530323 0.29372647
0.015248139 0.04353334 0.29374325
0.015511379 0.043544922 0.29381782
-0.037633881 0.046048149 0.30849659
-0.037363317 0.046050392 0.30851889
-0.037075702 0.046031509 0.30839956
-0.036810599 0.046040501 0.30846694
-0.036526203 0.046025306 0.30837229
-0.036225237 0.045988858 0.30813509
-0.035950284 0.045985125 0.30811709
-0.035673514 0.045979012 0.30808303
-0.035406306 0.045985207 0.30813143
-0.035134725 0.045985773 0.30814213
-0.034875121 0.046002161 0.30825865
-0.034603752 0.046003155 0.30827209
-0.034338258 0.046012044 0.30833831
-0.034078069 0.046028238 0.3084535
-0.033826172 0.046055976 0.30864599
-0.026970848 0.045521494 0.30520487
-0.026702274 0.045522716 0.30521822
-0.026439615 0.045534145 0.30530003
-0.026169088 0.045532115 0.3052915
-0.025895076 0.045523919 0.30524161
-0.025605625 0.04548813 0.30500659
-0.025335805 0.045486823 0.30500278
-0.025058607 0.045472097 0.3049089
-0.024792023 0.045476522 0.30494338
-0.024513373 0.045458667 0.30482846
-0.024239788 0.045449924 0.30477449
-0.023962468 0.04543389 0.30467167
-0.023680391 0.045408387 0.30450523
-0.023415295 0.045415219 0.30455559
-0.023133077 0.045388628 0.30438176
-0.0228575 0.045374591 0.30429205
-0.022572698 0.045341689 0.30407581
-0.022308962 0.045350827 0.3041414
-0.022034124 0.045337338 0.30405521
-0.021761533 0.045328204 0.30399814
-0.021497346 0.045336556 0.30405831
-0.021219103 0.045315109 0.30391857
-0.020929938 0.045269493 0.30361667
-0.020664282 0.045274198 0.30365223
-0.020385394 0.04524966 0.30349156
-0.020118341 0.045251086 0.30350503
-0.019845113 0.04523848 0.3034243
-0.019572778 0.04522758 0.30335495
-0.019311836 0.045243084 0.30346265
-0.019034103 0.045219135 0.30330566
-0.018751036 0.045181643 0.30305779
-0.017931225 0.045136463 0.30276519
-0.0029300093 0.044416461 0.29803687
-0.0026677004 0.044424318 0.29808977
-0.0024051454 0.044429354 0.29812378
-0.0021416566 0.044416264 0.29803604
-0.0018790828 0.044421148 0.29806888
-0.0016156298 0.044403464 0.29795024
-0.0013519714 0.044372186 0.29774028
-0.0010895069 0.044374473 0.29775554
-0.0008272393 0.044388797 0.2978515
-0.00056430954 0.044364419 0.29768768
-0.00030166234 0.044339199 0.29751819
-3.9350554e-05 0.044356134 0.2976315
0.00022297147 0.044335198 0.29749063
0.000485039 0.044313613 0.29734537
0.00074745942 0.044328082 0.29744196
0.0010089541 0.044294391 0.29721534
0.001270758 0.044285346 0.29715401
0.0015325253 0.044278331 0.2971063
0.0017931332 0.044244751 0.29688025
0.0020544385 0.044234727 0.29681224
0.0023158658 0.044229299 0.29677495
0.0025777637 0.044233043 0.29679921
0.0028392503 0.044229686 0.29677573
0.0031003787 0.044221774 0.29672167
0.0033600926 0.04419649 0.29655096
0.0036208127 0.044187132 0.29648706
0.0038812889 0.044176258 0.29641294
0.0041428786 0.04417862 0.29642758
0.0044020666 0.044156611 0.29627863
0.0046603042 0.044128064 0.29608575
0.00491942 0.044110425 0.295966
0.0051796539 0.044104069 0.29592192
0.0054392018 0.044092763 0.29584461
0.005699547 0.044088662 0.29581553
0.0059575681 0.044067722 0.29567343
0.006216431 0.044054508 0.2955831
0.006477938 0.044060335 0.29562047
0.0067359498 0.044042856 0.29550144
0.006993738 0.044025265 0.29538164
0.0072540995 0.044024557 0.29537496
0.0075130123 0.044015408 0.29531169
0.0077745118 0.044021513 0.29535067
0.0080285585 0.043986395 0.295113
0.008283102 0.043956112 0.29490775
0.0085424846 0.043952577 0.29488188
0.0087998519 0.043939177 0.29478976
0.0090592802 0.043936547 0.29476985
0.0093183788 0.043932501 0.29474041
0.009578499 0.043933369 0.29474387
0.0098333536 0.043910671 0.29458916
0.010085715 0.043878291 0.29436949
0.010342505 0.043866318 0.29428661
0.010610372 0.043900769 0.29451513
0.01085537 0.043841206 0.29411295
0.011114763 0.043841206 0.29411024
0.011371814 0.043832168 0.29404688
0.011633001 0.043839127 0.29409075
0.011888292 0.043824039 0.29398671
0.012144209 0.043811861 0.2939021
0.012402007 0.043806836 0.29386541
0.012654686 0.043784294 0.29371122
0.012914964 0.043788429 0.29373586
0.013172968 0.043784838 0.29370868
0.013429863 0.043777775 0.29365811
0.013688993 0.043778118 0.29365718
0.013950101 0.043784659 0.29369777
0.014209398 0.043785382 0.29369932
0.01446929 0.043787882 0.29371265
0.014728258 0.043787535 0.29370692
0.014988409 0.043790665 0.29372439
0.015249975 0.043797746 0.29376835
0.015510771 0.043802418 0.29379609
0.015772138 0.04380852 0.29383335
0.016036129 0.043821596 0.29391733
-0.037647445 0.046337564 0.30859882
-0.037366964 0.046327651 0.30854008
-0.03710578 0.046341695 0.30864081
-0.036807571 0.046309359 0.30843261
-0.036520597 0.046290785 0.30831602
-0.036249261 0.04629191 0.30833051
-0.035957709 0.046267033 0.30817181
-0.035694484 0.046278507 0.3082552
-0.035416897 0.046271391 0.30821466
-0.035150301 0.046278633 0.30826974
-0.034873817 0.046272881 0.30823818
-0.034614168 0.046289541 0.3083559
-0.034346405 0.046295531 0.30840254
-0.034083828 0.046308666 0.30849665
-0.03382853 0.046331987 0.30865857
-0.033576831 0.046360645 0.30885604
-0.027277913 0.045854624 0.30561402
-0.027019508 0.045873739 0.30574664
-0.026724856 0.045831073 0.30546746
-0.026452806 0.0458267 0.30544347
-0.026177298 0.045816179 0.30537844
-0.025914289 0.045827545 0.30545923
-0.02563078 0.045802511 0.3052974
-0.025352111 0.045785699 0.30519021
-0.025074823 0.045771036 0.30509737
-0.024789242 0.045740757 0.30490035
-0.024522996 0.045745879 0.3049393
-0.024254801 0.045747448 0.30495444
-0.023979042 0.045734622 0.30487359
-0.02369182 0.045699395 0.30464336
-0.023422193 0.045697689 0.30463654
-0.023141144 0.0456734 0.30447909
-0.022861887 0.045652118 0.30434167
-0.022593586 0.045652475 0.30434838
-0.022330374 0.045663241 0.30442449
-0.022040375 0.045618832 0.3041327
-0.021771118 0.045616787 0.30412328
-0.021496929 0.045604229 0.30404371
-0.021237347 0.045622729 0.30417117
-0.020957129 0.045596804 0.30400237
-0.020674791 0.045565549 0.30379793
-0.020395653 0.045540612 0.30363563
-0.020133015 0.045552343 0.30371767
-0.01985452 0.045528032 0.30355942
-0.019589126 0.045533504 0.30359972
-0.0024051939 0.044694331 0.29812708
-0.0021433474 0.044715662 0.29826948
-0.001880576 0.044720974 0.29830498
-0.0016177307 0.044725977 0.29833832
-0.0013543445 0.044715066 0.29826552
-0.0010898773 0.044654634 0.29786229
-0.00082692859 0.04463781 0.29774991
-0.0005646132 0.044655442 0.2978673
-0.00030185099 0.04463771 0.29774877
-3.9297189e-05 0.04462032 0.29763243
0.00022321149 0.044634763 0.29772836
0.00048535215 0.044599745 0.29749435
0.00074763154 0.044597555 0.29747924
0.0010095657 0.044581246 0.2973699
0.0012717297 0.044579707 0.29735905
0.0015338091 0.044576216 0.29733512
0.0017942472 0.044533007 0.29704618
0.0020553286 0.044514738 0.29692349
0.002317521 0.044521932 0.29697067
0.0025780841 0.044499539 0.2968204
0.0028392707 0.04449103 0.29676273
0.0031004695 0.044484131 0.29671574
0.0033621311 0.044484429 0.29671663
0.0036238129 0.044484921 0.29671884
0.0038819343 0.044444587 0.29644865
0.0041434919 0.044446189 0.29645813
0.0044033225 0.044430185 0.29635009
0.0046639475 0.044423528 0.29630435
0.0049224347 0.044398293 0.29613468
0.0051817251 0.044382479 0.29602778
0.0054428848 0.044383425 0.29603255
0.0057007633 0.044358745 0.29586643
0.0059597534 0.0443445 0.29576981
0.0062208534 0.044346489 0.2957814
0.0064827958 0.04435407 0.29583025
0.0067424057 0.044345729 0.29577288
0.0069960793 0.044300418 0.29546884
0.0072592134 0.044316113 0.29557163
0.0075157955 0.044292107 0.29540959
0.0077764913 0.044293128 0.29541442
0.0080327261 0.04426951 0.29525486
0.0082884291 0.044244524 0.29508615
0.0085436339 0.044218484 0.29491031
0.0088083865 0.044241939 0.29506451
0.0090643838 0.04422133 0.2949248
0.0093196966 0.044198617 0.29477105
0.0095819887 0.044209342 0.29484022
0.0098419087 0.044208847 0.29483446
0.010093763 0.04417308 0.29459348
0.010357274 0.044188827 0.29469597
0.010608652 0.044153322 0.29445657
0.010860552 0.044121619 0.29424256
0.01111935 0.044118766 0.29422083
0.011379411 0.044120941 0.29423261
0.011635022 0.044106152 0.29413116
0.011891369 0.044094726 0.29405215
0.012144403 0.044071779 0.29389617
0.012403747 0.0440722 0.29389605
0.012660459 0.044063441 0.29383466
0.012918472 0.044059478 0.29380515
0.013175136 0.044051155 0.29374653
0.013434705 0.044052683 0.2937535
0.013693306 0.044051029 0.29373929
0.013953933 0.044055834 0.29376808
0.014212026 0.044052612 0.29374322
0.014472049 0.044055376 0.29375827
0.014732765 0.044060118 0.29378644
0.014991919 0.044060104 0.29378283
0.015253008 0.044065677 0.29381648
0.015514922 0.04407341 0.2938644
0.015775964 0.044078451 0.29389435
0.016038084 0.044086285 0.2939429
-0.037944082 0.046640065 0.30877909
-0.037654035 0.046618529 0.30864382
-0.037381388 0.046618395 0.30865017
-0.037106995 0.046616063 0.30864191
-0.03683171 0.046612564 0.30862591
-0.036541011 0.04658936 0.30847937
-0.036268178 0.046588752 0.30848238
-0.03599152 0.046583194 0.30845258
-0.035719048 0.046583008 0.30845827
-0.035436716 0.046569865 0.30837813
-0.035159972 0.046563927 0.30834562
-0.034893397 0.046571452 0.30840224
-0.034619477 0.046569221 0.30839419
-0.034350857 0.046574142 0.30843347
-0.034088552 0.046587776 0.30853039
-0.033828478 0.0466047 0.30864909
-0.033572309 0.046627324 0.30880541
-0.033313632 0.046646811 0.30894098
-0.028232772 0.046364192 0.3071762
-0.027968232 0.046375003 0.30725327
-0.02730084 0.046163395 0.30586198
-0.027024258 0.046151962 0.30579147
-0.026751874 0.046147544 0.30576739
-0.026477117 0.046138901 0.30571526
-0.026191637 0.0461112 0.30553681
-0.02591805 0.046104074 0.30549464
-0.025646338 0.046100177 0.3054738
-0.025359282 0.046068318 0.30526763
-0.025077593 0.046045635 0.3051222
-0.024797669 0.046025738 0.30499515
-0.024532191 0.046032514 0.3050448
-0.024255512 0.04601818 0.30495453
-0.023982011 0.046009623 0.30490246
-0.0236999 0.045984168 0.3047384
-0.023442913 0.046007447 0.30489719
-0.023161486 0.045982733 0.30473793
-0.022883959 0.045965284 0.30462667
-0.022605265 0.045945041 0.30449691
-0.022332445 0.045936398 0.30444393
-0.022054084 0.045915995 0.304313
-0.021784309 0.045913208 0.30429873
-0.021519288 0.045920491 0.30435112
-0.021237817 0.045892406 0.30416909
-0.020965077 0.045882713 0.30410892
-0.020688333 0.045863897 0.30398819
-0.02042719 0.045879621 0.30409634
-0.020141257 0.045839347 0.30383328
-0.019872099 0.045836683 0.30381942
-0.019605933 0.045840945 0.30385143
-0.0021428829 0.04497027 0.29820296
-0.0018804386 0.044982243 0.29828241
-0.0016182866 0.045006234 0.2984415
-0.0013550881 0.045004793 0.2984319
-0.001090639 0.044951141 0.29807603
-0.00082741992 0.044930223 0.29793712
-0.00056482392 0.044939432 0.29799801
-0.00030191441 0.044918086 0.29785621
-3.9261879e-05 0.044905555 0.29777274
0.00022324867 0.044893887 0.29769498
0.00048581013 0.044899501 0.29773179
0.0007480926 0.044884421 0.29763129
0.0010102579 0.044871949 0.29754803
0.0012726039 0.044870988 0.29754105
0.0015341341 0.044846494 0.29737797
0.0017953297 0.044820786 0.29720679
0.0020572331 0.044817042 0.29718122
0.0023178787 0.04478984 0.29699996
0.0025802138 0.044797484 0.29704976
0.0028401383 0.044765715 0.29683816
0.0031018143 0.044764582 0.29682967
0.0033621523 0.044745818 0.2967042
0.0036235896 0.044743329 0.29668659
0.0038850314 0.044741224 0.29667148
0.0041435924 0.0447083 0.29645193
0.0044053504 0.044711728 0.29647338
0.0046661701 0.044705775 0.29643261
0.0049232733 0.044666741 0.29617238
0.0051851217 0.044672504 0.29620919
0.0054442571 0.044655476 0.29609478
0.0057057622 0.044658545 0.29611358
0.0059636161 0.044634014 0.29594931
0.0062242802 0.044631694 0.29593229
0.0064849351 0.044629492 0.29591599
0.0067423843 0.04460625 0.2957601
0.006999684 0.044583783 0.29560933
0.0072626732 0.044597872 0.29570085
0.0075207236 0.044581696 0.29559168
0.0077791261 0.044568628 0.29550302
0.0080378884 0.044558398 0.29543316
0.0082968576 0.04454992 0.29537484
0.0085524106 0.044524167 0.29520196
0.0088140359 0.044530615 0.29524252
0.0090679824 0.044499014 0.29503074
0.0093312161 0.044513468 0.29512426
0.0095874639 0.044494722 0.29499763
0.0098427273 0.044472516 0.294848
0.010104126 0.044478457 0.29488492
0.010360473 0.04446242 0.29477605
