# .PCD v0.7 - Point Cloud Data file format
VERSION 0.7
FIELDS x y z
SIZE 4 4 4
TYPE F F F
COUNT 1 1 1
WIDTH 1340
HEIGHT 1
VIEWPOINT 0 0 0 1 0 0 0
POINTS 1340
DATA ascii
-0.0453742 0.086335264 0.44572887
-0.044961907 0.086300269 0.44555655
-0.044568021 0.086300284 0.44556493
-0.044150833 0.08625479 0.44533819
-0.043736015 0.086213134 0.44513127
-0.043338235 0.086204626 0.44509539
-0.042921104 0.086157113 0.44485804
-0.042513277 0.086127572 0.44471341
-0.042116679 0.086120442 0.44468445
-0.041723456 0.086120151 0.44469067
-0.041298255 0.086053215 0.44435269
-0.040887523 0.086015433 0.44416523
-0.04048812 0.086000986 0.44409814
-0.040069833 0.085945755 0.44382036
-0.039695632 0.085984923 0.44402999
-0.039278172 0.085930236 0.44375488
-0.038875416 0.085906945 0.44364181
-0.038473468 0.085884981 0.44353554
-0.038072698 0.085865222 0.44344053
-0.037672963 0.085847415 0.44335556
-0.037286099 0.085858874 0.44342166
-0.036898714 0.085869357 0.44348264
-0.036529951 0.085923873 0.443771
-0.094972685 0.090046279 0.46126676
-0.094556801 0.090039775 0.46124971
-0.094113134 0.090006642 0.46109617
-0.093658388 0.089962579 0.46088657
-0.093236938 0.089950256 0.46083954
-0.092777632 0.089901149 0.46060395
-0.092325307 0.089858398 0.46040088
-0.091895781 0.089837544 0.46030995
-0.091459081 0.08980947 0.46018198
-0.091034509 0.089793108 0.46011388
-0.090611264 0.089777917 0.46005177
-0.090125501 0.089700371 0.45967007
-0.089708276 0.089690618 0.45963573
-0.089277804 0.089667499 0.4595328
-0.088852234 0.089649111 0.45945403
-0.088406943 0.089610554 0.45927191
-0.08797399 0.089584216 0.45915228
-0.087541439 0.089558028 0.45903343
-0.087117963 0.089540944 0.4589611
-0.086661674 0.089489818 0.45871422
-0.086259149 0.089493975 0.45875064
-0.085797243 0.089436278 0.45846996
-0.085372061 0.089416496 0.45838359
-0.084909536 0.089357235 0.45809469
-0.084509879 0.089363873 0.45814365
-0.084076039 0.089334257 0.45800665
-0.083628416 0.08928965 0.4577927
-0.083181217 0.089245044 0.45757872
-0.082776941 0.089246288 0.4575997
-0.082346991 0.089219727 0.45747811
-0.081950493 0.08922933 0.45754191
-0.0815503 0.089234993 0.45758536
-0.081176594 0.089269839 0.45777845
-0.080822363 0.089326546 0.45808366
-0.050708335 0.087093078 0.44746372
-0.050298348 0.087068334 0.44734594
-0.049880397 0.087029323 0.44715473
-0.049475275 0.087012239 0.44707611
-0.049063042 0.086982287 0.4469313
-0.048628546 0.086912051 0.44657943
-0.048270848 0.086979046 0.44693264
-0.047847617 0.086928092 0.44667971
-0.047429942 0.086886473 0.44647464
-0.047011591 0.086842902 0.44625947
-0.046610609 0.086830959 0.44620669
-0.046206258 0.086812459 0.44612023
-0.045795627 0.08678177 0.44597104
-0.045382623 0.086745985 0.4457956
-0.044973955 0.086717963 0.44565988
-0.044565789 0.086690411 0.4455266
-0.044168547 0.086683817 0.44550088
-0.043757066 0.086648896 0.44532952
-0.043352354 0.086626887 0.44522443
-0.042948034 0.086605236 0.44512111
-0.042532157 0.086559683 0.44489494
-0.042139255 0.08656048 0.44490683
-0.041729294 0.08652591 0.44473687
-0.041327432 0.086507633 0.44465068
-0.040921155 0.086479694 0.44451457
-0.040500868 0.086421311 0.444222
-0.040100761 0.086405262 0.44414696
-0.039700285 0.086388089 0.44406611
-0.039295807 0.086361803 0.44393823
-0.038894348 0.086341664 0.44384196
-0.038491227 0.086317398 0.44372433
-0.038087051 0.086290255 0.44359186
-0.037687127 0.086272269 0.44350636
-0.037311025 0.086309023 0.44370219
-0.036912274 0.086293593 0.44362977
-0.094999112 0.090481065 0.46137968
-0.094597392 0.090488173 0.46143219
-0.094181396 0.090481654 0.46141511
-0.093743794 0.090454221 0.46129134
-0.093310431 0.090430655 0.46118724
-0.091925658 0.090275548 0.46044406
-0.091497064 0.090255469 0.46035749
-0.09107808 0.09024474 0.46031854
-0.090646274 0.090221144 0.4602139
-0.090197742 0.090180621 0.46002287
-0.08979854 0.090189278 0.46008262
-0.08933036 0.090128414 0.4597877
-0.088892594 0.090097822 0.45964709
-0.088469237 0.090081625 0.45957986
-0.088015333 0.09003403 0.45935237
-0.087577894 0.090002894 0.45920891
-0.087144293 0.089975454 0.45908412
-0.086723626 0.089961156 0.4590264
-0.086276613 0.089919284 0.45882779
-0.085820533 0.08986751 0.45857871
-0.085400455 0.089853115 0.45852026
-0.084963158 0.0898204 0.45836821
-0.084534831 0.089796886 0.45826313
-0.084121026 0.08978866 0.45823592
-0.083689697 0.08976154 0.4581123
-0.083228528 0.089702018 0.45782322
-0.082797274 0.089674287 0.45769629
-0.082372613 0.089653477 0.45760468
-0.081964277 0.089650325 0.45760307
-0.081572637 0.089665473 0.45769486
-0.081175387 0.089674585 0.45775574
-0.080819182 0.089729354 0.45804968
-0.050747395 0.087556727 0.44779226
-0.050340015 0.087536946 0.44770044
-0.049908493 0.08747454 0.44739047
-0.049505606 0.087461732 0.44733414
-0.049089748 0.087425604 0.44715849
-0.048682693 0.087404706 0.44706059
-0.048284311 0.087399155 0.44704112
-0.047873057 0.087370038 0.44690108
-0.047449835 0.087318406 0.44664577
-0.047042657 0.087295666 0.44653821
-0.046643373 0.087287337 0.44650421
-0.0462237 0.087240398 0.44627261
-0.045821767 0.087226398 0.44620949
-0.045401499 0.087176941 0.44596496
-0.045001682 0.08716625 0.44591862
-0.04458097 0.087114535 0.44566229
-0.044192776 0.087126002 0.44572917
-0.043771472 0.087071821 0.44546008
-0.043369636 0.087055735 0.44538584
-0.042967703 0.087039158 0.44530898
-0.042558949 0.087008327 0.44515911
-0.042154439 0.086985677 0.44505107
-0.041745178 0.086952709 0.44489014
-0.041336782 0.086920932 0.4447352
-0.040932942 0.086898223 0.4446266
-0.040535484 0.086888753 0.44458568
-0.040132366 0.086866848 0.44448102
-0.039718132 0.086820208 0.44424972
-0.039314568 0.086796194 0.44413415
-0.038914368 0.086779207 0.44405445
-0.038512141 0.08675731 0.44394949
-0.038116619 0.086750217 0.44392025
-0.037702266 0.086699687 0.44366863
-0.037321754 0.08672671 0.44381383
-0.036931153 0.086730622 0.44384071
-0.036568411 0.086800762 0.44420636
-0.094617575 0.090917334 0.4615151
-0.094187081 0.090896867 0.46142739
-0.093770638 0.090889849 0.46140787
-0.093346946 0.090875693 0.46135211
-0.092901744 0.090840407 0.46118894
-0.09245313 0.090801448 0.46100709
-0.092004105 0.090761736 0.46082136
-0.091601208 0.090767376 0.46086586
-0.090673991 0.090657413 0.46033895
-0.090238959 0.090630397 0.46021745
-0.089814149 0.090613432 0.4601469
-0.089378275 0.090585105 0.46001858
-0.088955291 0.090569645 0.45995557
-0.088524133 0.090545692 0.4598493
-0.088059396 0.090486996 0.45956659
-0.087611824 0.090445496 0.45937109
-0.08719793 0.09043853 0.45935091
-0.086759612 0.090406038 0.45920107
-0.086314127 0.090365745 0.45901152
-0.085903853 0.090362117 0.45900816
-0.0854633 0.090326436 0.45884192
-0.085009851 0.090276733 0.45860434
-0.084573388 0.090244666 0.45845634
-0.08414536 0.090221345 0.45835266
-0.083716042 0.090196408 0.45824072
-0.083284996 0.090169355 0.45811796
-0.082864866 0.090153918 0.45805413
-0.082425371 0.090117149 0.45788187
-0.081993714 0.090088636 0.45775148
-0.081569448 0.09006799 0.45766103
-0.081190519 0.090097472 0.45782518
-0.080814272 0.090130225 0.45800596
-0.080461018 0.090189092 0.45831937
-0.051299088 0.088221028 0.44912976
-0.05075093 0.087959416 0.44780728
-0.050357733 0.087964378 0.44784182
-0.049956858 0.087955892 0.44780785
-0.04953257 0.087905712 0.44756159
-0.049112048 0.087861486 0.44734547
-0.048689704 0.087813243 0.44710883
-0.048295341 0.087815084 0.44712713
-0.047896646 0.087809019 0.44710511
-0.047480926 0.087771378 0.44692227
-0.047079794 0.087760307 0.44687459
-0.046649225 0.087693714 0.44654411
-0.04625557 0.087695964 0.44656414
-0.045859944 0.087694481 0.44656509
-0.045450632 0.087666571 0.4464314
-0.045035575 0.087627023 0.44623831
-0.044616278 0.087578431 0.44599912
-0.044204827 0.087544516 0.44583461
-0.043811616 0.087546431 0.44585249
-0.043398146 0.087507546 0.44566247
-0.042994145 0.087487213 0.44556689
-0.042584244 0.087454386 0.4454076
-0.042165671 0.087402984 0.44515362
-0.04177326 0.087405331 0.44517335
-0.041352138 0.087347098 0.44488436
-0.040952887 0.087334387 0.4448272
-0.040552955 0.087319963 0.44476122
-0.040144559 0.087286852 0.44459999
-0.039731093 0.087241955 0.4443787
-0.039342511 0.087251343 0.44443378
-0.038928114 0.087203108 0.44419527
-0.038537201 0.087207027 0.44422236
-0.038120478 0.087152027 0.44394922
-0.03772492 0.087144755 0.44391915
-0.037338249 0.087158084 0.44399399
-0.036954209 0.08717791 0.44410178
-0.036573835 0.087206893 0.44425622
-0.036183238 0.087211885 0.44428834
-0.094656445 0.091364697 0.46168911
-0.094216704 0.091335334 0.46155688
-0.093807004 0.091334976 0.46157119
-0.093375996 0.091313772 0.46148008
-0.092936747 0.091284283 0.46134701
-0.092525788 0.09128245 0.46135369
-0.092050858 0.091217212 0.46103981
-0.091608673 0.091183983 0.4608877
-0.091173381 0.09115734 0.46076879
-0.090703569 0.091095798 0.46047342
-0.090294078 0.091094553 0.46048275
-0.089839041 0.091047145 0.46025866
-0.089439109 0.091055386 0.46031591
-0.088981956 0.091005206 0.46007767
-0.088562392 0.090993188 0.46003228
-0.088128105 0.090965845 0.45990941
-0.087659411 0.090902567 0.45960477
-0.087221742 0.090871029 0.4594605
-0.086824864 0.090881906 0.45953068
-0.086345725 0.090806343 0.45916376
-0.085926786 0.090793692 0.45911482
-0.085488133 0.09076 0.4589594
-0.085059263 0.090736412 0.45885503
-0.08463534 0.090717897 0.45877627
-0.084172204 0.090656981 0.45848301
-0.083748542 0.090638191 0.45840272
-0.083310731 0.090603828 0.45824358
-0.082913987 0.090614013 0.45830971
-0.08244399 0.090543851 0.4579694
-0.082025066 0.09052936 0.45791057
-0.081600502 0.090508476 0.45781937
-0.081230603 0.090548314 0.45803526
-0.080827989 0.090551905 0.45806769
-0.080451742 0.090585217 0.45825049
-0.051281042 0.088587634 0.44895551
-0.050779607 0.08840593 0.44804403
-0.050374966 0.088391237 0.44797882
-0.049963806 0.088364765 0.44785389
-0.049557153 0.088345908 0.4477675
-0.049148053 0.088322349 0.44765714
-0.048737936 0.088296562 0.44753546
-0.048320137 0.088256322 0.44734046
-0.047909029 0.088227756 0.44720447
-0.047508828 0.088218957 0.44716868
-0.047104336 0.08820197 0.44709131
-0.046688899 0.088164039 0.44690764
-0.046261061 0.088101842 0.44660094
-0.045865744 0.088101044 0.44660538
-0.045459311 0.088078707 0.44650051
-0.045054432 0.088059001 0.44640896
-0.044638932 0.088018008 0.44620937
-0.044235762 0.088000819 0.44613042
-0.043826975 0.08797203 0.44599265
-0.043418363 0.087943085 0.44585392
-0.043005593 0.087905124 0.44566938
-0.042611778 0.087905556 0.44567949
-0.042197034 0.087862402 0.44546852
-0.041797273 0.087849952 0.44541308
-0.041404895 0.087852918 0.44543582
-0.040978365 0.087782793 0.44508779
-0.040576845 0.087765403 0.44500715
-0.040161237 0.087716885 0.44476858
-0.039761372 0.087702155 0.44470122
-0.039366193 0.087697566 0.44468522
-0.03894531 0.087635048 0.4443754
-0.038547389 0.087623447 0.44432369
-0.038149703 0.087612145 0.44427344
-0.037742767 0.087579153 0.44411314
-0.037357468 0.0875962 0.44420645
-0.036966793 0.087600879 0.44423699
-0.036618285 0.087706633 0.44478008
-0.036202274 0.087651275 0.44450599
-0.093835756 0.091772974 0.46169692
-0.093421221 0.091767974 0.4616878
-0.092974693 0.091731377 0.46151969
-0.092565909 0.091731854 0.46153802
-0.092123486 0.091698863 0.46138784
-0.091689363 0.091673858 0.46127787
-0.09118776 0.091580875 0.46082571
-0.090788856 0.09159065 0.46089062
-0.090360962 0.091571137 0.46080807
-0.089901261 0.09151908 0.46056163
-0.089482367 0.091508269 0.46052277
-0.088552743 0.091391571 0.45996627
-0.088146493 0.091393128 0.45998946
-0.087737717 0.091392085 0.45999944
-0.087271668 0.091331087 0.45970765
-0.08684931 0.091315448 0.45964411
-0.086419277 0.091291554 0.45953897
-0.085987575 0.091265671 0.45942366
-0.085533895 0.091216117 0.45918918
-0.085108928 0.091196828 0.45910698
-0.084712282 0.091207869 0.45917743
-0.08425644 0.09115497 0.45892587
-0.083814032 0.09111616 0.45874524
-0.083352625 0.091056205 0.45845804
-0.082914963 0.091021754 0.45829913
-0.082488425 0.090999223 0.45820025
-0.082053386 0.090967044 0.45805266
-0.081664801 0.090986304 0.4581641
-0.081217043 0.090939499 0.45794275
-0.080848686 0.090981588 0.45816898
-0.080447182 0.090986602 0.45820847
-0.080077507 0.091027848 0.45843035
-0.05129442 0.089008495 0.4490563
-0.050803892 0.088845238 0.44824207
-0.050407741 0.08884576 0.44825399
-0.049999937 0.088825598 0.44816148
-0.049578186 0.088780127 0.44794121
-0.049161274 0.088742666 0.44776127
-0.048760757 0.088734433 0.44772875
-0.048349179 0.088705771 0.44759303
-0.047946014 0.088692211 0.44753346
-0.047523912 0.088643089 0.44729438
-0.047125116 0.088636979 0.44727224
-0.0467107 0.08860115 0.44710007
-0.046290413 0.088553473 0.44686803
-0.045889743 0.088542826 0.44682279
-0.045475621 0.088505812 0.4466444
-0.045077037 0.088498667 0.44661668
-0.044668213 0.0884711 0.44648582
-0.044262771 0.088449821 0.44638658
-0.043852594 0.088418595 0.44623709
-0.043442883 0.088387758 0.44608948
-0.043031484 0.088352889 0.44592145
-0.042629361 0.088336594 0.44584709
-0.042213745 0.088291779 0.44562873
-0.041811951 0.088275306 0.44555327
-0.041417565 0.088274315 0.4455559
-0.041006118 0.088236585 0.44537306
-0.040597506 0.088204287 0.44521752
-0.040180586 0.088153124 0.4449667
-0.039789807 0.088158876 0.44500306
-0.039375849 0.088112876 0.44477817
-0.038969897 0.088084027 0.44463977
-0.038566362 0.088060141 0.44452626
-0.038155392 0.088018596 0.44432357
-0.037757806 0.088007376 0.44427392
-0.037363008 0.088002503 0.44425619
-0.03697142 0.088005163 0.44427642
-0.036596917 0.088048995 0.44450447
-0.094349831 0.092285305 0.4621776
-0.093918942 0.092264712 0.46209049
-0.09347333 0.092229381 0.46192959
-0.09302102 0.092187114 0.46173385
-0.092581943 0.09215764 0.46160215
-0.092156537 0.092141584 0.46153757
-0.091694228 0.092088319 0.46128651
-0.091292575 0.092095762 0.46133956
-0.090829656 0.092041202 0.46108192
-0.090374045 0.09199357 0.46085894
-0.089929663 0.09195701 0.4606913
-0.089517973 0.091953672 0.46069011
-0.089096367 0.09194009 0.46063751
-0.088681392 0.09193325 0.46061862
-0.088177741 0.091834001 0.46013665
-0.087758817 0.091822483 0.46009418
-0.087328002 0.091798343 0.45998847
-0.086886652 0.091762863 0.45982581
-0.086474791 0.091758333 0.45981821
-0.08600574 0.091692805 0.45950478
-0.085580811 0.091673896 0.45942503
-0.085159317 0.09165851 0.45936283
-0.084731348 0.091635987 0.45926479
-0.084270351 0.091577336 0.45898563
-0.083844237 0.091556236 0.45889452
-0.083404213 0.091519646 0.45872581
-0.082994767 0.091516413 0.4587242
-0.082526833 0.091448352 0.45839757
-0.082115009 0.091442093 0.45838064
-0.081686728 0.09141735 0.45827103
-0.081268661 0.091403857 0.45821771
-0.080864802 0.091406286 0.4582442
-0.080471292 0.091420501 0.45832965
-0.080086462 0.091444775 0.45846555
-0.079716936 0.091486849 0.45869058
-0.051298082 0.089412615 0.44907197
-0.050835565 0.089297891 0.44850513
-0.050437603 0.089295648 0.44850314
-0.050015058 0.089249507 0.4482806
-0.049599793 0.089215726 0.44812009
-0.049192019 0.089194983 0.44802496
-0.048783436 0.089172423 0.44792062
-0.048377689 0.089154728 0.44784063
-0.047980007 0.08915171 0.44783434
-0.047554325 0.089096196 0.44756427
-0.047137175 0.089055873 0.44737038
-0.046721365 0.089017414 0.44718581
-0.04631513 0.088996693 0.4470903
-0.045912921 0.088983439 0.44703212
-0.045509882 0.088968329 0.44696462
-0.045100544 0.088940516 0.44683322
-0.044692315 0.088914424 0.44671038
-0.044268936 0.088857464 0.44643241
-0.043860808 0.088830374 0.44630438
-0.043452434 0.088802285 0.44617125
-0.043057904 0.088802226 0.44617891
-0.042647336 0.08876878 0.44601879
-0.042248249 0.088758849 0.44597664
-0.041835342 0.08871942 0.4457863
-0.041425675 0.088686183 0.44562688
-0.041021779 0.088664763 0.44552687
-0.040616449 0.088639818 0.44540897
-0.040202826 0.088596098 0.44519675
-0.039802134 0.08858031 0.44512469
-0.039396245 0.088552505 0.44499227
-0.039005283 0.088558055 0.44502732
-0.038583934 0.08849401 0.44471258
-0.038183082 0.088476144 0.44462985
-0.037786894 0.088468827 0.44460002
-0.037384838 0.088447474 0.44449961
-0.036990866 0.088445 0.44449398
-0.036631458 0.088526003 0.44490781
-0.036260042 0.088579424 0.44518295
-0.093959212 0.092714824 0.46227279
-0.093518533 0.092684411 0.46213716
-0.093065329 0.092641257 0.46193799
-0.092655592 0.09264119 0.46195352
-0.09218426 0.092579253 0.46166053
-0.091760799 0.092565052 0.46160552
-0.0913155 0.092528611 0.46143952
-0.090921015 0.092543565 0.46152973
-0.090425976 0.092455842 0.46110785
-0.089994475 0.092432588 0.46100739
-0.089558996 0.092404999 0.46088532
-0.089121766 0.092375346 0.46075284
-0.088674895 0.092335396 0.46056893
-0.088260867 0.092329428 0.46055448
-0.087827571 0.092303157 0.46043867
-0.087354571 0.092234701 0.46011239
-0.086937942 0.092225432 0.46008128
-0.086514048 0.092208296 0.46001089
-0.086053394 0.092151664 0.45974335
-0.085634425 0.092139341 0.4596968
-0.085195765 0.092105605 0.45954341
-0.084774435 0.092090376 0.45948225
-0.084299617 0.092016615 0.45912898
-0.083925821 0.092052951 0.45932496
-0.083453923 0.091981508 0.45898312
-0.083026573 0.091958709 0.45888391
-0.082592569 0.091928273 0.45874655
-0.082159765 0.091898888 0.45861438
-0.081711136 0.091851421 0.45839185
-0.081291199 0.091835894 0.45832866
-0.08087644 0.091826081 0.458294
-0.08048138 0.091838643 0.45837095
-0.080091871 0.091857724 0.45848033
-0.079700217 0.091874518 0.45857823
-0.079335317 0.091922477 0.45883167
-0.051311783 0.089834385 0.44917548
-0.050860561 0.089739256 0.44870922
-0.050463136 0.089738309 0.44871378
-0.050045557 0.089701235 0.44853756
-0.049620863 0.089650698 0.44829404
-0.049227018 0.089655533 0.44832727
-0.048808027 0.08961428 0.44812998
-0.04839443 0.089582354 0.44797921
-0.047978021 0.089544632 0.44779941
-0.047570735 0.089523457 0.44770229
-0.047162056 0.089499287 0.44759011
-0.04674647 0.089461498 0.44740969
-0.046357892 0.089475177 0.44748667
-0.045937493 0.089427158 0.44725499
-0.045520782 0.089385547 0.44705528
-0.045119084 0.08937294 0.44700056
-0.044718318 0.089361973 0.44695395
-0.044315711 0.089347109 0.44688773
-0.043893684 0.089292467 0.44662252
-0.043485601 0.089265458 0.44649544
-0.043087188 0.089257978 0.446466
-0.042659819 0.089189842 0.44613302
-0.042257376 0.089173019 0.44605669
-0.041854154 0.089154229 0.44597039
-0.041450869 0.089134946 0.44588161
-0.041042164 0.089103527 0.44573197
-0.040631268 0.089066692 0.44555518
-0.040232867 0.089056797 0.44551313
-0.039826289 0.089028433 0.44537857
-0.03942772 0.089017585 0.44533151
-0.039013095 0.088969894 0.44510016
-0.038606614 0.088940009 0.44495773
-0.038201042 0.088911623 0.44482273
-0.037802342 0.088898785 0.44476551
-0.037404783 0.088888414 0.44472045
-0.037021995 0.088913299 0.44485179
-0.036639474 0.088939346 0.44498885
-0.093983188 0.093149126 0.46237484
-0.093563363 0.093139447 0.4623428
-0.09314172 0.093127854 0.46230119
-0.092725366 0.093121484 0.46228546
-0.092240021 0.093045458 0.46192387
-0.091775477 0.092989825 0.46166345
-0.091366753 0.09299051 0.46168256
-0.090934031 0.092966668 0.46157983
-0.090487055 0.092927977 0.46140331
-0.090056062 0.092905417 0.46130684
-0.089594491 0.092850976 0.461052
-0.089159057 0.09282323 0.46092966
-0.088738054 0.092810325 0.46088094
-0.088299535 0.092778906 0.46074021
-0.087889217 0.092776962 0.46074578
-0.087410197 0.092702135 0.46038935
-0.086992122 0.092691548 0.46035188
-0.086549141 0.092654206 0.46018147
-0.08612971 0.092641823 0.46013501
-0.085686803 0.092603967 0.45996189
-0.085235633 0.092556767 0.45974234
-0.084820822 0.092548795 0.45971757
-0.084357008 0.092487015 0.45942545
-0.083957151 0.092495099 0.45948032
-0.083531737 0.092474967 0.4593949
-0.083046332 0.092387907 0.45897695
-0.082617074 0.092362754 0.45886648
-0.082189202 0.09233892 0.45876253
-0.081763916 0.092317753 0.45867172
-0.081327766 0.092284061 0.45851865
-0.080901995 0.092261866 0.4584226
-0.080487832 0.092252739 0.45839149
-0.08009062 0.092263058 0.4584569
-0.079713203 0.092296399 0.45863667
-0.079316854 0.092308059 0.45870858
-0.07895299 0.092357829 0.45896989
-0.051313661 0.090235569 0.44917542
-0.050900415 0.090207353 0.44904432
-0.050470125 0.090148263 0.44875944
-0.050057754 0.090120494 0.44863039
-0.049657635 0.090114504 0.44860971
-0.049257532 0.090108454 0.44858864
-0.048838168 0.090066798 0.44839025
-0.048413627 0.090014823 0.44814041
-0.047999375 0.089981288 0.44798228
-0.047588203 0.089953005 0.44785026
-0.047186173 0.089941673 0.44780251
-0.046779249 0.089920744 0.44770694
-0.046381701 0.089917652 0.44770008
-0.045956545 0.089860514 0.44742402
-0.045532987 0.089805536 0.44715866
-0.045137201 0.089804851 0.44716355
-0.044737015 0.089795329 0.44712436
-0.04433303 0.089777939 0.44704595
-0.043912236 0.089725889 0.44679487
-0.043509644 0.089710429 0.4467259
-0.043100134 0.089680284 0.44658372
-0.042679962 0.089627214 0.44632727
-0.042285718 0.089628093 0.44633946
-0.041872591 0.089588583 0.44615042
-0.041467797 0.089566335 0.44604728
-0.041052569 0.089520916 0.44582862
-0.040661439 0.089527652 0.44586962
-0.040249303 0.089487836 0.44567874
-0.039850488 0.089477129 0.44563276
-0.03943754 0.089434184 0.44542608
-0.039029628 0.089401878 0.44527242
-0.038623832 0.089373834 0.44513983
-0.038217612 0.089344226 0.44499937
-0.037818063 0.089329734 0.44493416
-0.037425876 0.089332528 0.44495496
-0.037049517 0.089373574 0.4451662
-0.036653448 0.089367427 0.4451423
-0.093588091 0.093574785 0.46244904
-0.093172096 0.093568929 0.46243602
-0.092756912 0.093563847 0.46242678
-0.092283823 0.093500048 0.46212727
-0.091866598 0.093492523 0.46210584
-0.091435142 0.093470387 0.46201214
-0.090984084 0.093427926 0.46181789
-0.090533115 0.09338516 0.46162212
-0.090106755 0.093367539 0.4615505
-0.089676656 0.093345851 0.46145874
-0.089172699 0.093246721 0.46098411
-0.088738076 0.093219526 0.46086499
-0.088333175 0.093223453 0.46089965
-0.087936983 0.093236633 0.46098012
-0.087421507 0.093122877 0.46043283
-0.08699771 0.09310618 0.46036536
-0.0866208 0.093139738 0.46054634
-0.086135201 0.093056187 0.46014819
-0.085698023 0.093024403 0.46000597
-0.085285619 0.093019351 0.45999581
-0.084828317 0.092965037 0.45974201
-0.084407434 0.092950292 0.45968387
-0.083972149 0.092919476 0.45954615
-0.083556034 0.092909686 0.45951232
-0.083127491 0.092885919 0.45940933
-0.082690477 0.092852384 0.45925796
-0.082229555 0.09279155 0.4589715
-0.081787616 0.092751637 0.45878845
-0.081362128 0.09273009 0.45869613
-0.080943063 0.092715658 0.45863903
-0.080503121 0.092677072 0.4584623
-0.08010368 0.09268494 0.45851535
-0.079713471 0.092703633 0.45862192
-0.079323523 0.092722826 0.45873088
-0.078934647 0.092743479 0.45884696
-0.078556888 0.092777453 0.45902896
-0.051322602 0.090649262 0.44923711
-0.050923675 0.090646543 0.449233
-0.050520331 0.090635858 0.44918931
-0.050107371 0.090607613 0.44905853
-0.049675837 0.090545058 0.44875765
-0.049273543 0.090535231 0.44871798
-0.048860461 0.090505257 0.44857839
-0.048442174 0.090465076 0.44838813
-0.048041038 0.090456523 0.44835454
-0.047623623 0.090416923 0.44816706
-0.047219116 0.090401374 0.44809863
-0.046795435 0.090348542 0.44784537
-0.046396576 0.09034314 0.44782713
-0.045986511 0.090315633 0.44769925
-0.045572776 0.090280399 0.44753292
-0.045162037 0.090250514 0.44739312
-0.044755485 0.09022855 0.44729248
-0.044339992 0.090188012 0.44709966
-0.04393433 0.090166934 0.44700322
-0.043528024 0.090144113 0.4468981
-0.043112822 0.090102293 0.44669873
-0.042701922 0.090068787 0.44654045
-0.04230817 0.090071149 0.44655997
-0.041903071 0.090049185 0.44645873
-0.041487597 0.090004288 0.44624379
-0.041066315 0.089945808 0.44596139
-0.040667113 0.089935027 0.44591543
-0.040265027 0.0899176 0.4458364
-0.039868165 0.089911602 0.44581401
-0.039461005 0.089882046 0.44567472
-0.039056137 0.089857154 0.44555843
-0.038639609 0.089804672 0.44530529
-0.038236938 0.089783639 0.44520801
-0.037834797 0.08976341 0.44511464
-0.037435424 0.089749411 0.44505212
-0.0370568 0.089785382 0.44523731
-0.036666065 0.089792483 0.44527921
-0.093210548 0.094018415 0.46261087
-0.092771098 0.093988888 0.46248144
-0.092330128 0.093957566 0.4623431
-0.091901071 0.093938127 0.4622632
-0.091456935 0.093903027 0.46210617
-0.091053925 0.093910038 0.46215633
-0.090571225 0.093834564 0.46180043
-0.090142041 0.09381409 0.46171516
-0.089695632 0.093775414 0.46154028
-0.089272924 0.09376128 0.4614861
-0.088826649 0.09372215 0.46130887
-0.088383652 0.093686141 0.46114689
-0.087959826 0.093670204 0.46108365
-0.08752571 0.093643121 0.46096548
-0.087082796 0.093606316 0.4607994
-0.086643256 0.09357281 0.46064952
-0.086210415 0.093546264 0.4605338
-0.085753739 0.093493469 0.46028882
-0.085338242 0.093485288 0.4602634
-0.084905826 0.093458414 0.46014583
-0.084431261 0.093384653 0.45979738
-0.084012195 0.093371846 0.45974904
-0.08357998 0.093344256 0.45962775
-0.083181724 0.093354486 0.45969269
-0.082737066 0.093312502 0.45950043
-0.08226572 0.093239836 0.45915705
-0.081841983 0.093220696 0.45907712
-0.081391066 0.093170241 0.45884296
-0.080997907 0.093185738 0.4589335
-0.08054053 0.093127124 0.45865899
-0.080120683 0.093111537 0.45859635
-0.079724014 0.09312287 0.45866621
-0.079335004 0.093143314 0.45878085
-0.078934208 0.093150057 0.458828
-0.0785418 0.093166821 0.45892447
-0.051842827 0.091263458 0.45027792
-0.051356632 0.091107607 0.44951838
-0.050945122 0.091082849 0.44940558
-0.050530564 0.091052204 0.44926363
-0.050124865 0.091037184 0.44919869
-0.049697947 0.090983063 0.44894075
-0.049293973 0.090970404 0.44888735
-0.048882838 0.090944238 0.44876722
-0.048465237 0.090905502 0.44858497
-0.048067402 0.090903528 0.44858402
-0.047650915 0.090865925 0.44840726
-0.047242459 0.090843156 0.44830355
-0.046831578 0.090815298 0.44817466
-0.046437882 0.090820573 0.4482092
-0.045999344 0.090737469 0.44780758
-0.04559755 0.090726063 0.4477596
-0.045186874 0.090696618 0.4476226
-0.044781305 0.090676986 0.44753394
-0.044383131 0.090672113 0.44751805
-0.04396002 0.090615764 0.44724798
-0.043548334 0.090582162 0.44709012
-0.043140307 0.090555608 0.44696701
-0.042728871 0.090521343 0.44680569
-0.042323206 0.090498775 0.44670212
-0.04191535 0.090471059 0.44657302
-0.041511126 0.090450749 0.44648036
-0.04110102 0.090417102 0.44632182
-0.040682491 0.090364084 0.4460676
-0.040286064 0.090359606 0.44605285
-0.039886281 0.090347432 0.44600013
-0.03948291 0.090326831 0.44590563
-0.039073352 0.090291485 0.44573838
-0.038675934 0.090283789 0.44570744
-0.038266197 0.090246871 0.4455322
-0.037852444 0.090199612 0.44530585
-0.037454914 0.09019044 0.44526741
-0.037077133 0.090229116 0.44546518
-0.036697898 0.090265065 0.44564936
-0.0932483 0.094467536 0.46278217
-0.092819631 0.094449028 0.46270734
-0.092391036 0.094430417 0.462632
-0.091976017 0.094425581 0.46262401
-0.091500647 0.094358481 0.46231094
-0.09107019 0.094337292 0.46222275
-0.09064886 0.094325408 0.46218008
-0.09018717 0.09427125 0.46193019
-0.089765318 0.094258405 0.46188268
-0.089328855 0.094230041 0.46175909
-0.088828146 0.094133325 0.46130046
-0.088428199 0.094142988 0.46136311
-0.087982878 0.094104223 0.46118832
-0.087569326 0.094099231 0.46117899
-0.087110408 0.094045207 0.4609293
-0.086699195 0.09404242 0.46093068
-0.086251594 0.093999967 0.46073756
-0.085847296 0.094004512 0.46077472
-0.085365444 0.093923785 0.46039385
-0.084947616 0.093913041 0.460356
-0.084465869 0.093831196 0.45996955
-0.084083825 0.093859874 0.46012473
-0.083633065 0.093811736 0.45990336
-0.083191134 0.093773082 0.45972836
-0.082767822 0.093755133 0.45965487
-0.082305767 0.093692914 0.45936424
-0.081881233 0.093673006 0.45928094
-0.081432901 0.093625516 0.4590624
-0.081044652 0.093647003 0.45918196
-0.080601096 0.09360446 0.4589875
-0.080138639 0.093539439 0.45868278
-0.079723351 0.093529068 0.45864597
-0.079336442 0.093552075 0.45877278
-0.078931957 0.093554489 0.4587985
-0.078551829 0.093585938 0.45896658
-0.078161694 0.093605734 0.45907748
-0.051845577 0.091667242 0.45028514
-0.051365878 0.091522314 0.44958264
-0.050964974 0.091516629 0.44956404
-0.050564684 0.091511965 0.44955036
-0.050147593 0.091476567 0.44938567
-0.049739022 0.091456287 0.44929513
-0.049309853 0.091397494 0.44901532
-0.048895769 0.091365933 0.44886923
-0.048488833 0.091347329 0.44878674
-0.048088521 0.091340996 0.44876444
-0.047667664 0.091295213 0.44854823
-0.047259219 0.09127263 0.44844595
-0.04686588 0.091279082 0.44848624
-0.04643818 0.091218174 0.44819546
-0.046029475 0.091193818 0.44808429
-0.045618031 0.091163591 0.4479441
-0.045198906 0.091117337 0.44772515
-0.044804774 0.091121107 0.44775188
-0.044386905 0.091076232 0.44753951
-0.043985173 0.091063961 0.44748726
-0.043577973 0.091040052 0.44737777
-0.043173585 0.09102162 0.44729513
-0.042760845 0.09098509 0.44712347
-0.042324867 0.090897977 0.44670314
-0.041943062 0.090926655 0.4468517
-0.041526433 0.090879656 0.44662839
-0.041120611 0.090855636 0.44651791
-0.040723845 0.090851389 0.44650447
-0.040303234 0.090793312 0.44622645
-0.039883345 0.090735734 0.44595078
-0.039499272 0.090759307 0.44607386
-0.039097831 0.090743043 0.44600111
-0.038694952 0.090723075 0.44591007
-0.038279604 0.090673178 0.44567183
-0.037878122 0.090655416 0.44559142
-0.03746492 0.09060894 0.44536984
-0.092864439 0.094905779 0.46291459
-0.092450887 0.094902739 0.46291554
-0.092005685 0.094867043 0.46275711
-0.09155374 0.094824046 0.46256301
-0.091102339 0.09478122 0.46236974
-0.090688802 0.094777577 0.46236756
-0.090205662 0.094700851 0.46200866
-0.089804992 0.09471038 0.46207061
-0.089362115 0.094675288 0.46191475
-0.088933542 0.094655089 0.46183151
-0.087583646 0.094524123 0.46123809
-0.087183505 0.094533674 0.46129978
-0.086748317 0.094505131 0.4611755
-0.086275086 0.094434686 0.46084669
-0.085850656 0.094417237 0.46077639
-0.0854287 0.094402365 0.46071866
-0.084965087 0.094341084 0.46043435
-0.084543362 0.094325952 0.46037519
-0.084114112 0.094302237 0.4602741
-0.083682008 0.094275072 0.46015608
-0.083250172 0.094247952 0.46003827
-0.082798779 0.094198309 0.45981044
-0.082373209 0.094177701 0.45972422
-0.081921771 0.094127163 0.45949185
-0.081509568 0.094121449 0.4594782
-0.081063509 0.094076373 0.45927233
-0.080641381 0.094058745 0.45920047
-0.080195144 0.094012693 0.45898968
-0.079756714 0.093975358 0.45882145
-0.079343833 0.093967907 0.458799
-0.078950889 0.093984105 0.45889202
-0.078552306 0.093993738 0.45895284
-0.078161694 0.094013043 0.45906094
-0.077758797 0.094017699 0.45909742
-0.077398829 0.094074585 0.45938885
-0.051855266 0.092083387 0.45035255
-0.05141601 0.092010349 0.45000467
-0.050974566 0.091932222 0.4496319
-0.050576702 0.091932081 0.44964048
-0.050173849 0.09192279 0.44960421
-0.049752068 0.091878407 0.44939625
-0.04935107 0.091871999 0.44937393
-0.048924189 0.091816925 0.44911346
-0.048523262 0.091810033 0.44908866
-0.048106533 0.091772899 0.44891581
-0.047707021 0.091768257 0.44890186
-0.047285903 0.091721639 0.44868246
-0.04687931 0.09170264 0.44859809
-0.046467569 0.091673151 0.44846234
-0.046056915 0.09164533 0.44833472
-0.045625899 0.091576166 0.44800469
-0.045227997 0.091572814 0.44799662
-0.044822652 0.091554224 0.44791386
-0.044410143 0.091520526 0.44775715
-0.043997016 0.091484942 0.4475911
-0.043601602 0.09148588 0.44760367
-0.043182787 0.09143728 0.44737381
-0.042781271 0.091424756 0.4473204
-0.042370636 0.091392331 0.44716948
-0.041956432 0.091351524 0.4469775
-0.04155935 0.091347575 0.44696578
-0.041151822 0.091320373 0.44684023
-0.040722642 0.091244124 0.44647461
-0.040331841 0.091253236 0.44652656
-0.039908189 0.091187447 0.44621193
-0.039518468 0.09119866 0.44627404
-0.039112121 0.091171347 0.44614756
-0.038716085 0.091167741 0.44613698
-0.038297765 0.091111064 0.44586667
-0.03790227 0.091108076 0.44585899
-0.037497737 0.091083072 0.44574347
-0.036724269 0.091119766 0.44593656
-0.092456907 0.095320091 0.46292946
-0.092043847 0.095317543 0.4629328
-0.091605388 0.09528856 0.46280769
-0.091161557 0.095253721 0.46265402
-0.090743102 0.095245183 0.46262813
-0.09027689 0.095186219 0.46235716
-0.089825839 0.095142774 0.46216157
-0.089407772 0.095134027 0.46213442
-0.088983707 0.095118791 0.46207571
-0.088536575 0.095078647 0.46189594
-0.088111751 0.095062189 0.46183118
-0.087626368 0.094979942 0.4614467
-0.087213024 0.094975382 0.46143961
-0.086784109 0.094953746 0.46134946
-0.086347349 0.09492325 0.46121627
-0.085924417 0.094907768 0.46115592
-0.085433722 0.094816931 0.46072933
-0.084990419 0.094778046 0.46055517
-0.08456973 0.094764158 0.46050239
-0.084141739 0.094741903 0.46040884
-0.083706141 0.094710812 0.46027234
-0.083296791 0.094709277 0.46027938
-0.082822748 0.09463381 0.45992705
-0.08243937 0.094661698 0.46007699
-0.081988066 0.094611488 0.45984727
-0.081539974 0.09456449 0.45963311
-0.081110373 0.094538584 0.45952138
-0.080662869 0.09449143 0.45930633
-0.080242462 0.094475709 0.45924395
-0.079819195 0.094456449 0.45916438
-0.079386428 0.094425686 0.45902878
-0.078956231 0.094397679 0.4589065
-0.078548402 0.094396271 0.45891348
-0.078163773 0.094422877 0.45905659
-0.077761292 0.09442807 0.45909554
-0.077374279 0.09445221 0.45922655
-0.077004135 0.094497308 0.45945945
-0.052324668 0.092608012 0.45093781
-0.051858142 0.092487544 0.45036069
-0.051442392 0.092456467 0.45021877
-0.051041722 0.092452228 0.45020744
-0.050592162 0.092358671 0.44976112
-0.050184134 0.09234006 0.44967958
-0.049778998 0.092326507 0.44962272
-0.049371023 0.092307419 0.4495388
-0.048957415 0.092277423 0.44940165
-0.048541792 0.09224309 0.44924334
-0.048127431 0.092210628 0.44909403
-0.047718097 0.092187338 0.44898933
-0.047319554 0.092184663 0.44898495
-0.046901472 0.092143565 0.44879335
-0.046491563 0.092117958 0.44867718
-0.046086144 0.092100888 0.44860247
-0.04567023 0.092062369 0.44842318
-0.045264702 0.092044294 0.44834346
-0.04483062 0.091967322 0.44797671
-0.044435311 0.091969229 0.44799411
-0.044038203 0.091967419 0.44799337
-0.043618932 0.091918863 0.44776484
-0.043204624 0.091879979 0.44758332
-0.042796362 0.091853365 0.44746149
-0.042395938 0.091843218 0.44741982
-0.041983828 0.091807328 0.44725269
-0.041574117 0.091776058 0.44710791
-0.041179981 0.091778897 0.44712931
-0.040765151 0.091735229 0.446924
-0.040344983 0.091678575 0.44665536
-0.039935961 0.091646388 0.44650584
-0.039536692 0.091636144 0.44646323
-0.039130446 0.091609374 0.44633991
-0.038732685 0.091602124 0.44631168
-0.03831955 0.091558002 0.44610366
-0.037920292 0.091546446 0.44605431
-0.037505344 0.091496378 0.44581723
-0.037119813 0.091517784 0.44592828
-0.036729999 0.091528974 0.44598952
-0.092486598 0.095762014 0.46306187
-0.092066415 0.095752187 0.46303004
-0.091660522 0.095757209 0.46306998
-0.091209538 0.095714957 0.46288124
-0.090785675 0.09570092 0.46282881
-0.090373501 0.095699131 0.46283567
-0.08987622 0.095606789 0.46240446
-0.089452803 0.095592529 0.46235088
-0.088981427 0.095526665 0.46204755
-0.088566139 0.095520668 0.46203378
-0.088149875 0.095513567 0.46201459
-0.08771199 0.095482871 0.46188122
-0.08725889 0.095435239 0.46166587
-0.086830594 0.095414422 0.46158013
-0.086399429 0.095390238 0.46147805
-0.085977085 0.095375597 0.46142212
-0.085502975 0.095303133 0.46108633
-0.085075967 0.095282719 0.46100232
-0.084648103 0.095261142 0.46091262
-0.084231153 0.095251702 0.46088159
-0.083728991 0.095145345 0.46038151
-0.083318576 0.095142715 0.46038327
-0.082890108 0.095119342 0.46028462
-0.08244288 0.095074095 0.46008006
-0.082034111 0.095072977 0.46008897
-0.08158008 0.095019132 0.45984262
-0.081155494 0.094999216 0.4597604
-0.080736309 0.094985455 0.45970798
-0.080276653 0.094923683 0.45942307
-0.079859085 0.094911329 0.45937726
-0.079409093 0.094860099 0.45914325
-0.078982279 0.094836175 0.4590413
-0.078555286 0.09481179 0.45893708
-0.078159712 0.094825283 0.45901611
-0.077757671 0.094831012 0.45905754
-0.077361807 0.094844379 0.45913589
-0.076972455 0.094865911 0.45925373
-0.076596215 0.094903916 0.45945123
-0.052792002 0.093128152 0.45149598
-0.052326575 0.093010962 0.45093739
-0.051870946 0.092909522 0.45045501
-0.051471058 0.092907138 0.45045283
-0.051063258 0.092890307 0.45038056
-0.0506397 0.09284433 0.45016688
-0.050228305 0.092820093 0.45005852
-0.049808707 0.092780203 0.44987419
-0.049391188 0.092743568 0.4497056
-0.048984267 0.092726409 0.4496313
-0.048574749 0.092704006 0.44953156
-0.048170004 0.092690423 0.44947448
-0.047751367 0.092649646 0.44928548
-0.047322664 0.092588507 0.44899765
-0.046920184 0.092578076 0.44895563
-0.046514612 0.092561297 0.44888276
-0.04610933 0.092544831 0.44881132
-0.045700662 0.09252122 0.44870517
-0.045286011 0.092484981 0.44853768
-0.044845939 0.092395723 0.44811299
-0.044468991 0.092436083 0.4483169
-0.044052016 0.092393219 0.44811708
-0.043653239 0.092388108 0.44810024
-0.043248799 0.092370793 0.44802418
-0.042816114 0.092292279 0.44765118
-0.042418297 0.092288159 0.44763899
-0.042007007 0.092254393 0.44748285
-0.041591812 0.092211314 0.44728145
-0.041188072 0.092193045 0.44720042
-0.040780388 0.092165522 0.44707432
-0.040367045 0.092124529 0.44688287
-0.039959244 0.092095509 0.44674942
-0.039542634 0.092045404 0.44651356
-0.03915076 0.09205246 0.44655493
-0.038745914 0.092028841 0.44644743
-0.038341876 0.092006676 0.44634688
-0.037938118 0.091984726 0.44624731
-0.037530817 0.091953635 0.44610336
-0.037118815 0.091910258 0.4458997
-0.092139252 0.096239544 0.46338007
-0.091693528 0.096203133 0.46322036
-0.091279984 0.096200317 0.46322235
-0.090865955 0.096196957 0.4632217
-0.090390429 0.096128166 0.46290591
-0.089953765 0.096100271 0.46278697
-0.089482181 0.096034646 0.46248627
-0.089063972 0.096025959 0.46245971
-0.088619262 0.09598849 0.46229449
-0.088185221 0.095962279 0.46218342
-0.087738924 0.095922425 0.46200657
-0.087283738 0.095872447 0.46178085
-0.086858489 0.095855027 0.46171191
-0.086403735 0.095804729 0.46148452
-0.085991465 0.095801279 0.46148279
-0.085556671 0.095772594 0.46135938
-0.085111015 0.0957314 0.46117568
-0.084684588 0.095711537 0.46109474
-0.084254526 0.095687382 0.46099296
-0.083832942 0.095672652 0.46093652
-0.083402134 0.095647216 0.46082845
-0.082899451 0.095538683 0.46031994
-0.082504928 0.095554337 0.46040976
-0.082075357 0.095529355 0.46030372
-0.081630707 0.095486477 0.46011135
-0.081183687 0.09544041 0.45990351
-0.080752365 0.095412418 0.45978272
-0.080327235 0.09539149 0.45969594
-0.079902247 0.095370516 0.45960885
-0.079454497 0.09532202 0.45938906
-0.079016663 0.095284998 0.45922449
-0.078581542 0.095250867 0.45907381
-0.078156069 0.095228143 0.458978
-0.077760339 0.095241606 0.45905659
-0.077371038 0.095263138 0.45917395
-0.07697235 0.095273279 0.45923638
-0.07657627 0.095286757 0.45931488
-0.076192617 0.095315941 0.45946899
-0.052789934 0.093524568 0.45146134
-0.052328315 0.093413651 0.45093545
-0.05190105 0.093362823 0.45069954
-0.051487502 0.093336083 0.45057979
-0.051063176 0.093289226 0.45036289
-0.050660998 0.093282416 0.45033926
-0.050252512 0.093263797 0.45025852
-0.04982898 0.093216725 0.4500404
-0.049417805 0.093192205 0.44993103
-0.049003661 0.09316165 0.44979241
-0.048601341 0.093153246 0.44976071
-0.0481808 0.093109496 0.44955829
-0.047760971 0.093066424 0.44935897
-0.047352292 0.093044505 0.44926184
-0.046955492 0.093045779 0.44927654
-0.046539001 0.093007714 0.44910127
-0.046132751 0.092989646 0.44902244
-0.04570882 0.092935316 0.44876844
-0.04529966 0.092910327 0.44865599
-0.044880252 0.092863686 0.448439
-0.044479255 0.092854671 0.44840354
-0.044071082 0.092830352 0.44829419
-0.043664914 0.092809863 0.44820318
-0.043257054 0.092785381 0.44809288
-0.042829715 0.092718259 0.44777656
-0.042422179 0.09269318 0.44766316
-0.042019069 0.09267737 0.44759449
-0.041617502 0.092664704 0.44754088
-0.0412063 0.092630133 0.44738147
-0.040801179 0.09260872 0.44728547
-0.040401157 0.092598557 0.44724375
-0.039994989 0.092573956 0.44713226
-0.039580934 0.092530444 0.44692928
-0.039170198 0.092493884 0.44675982
-0.038784757 0.092516929 0.44687819
-0.03836181 0.092450052 0.4465622
-0.037957728 0.092427723 0.44646126
-0.037562355 0.09242636 0.44646153
-0.037159186 0.092405587 0.44636792
-0.09128385 0.096615836 0.46322557
-0.090884976 0.096628599 0.46330228
-0.090425521 0.096576773 0.4630692
-0.09000764 0.096569076 0.46304771
-0.089527026 0.096493699 0.46270156
-0.089090101 0.096464939 0.46257895
-0.08864852 0.096430838 0.46243063
-0.088238291 0.096430697 0.46244505
-0.087810002 0.096410729 0.46236438
-0.086436339 0.09625078 0.46164215
-0.086022183 0.096245378 0.46163109
-0.085591137 0.096220948 0.46152869
-0.085142531 0.096176438 0.46132994
-0.08471968 0.09616074 0.46126926
-0.084269628 0.096113853 0.461059
-0.083856523 0.096108854 0.46104953
-0.083440408 0.09610036 0.46102321
-0.08294668 0.096001938 0.46056548
-0.082540073 0.096003875 0.46058917
-0.082107268 0.095975235 0.46046603
-0.081684552 0.095958136 0.46039823
-0.081248067 0.095924616 0.4602516
-0.080790445 0.095865674 0.45998284
-0.080340594 0.095815405 0.45975569
-0.079949833 0.095835455 0.45986587
-0.079486743 0.095768556 0.45955878
-0.079066262 0.095752597 0.45949602
-0.078635976 0.095724516 0.45937508
-0.078194216 0.095682107 0.45918527
-0.077757932 0.095646001 0.45902565
-0.077371649 0.095671326 0.4591608
-0.07697247 0.095680907 0.45922032
-0.076569989 0.095686466 0.45926043
-0.076177537 0.095704652 0.45936117
-0.075784326 0.095722109 0.45945832
-0.075397931 0.095748402 0.45959783
-0.053256467 0.094043039 0.45200381
-0.052791536 0.09392748 0.45145804
-0.052351274 0.093854398 0.45111626
-0.051931877 0.09381789 0.45095024
-0.051510446 0.093777105 0.45076358
-0.051099457 0.093754858 0.45066592
-0.050691061 0.093737043 0.45058951
-0.050285388 0.093724035 0.45053613
-0.049871005 0.093694441 0.45040295
-0.049445093 0.093642548 0.45016247
-0.049030013 0.093610495 0.45001733
-0.048616856 0.093581602 0.44988734
-0.048193961 0.093533352 0.44966412
-0.047792926 0.093527086 0.44964266
-0.047384176 0.093505472 0.44954741
-0.046966091 0.093464918 0.449361
-0.046567626 0.093463056 0.44936058
-0.046149112 0.093420573 0.44916469
-0.045723043 0.093361937 0.4488911
-0.045315534 0.093340501 0.4487963
-0.044911724 0.09332636 0.44873652
-0.044493224 0.093281187 0.44852743
-0.044085313 0.093257599 0.44842201
-0.043688893 0.093258105 0.44843245
-0.043283474 0.09323924 0.44834965
-0.042861078 0.093183115 0.44808751
-0.042446263 0.093142584 0.44790038
-0.042035449 0.093110152 0.44775212
-0.041624606 0.093077049 0.44760045
-0.041240122 0.093102798 0.44773185
-0.04081843 0.093044251 0.4474577
-0.040414374 0.09302514 0.44737318
-0.04000615 0.092995971 0.4472402
-0.039590105 0.092947863 0.44701603
-0.039179586 0.092911869 0.44685006
-0.038784202 0.09291143 0.44685501
-0.038373448 0.092873767 0.44668084
-0.037970647 0.092854768 0.44659638
-0.037571397 0.092844151 0.44655219
-0.037181724 0.092857234 0.44662184
-0.091332048 0.09707851 0.46345365
-0.09091875 0.097076155 0.46345791
-0.090449862 0.097014166 0.46317738
-0.090028293 0.097002581 0.46313742
-0.089608751 0.096993096 0.46310747
-0.089204662 0.097000323 0.46315721
-0.088698484 0.09689609 0.46267471
-0.088287115 0.09689495 0.46268439
-0.087832659 0.096846275 0.46246704
-0.087390155 0.0968104 0.46231073
-0.086961865 0.096790008 0.4622283
-0.086495437 0.096726768 0.46194118
-0.086054735 0.096691824 0.46178916
-0.085632995 0.096677981 0.46173775
-0.085171789 0.096619211 0.4614718
-0.084744513 0.096598566 0.46138781
-0.084330499 0.096592896 0.46137533
-0.083901085 0.096569449 0.4612779
-0.083440982 0.096510284 0.46100974
-0.083047286 0.096527725 0.46110746
-0.082574651 0.09645313 0.46076548
-0.082145035 0.096428297 0.46066111
-0.081710167 0.096397012 0.46052587
-0.081281163 0.096372373 0.46042231
-0.080868751 0.096367255 0.46041194
-0.079961807 0.096258014 0.45991799
-0.079522647 0.096219867 0.45974961
-0.079097793 0.09619873 0.45966247
-0.078664958 0.096167617 0.45952758
-0.078247145 0.096154645 0.4594793
-0.07778585 0.096087821 0.45917362
-0.077361554 0.096066244 0.45908409
-0.076971777 0.09608753 0.45919934
-0.076579511 0.096105918 0.4593007
-0.076174334 0.096108198 0.45932502
-0.075766727 0.096107438 0.45933467
-0.075372957 0.096124329 0.45942867
-0.074982323 0.096145406 0.45954266
-0.053225979 0.09438955 0.45172799
-0.052792657 0.094329573 0.45145056
-0.052365746 0.094280243 0.45122397
-0.051969357 0.094285518 0.45125863
-0.051548764 0.094246618 0.45108187
-0.051136877 0.094223171 0.4509789
-0.050711703 0.094174676 0.45075601
-0.050300494 0.094151534 0.45065442
-0.049884528 0.094119065 0.45050806
-0.049477264 0.094102621 0.45043835
-0.049056549 0.09406013 0.45024386
-0.048646916 0.094038352 0.45014846
-0.048234705 0.094011188 0.45002723
-0.047813978 0.093966842 0.44982368
-0.047403999 0.093943067 0.44971848
-0.046994157 0.093919143 0.44961253
-0.046611682 0.093949988 0.44976863
-0.046214145 0.093950741 0.44978067
-0.045812067 0.093942195 0.44974804
-0.043284558 0.093638778 0.44834387
-0.04289832 0.09366139 0.44845992
-0.042486295 0.093627602 0.44830588
-0.042051759 0.09354309 0.44790888
-0.041647885 0.093525834 0.44783384
-0.041256052 0.093535535 0.44788781
-0.040849313 0.093511328 0.44777933
-0.040436059 0.093471564 0.44759628
-0.040026229 0.093439028 0.44744775
-0.039614785 0.093402021 0.44727778
-0.039204244 0.093366429 0.44711444
-0.038821034 0.093395866 0.4472625
-0.038413402 0.093366563 0.4471291
-0.037990026 0.093297958 0.4468075
-0.037614513 0.093346708 0.4470478
-0.037243053 0.093406662 0.44734168
-0.036846332 0.093403853 0.44733495
-0.090921439 0.097490706 0.46345511
-0.090505466 0.097485445 0.46344551
-0.090083569 0.097473748 0.46340525
-0.089659393 0.097459458 0.46335259
-0.089204468 0.097411446 0.46313959
-0.088760838 0.097375378 0.46298334
-0.088316686 0.097338431 0.46282277
-0.08788579 0.097315803 0.4627302
-0.08742182 0.097256161 0.46246162
-0.087007813 0.097251818 0.46245587
-0.086571015 0.097221814 0.46232814
-0.086138166 0.097196013 0.46222022
-0.085665137 0.09712439 0.46189439
-0.08523269 0.097098313 0.46178508
-0.084793538 0.097064324 0.46163803
-0.084381267 0.097060904 0.46163636
-0.083909042 0.096988171 0.46130493
-0.083462618 0.09694469 0.46111253
-0.08308237 0.096978016 0.4612855
-0.082628988 0.096925907 0.46105191
-0.082191363 0.09689182 0.46090409
-0.081720479 0.096818022 0.46056724
-0.081312843 0.096818782 0.46058497
-0.080875061 0.096783467 0.46043107
-0.08046715 0.096783735 0.46044636
-0.080019213 0.096735619 0.46023136
-0.079578593 0.096695893 0.46005628
-0.07913775 0.096655488 0.45987785
-0.078715697 0.096637741 0.45980716
-0.078295134 0.09662164 0.45974427
-0.077838413 0.096560523 0.45946711
-0.077413514 0.096538439 0.45937559
-0.076971814 0.09649507 0.45918271
-0.076569363 0.096500702 0.45922294
-0.076175392 0.096517123 0.4593145
-0.075770304 0.096519582 0.4593395
-0.075378798 0.09653946 0.45944735
-0.074972674 0.096540719 0.45946658
-0.074566826 0.096542366 0.45948756
-0.074192584 0.096585162 0.45970434
-0.054167561 0.095039152 0.45287928
-0.053233273 0.094802879 0.45177278
-0.052810412 0.094761543 0.45158532
-0.052403234 0.094747901 0.45152989
-0.051992204 0.094727062 0.45143995
-0.05156542 0.094676949 0.4512105
-0.051158536 0.094662897 0.4511528
-0.050747998 0.094641805 0.45106149
-0.050330795 0.094607845 0.45090878
-0.049895979 0.094539985 0.45059443
-0.049500301 0.094545767 0.45063099
-0.049093504 0.094530247 0.4505659
-0.048675377 0.094492473 0.45039472
-0.048259459 0.094458409 0.45024112
-0.047853626 0.094443679 0.45017964
-0.047434445 0.094402127 0.44999021
-0.042910561 0.094085544 0.44857091
-0.042499859 0.094054788 0.44843197
-0.042091724 0.094029181 0.44831756
-0.041682027 0.093999572 0.44818395
-0.041262541 0.093947113 0.44794133
-0.040870324 0.093956299 0.44799262
-0.040457983 0.093918987 0.44782203
-0.040051006 0.093893498 0.44770777
-0.039633416 0.093842372 0.4474712
-0.039227571 0.093818299 0.44736353
-0.038820989 0.093791962 0.447245
-0.038424965 0.093790866 0.44724673
-0.038022026 0.09377268 0.44716692
-0.03764306 0.093813859 0.44737014
-0.037242297 0.093801029 0.44731566
-0.090974398 0.097959392 0.4637084
-0.090558589 0.097954556 0.46370092
-0.090109594 0.09791363 0.46352252
-0.08966887 0.097881332 0.46338493
-0.089245752 0.097868048 0.46333724
-0.088792495 0.097821467 0.46313184
-0.088374428 0.097813368 0.46310863
-0.087912172 0.097756073 0.46285239
-0.087493502 0.097746931 0.46282411
