# .PCD v0.7 - Point Cloud Data file format
VERSION 0.7
FIELDS x y z
SIZE 4 4 4
TYPE F F F
COUNT 1 1 1
WIDTH 1342
HEIGHT 1
VIEWPOINT 0 0 0 1 0 0 0
POINTS 1342
DATA ascii
-0.054529898 0.017883014 0.42342803
-0.054145183 0.017879153 0.4233478
-0.053744599 0.017869962 0.42314133
-0.053361397 0.017866462 0.42306954
-0.052977607 0.017862717 0.42299181
-0.052607469 0.017863553 0.42302251
-0.052236557 0.017864138 0.42304721
-0.051861666 0.017863359 0.42303956
-0.051487751 0.017862905 0.42303956
-0.051122479 0.017865472 0.4231109
-0.050752029 0.017866248 0.42313987
-0.050404418 0.017875141 0.42336094
-0.031258475 0.017592693 0.41709048
-0.030865861 0.017578108 0.41675112
-0.030487524 0.017571403 0.41659844
-0.030107453 0.017563522 0.41641787
-0.029731531 0.017557902 0.4162907
-0.029355176 0.017551878 0.416154
-0.028984081 0.017548891 0.41608915
-0.028606476 0.017541831 0.41592768
-0.028224416 0.017531823 0.41569626
-0.027855217 0.017529648 0.4156504
-0.027484402 0.017526384 0.41557866
-0.027116913 0.017525185 0.41555578
-0.026746266 0.017521879 0.41548294
-0.026367195 0.01751289 0.41527522
-0.025995953 0.017508922 0.41518643
-0.025623923 0.017504301 0.41508216
-0.025253849 0.017500903 0.41500679
-0.02488406 0.017497608 0.41493368
-0.024532435 0.017507177 0.41516566
-0.024170713 0.017509719 0.4152309
-0.023811441 0.017514145 0.41534066
-0.023462994 0.017526792 0.41564539
-0.017481461 0.017396273 0.41261521
-0.017121112 0.017398896 0.4126808
-0.016752528 0.017393081 0.41254622
-0.016387939 0.017391253 0.41250604
-0.016017547 0.017383041 0.41231441
-0.01564767 0.017375024 0.41212732
-0.015282299 0.017371748 0.41205257
-0.01491642 0.017367722 0.41196004
-0.014560881 0.017375834 0.41215524
-0.014199996 0.017377822 0.41220507
-0.013842771 0.017384507 0.41236633
-0.067886941 0.018439693 0.42724702
-0.067505971 0.01843854 0.42723399
-0.067101054 0.01843079 0.42706814
-0.066716731 0.018428646 0.42703208
-0.066312052 0.018420825 0.42686436
-0.065915495 0.018415183 0.42674708
-0.065539531 0.018415259 0.42676222
-0.06515491 0.01841289 0.42672071
-0.064736128 0.018400786 0.42645344
-0.064338192 0.018394502 0.42632094
-0.063945659 0.018389696 0.42622265
-0.063552789 0.018384738 0.42612076
-0.063170344 0.018382752 0.42608768
-0.062766083 0.018374359 0.425906
-0.062382072 0.018371826 0.42586014
-0.061992984 0.01836776 0.4257786
-0.061599202 0.018362246 0.42566341
-0.061196707 0.018354049 0.42548606
-0.060791854 0.018345041 0.42528969
-0.060424145 0.0183472 0.42535222
-0.06002583 0.018340036 0.42519847
-0.059625786 0.01833225 0.42503023
-0.059233859 0.01832688 0.42491788
-0.05883367 0.018318865 0.42474422
-0.058442678 0.01831363 0.42463487
-0.058045104 0.018306253 0.42447579
-0.057657335 0.018301891 0.42438659
-0.057283968 0.018302076 0.42440271
-0.056882001 0.018293068 0.42420554
-0.056495838 0.018289056 0.42412418
-0.05610228 0.018282577 0.4239856
-0.055731773 0.018283579 0.42402029
-0.05531954 0.018270809 0.42373562
-0.054939453 0.018268555 0.42369473
-0.054545805 0.018261734 0.42354783
-0.054151244 0.018254511 0.42339152
-0.05375582 0.018246893 0.42322594
-0.053377822 0.018245127 0.42319605
-0.05299734 0.01824248 0.42314565
-0.052604832 0.018235626 0.42299759
-0.052231248 0.018235283 0.42300045
-0.051857557 0.018234896 0.42300227
-0.051489815 0.018236615 0.42305279
-0.051116478 0.018236358 0.42305747
-0.050750509 0.018238747 0.42312345
-0.050380733 0.018239796 0.42315823
-0.050012797 0.01824153 0.42320886
-0.031665273 0.01798263 0.41760507
-0.031269815 0.01796655 0.41723809
-0.030866908 0.017945755 0.41676161
-0.030492622 0.0179413 0.41666445
-0.030117963 0.017936515 0.41655958
-0.029743517 0.017931743 0.41645485
-0.029372815 0.017929135 0.4164004
-0.02899402 0.017921461 0.41622818
-0.028620943 0.017917171 0.41613442
-0.028240213 0.017907916 0.41592529
-0.027864683 0.017901758 0.41578805
-0.027502965 0.017904429 0.41585574
-0.027132981 0.017901717 0.41579834
-0.026759136 0.01789635 0.41567922
-0.026383614 0.017889701 0.41553017
-0.02600651 0.017881777 0.41535145
-0.025629448 0.017873654 0.41516802
-0.025266916 0.017875576 0.41521791
-0.024903623 0.017877011 0.41525632
-0.024548661 0.017884556 0.4154366
-0.024175247 0.017878687 0.41530517
-0.023821764 0.017887602 0.41551712
-0.023470137 0.017898211 0.41576836
-0.017485211 0.017763332 0.4127003
-0.017125325 0.017766573 0.41277897
-0.016755182 0.017759077 0.41260812
-0.016392788 0.017759651 0.41262466
-0.016022811 0.017751848 0.4124465
-0.015653856 0.017744845 0.41228685
-0.015290544 0.017744059 0.41227156
-0.014922244 0.017737301 0.41211742
-0.01456502 0.017743705 0.41226909
-0.014202806 0.017744204 0.41228336
-0.013848109 0.017754365 0.41252211
-0.067916222 0.018824946 0.4274275
-0.06752719 0.018821565 0.4273645
-0.067140199 0.018818717 0.42731351
-0.066755697 0.018816542 0.42727771
-0.066351682 0.01880881 0.42711565
-0.065971293 0.018807722 0.42710447
-0.065575033 0.018802077 0.42698961
-0.065173313 0.018794788 0.42683744
-0.064762816 0.018784873 0.42662549
-0.064373642 0.018781058 0.42655203
-0.063976176 0.018774768 0.42642227
-0.063578352 0.018768298 0.42628834
-0.063204117 0.018768756 0.4263117
-0.062785998 0.01875611 0.42603734
-0.06240721 0.018755132 0.42602795
-0.062012795 0.018749418 0.42591086
-0.061600577 0.01873822 0.42566913
-0.061216727 0.018735563 0.42562139
-0.06083373 0.018733142 0.42557889
-0.060453754 0.018731626 0.42555687
-0.060047358 0.018721851 0.42534718
-0.059642218 0.018712349 0.42514354
-0.059264742 0.018711463 0.42513558
-0.058851413 0.018699171 0.42486846
-0.058472797 0.018697822 0.42484993
-0.058068383 0.018688155 0.42464224
-0.057689182 0.018686531 0.42461723
-0.057299335 0.018681416 0.42451277
-0.056913726 0.018677622 0.42443833
-0.056532662 0.018675277 0.42439675
-0.056132011 0.018666392 0.42420647
-0.055739738 0.018660193 0.42407709
-0.055351768 0.01865536 0.42397869
-0.054965477 0.018651029 0.42389163
-0.054563019 0.01864112 0.42367768
-0.054189119 0.018640894 0.42368382
-0.053786792 0.018630819 0.42346597
-0.053395022 0.018624289 0.42332861
-0.053017911 0.018622814 0.42330605
-0.052622736 0.018614927 0.42313772
-0.052239317 0.01861112 0.42306203
-0.051866289 0.018610986 0.42306975
-0.051485565 0.018608069 0.42301407
-0.051112112 0.018607754 0.42301753
-0.050747827 0.018610798 0.42309728
-0.050373059 0.018610016 0.42308992
-0.050004259 0.018611442 0.42313278
-0.049636345 0.018613223 0.42318356
-0.049286362 0.018621806 0.42338899
-0.032057963 0.018364884 0.41792357
-0.031649895 0.018341525 0.41739857
-0.03126834 0.018333161 0.41721469
-0.030886885 0.018324658 0.41702759
-0.030504879 0.018315619 0.41682822
-0.030130146 0.01831078 0.41672432
-0.029756973 0.018306784 0.41663957
-0.029381411 0.018301198 0.41651851
-0.029009404 0.018297717 0.41644526
-0.028641177 0.018296562 0.4164249
-0.028257722 0.018285522 0.41617945
-0.027882043 0.01827929 0.41604334
-0.027513362 0.018277543 0.41600925
-0.027132483 0.018267535 0.41578704
-0.026768949 0.018269092 0.41582799
-0.026391061 0.018260762 0.41564381
-0.02601227 0.018251561 0.41543972
-0.025644517 0.018249957 0.41540843
-0.025273448 0.018245911 0.41532156
-0.024911437 0.018248383 0.41538292
-0.024551155 0.018252213 0.41547513
-0.024197366 0.018261062 0.41568148
-0.023837069 0.018265193 0.41578043
-0.023475694 0.018268615 0.4158631
-0.017130593 0.018135544 0.41290236
-0.016767193 0.018135313 0.41290042
-0.016402477 0.01813362 0.41286507
-0.0160287 0.018121606 0.41259465
-0.015667249 0.01812329 0.41263607
-0.015298169 0.018116025 0.41247365
-0.014932835 0.01811295 0.41240653
-0.014573206 0.018116815 0.41249734
-0.014215726 0.018123619 0.412655
-0.06755279 0.019206075 0.4275226
-0.067170285 0.019204495 0.42750114
-0.066774257 0.019199008 0.42739257
-0.066383876 0.019195095 0.42731899
-0.066005237 0.019194549 0.4273203
-0.065594107 0.0191845 0.42710996
-0.065192491 0.019177128 0.42695916
-0.064792395 0.01917012 0.4268164
-0.064415842 0.019170038 0.42682779
-0.064008042 0.019160602 0.42663077
-0.063613124 0.019154936 0.42651761
-0.063223802 0.019150896 0.42644063
-0.062817968 0.019141775 0.42625043
-0.062442411 0.019141827 0.42626438
-0.062030479 0.01913066 0.42602843
-0.061657172 0.019131346 0.42605633
-0.061258402 0.019124087 0.42590725
-0.060831632 0.019107947 0.4255603
-0.06045609 0.019107796 0.42556939
-0.060064789 0.019102635 0.42546678
-0.059681725 0.019100038 0.42542127
-0.059299197 0.019097587 0.42537889
-0.058893524 0.019087601 0.42516857
-0.058486626 0.019077091 0.42494655
-0.058105703 0.019074971 0.42491129
-0.057717513 0.019070422 0.42482188
-0.057312168 0.019060111 0.42460397
-0.056937858 0.019060051 0.4246144
-0.056534018 0.019050043 0.4244031
-0.056143846 0.019044533 0.42429197
-0.055758487 0.019040599 0.42421585
-0.055369928 0.019035509 0.4241139
-0.05499319 0.019034442 0.42410147
-0.05459369 0.019025428 0.42391196
-0.054203592 0.019019589 0.42379305
-0.053817112 0.019014947 0.42370081
-0.053425159 0.019008296 0.42356363
-0.053038299 0.019003375 0.42346495
-0.052647706 0.018997036 0.42333463
-0.052264441 0.018993272 0.42326158
-0.051868487 0.01898481 0.42308378
-0.05149113 0.018983079 0.42305592
-0.051114485 0.018981589 0.42303327
-0.050742637 0.018981872 0.42305014
-0.050369311 0.018981602 0.42305461
-0.050000668 0.018983109 0.4230985
-0.049634147 0.018985447 0.42316097
-0.049255311 0.018983074 0.42311832
-0.04888539 0.018984132 0.42315203
-0.048524667 0.018988799 0.42326617
-0.03281739 0.018746639 0.41821116
-0.032436799 0.01873938 0.41805595
-0.032052796 0.018729959 0.41785243
-0.03164766 0.018707829 0.41736525
-0.031272158 0.018702902 0.41726184
-0.030892879 0.018695572 0.41710469
-0.030521721 0.018693041 0.41705453
-0.030144757 0.01868685 0.41692263
-0.029764166 0.018678231 0.41673648
-0.029387148 0.018671665 0.41659606
-0.029016029 0.01866873 0.4165366
-0.028643452 0.01866477 0.41645417
-0.028274694 0.018663229 0.41642559
-0.027897038 0.018655699 0.41626334
-0.027533667 0.018657649 0.41631246
-0.027149977 0.018645694 0.41605136
-0.026770333 0.018636232 0.41584569
-0.026407694 0.018638512 0.41590199
-0.02602895 0.018629326 0.41570237
-0.025658688 0.018626038 0.41563424
-0.025289917 0.018623753 0.41558844
-0.024918068 0.018619101 0.41548973
-0.024552256 0.018618889 0.41549006
-0.024204493 0.018632565 0.41580018
-0.023844082 0.018636778 0.41589901
-0.017133635 0.01850234 0.41297215
-0.01677319 0.018505435 0.41304451
-0.016408546 0.018503936 0.41301432
-0.016043283 0.018501656 0.41296652
-0.015673466 0.018493894 0.41279632
-0.015307028 0.018489849 0.41270903
-0.01493968 0.018484483 0.41259211
-0.014584393 0.01849414 0.4128105
-0.014218698 0.01849076 0.41273776
-0.067195758 0.019589268 0.4276593
-0.06679216 0.019581499 0.42750329
-0.066422395 0.019583615 0.42756304
-0.066019632 0.01957597 0.42740962
-0.065635704 0.019573856 0.42737684
-0.065236844 0.01956724 0.42724574
-0.064826787 0.019557167 0.42703903
-0.064436272 0.019552909 0.42695922
-0.06400802 0.01953708 0.42662671
-0.06365712 0.019544816 0.42680863
-0.063259907 0.019538341 0.42668021
-0.062863924 0.019532168 0.42655826
-0.062465493 0.019525155 0.42641795
-0.062049616 0.019512575 0.42615592
-0.06167841 0.019513976 0.42619914
-0.061281107 0.019507084 0.42606121
-0.060888924 0.019501748 0.42595714
-0.060488932 0.019493828 0.42579663
-0.060094658 0.019487666 0.42567435
-0.059700601 0.019481495 0.42555189
-0.059319381 0.019479461 0.42551968
-0.0589213 0.019471833 0.42536518
-0.058528982 0.019466022 0.42525029
-0.058124151 0.019455951 0.42504224
-0.05774859 0.019455606 0.42504662
-0.057350852 0.01944774 0.42488658
-0.056970391 0.019445667 0.42485306
-0.056570157 0.019436773 0.4246704
-0.056170125 0.019427832 0.42448667
-0.055778936 0.019421846 0.4243674
-0.055400979 0.019420421 0.42434773
-0.05500932 0.019414142 0.4242219
-0.054623187 0.01940974 0.42413703
-0.054230385 0.019402891 0.42399856
-0.053841412 0.019397328 0.42388812
-0.053460401 0.019394575 0.42383906
-0.053059973 0.019384693 0.42363405
-0.052673951 0.019379964 0.42354169
-0.052296184 0.019378236 0.42351472
-0.051901467 0.01937015 0.42334875
-0.051501565 0.01936 0.42313763
-0.05112081 0.019356957 0.4230817
-0.05074469 0.019355632 0.42306331
-0.050367061 0.01935371 0.42303172
-0.049998004 0.019355077 0.42307198
-0.049622662 0.019354014 0.42305905
-0.049246319 0.01935254 0.42303711
-0.048878718 0.019354511 0.42309031
-0.048504051 0.01935369 0.42308241
-0.048128277 0.019352412 0.42306444
-0.047780808 0.019362582 0.42329672
-0.033194423 0.01912019 0.41831395
-0.032816228 0.019114325 0.41819242
-0.032439273 0.019109059 0.41808394
-0.032040369 0.019090589 0.41768649
-0.031659219 0.019082397 0.41751382
-0.031281192 0.019075917 0.41737849
-0.030900531 0.019067654 0.41720411
-0.03053969 0.019071573 0.4172962
-0.03015184 0.019058516 0.41701669
-0.029780822 0.019055909 0.41696581
-0.029407468 0.019051719 0.41688025
-0.029034225 0.019047502 0.41679391
-0.028652083 0.019037262 0.41657573
-0.028285997 0.019037565 0.41658822
-0.027909182 0.019030558 0.41644064
-0.027532976 0.019023789 0.41629815
-0.02716825 0.019024873 0.41632751
-0.026786726 0.019014064 0.41609651
-0.026415281 0.019010212 0.41601762
-0.026039548 0.019003125 0.41586784
-0.025668934 0.018999619 0.4157964
-0.025299696 0.018997049 0.41574532
-0.024936968 0.018999362 0.41580105
-0.024561545 0.01899193 0.41564339
-0.024210775 0.019003624 0.41590428
-0.017143784 0.018877089 0.41321304
-0.016779996 0.018876731 0.41320851
-0.01641582 0.01887591 0.41319373
-0.016046686 0.018869223 0.41305047
-0.01568467 0.018870786 0.41308779
-0.015312236 0.018859599 0.41284585
-0.014945055 0.01885449 0.41273698
-0.014584342 0.018857494 0.4128055
-0.066823237 0.019968122 0.42769817
-0.066436797 0.019965323 0.4276517
-0.06604743 0.019961605 0.42758554
-0.06565433 0.01995671 0.42749408
-0.065255567 0.019950029 0.42736429
-0.064849824 0.019941121 0.42718676
-0.064473882 0.01994133 0.42720437
-0.064079121 0.019935686 0.42709658
-0.063659713 0.019922262 0.42682198
-0.063282609 0.019921998 0.42682928
-0.062889837 0.019916765 0.42673007
-0.062475 0.01990444 0.42647883
-0.062095754 0.019903375 0.42646876
-0.061689187 0.01989349 0.42626956
-0.061306674 0.019891284 0.4262349
-0.060912214 0.019885154 0.42611602
-0.060520057 0.019879704 0.42601168
-0.060131729 0.019875452 0.42593291
-0.059725367 0.019865144 0.42572433
-0.059328593 0.019857921 0.42558172
-0.058953192 0.019857807 0.42559141
-0.058559667 0.019851543 0.42546922
-0.058177855 0.019849196 0.42543086
-0.057763688 0.019835709 0.4251537
-0.057385691 0.019834545 0.42514062
-0.05699645 0.019829456 0.42504331
-0.056597453 0.019820886 0.42487127
-0.056197949 0.019812021 0.42469287
-0.05582476 0.019812375 0.424712
-0.055429269 0.01980477 0.4245604
-0.055038832 0.01979888 0.42444545
-0.054649048 0.019793142 0.42433381
-0.054269839 0.019791184 0.42430303
-0.053855907 0.019776447 0.42399824
-0.053494453 0.019780908 0.42410499
-0.053076256 0.019764308 0.42376
-0.052694473 0.019761126 0.42370269
-0.05230112 0.019753527 0.42355061
-0.051920351 0.019750606 0.42349875
-0.051544461 0.019749513 0.42348602
-0.051139209 0.019737076 0.42322993
-0.050765235 0.019736614 0.42323053
-0.050371073 0.01972824 0.4230614
-0.049994458 0.01972666 0.42303795
-0.0496234 0.019727273 0.42306131
-0.049249865 0.019726899 0.42306358
-0.048870143 0.019724023 0.42301202
-0.04849536 0.019723112 0.42300257
-0.048121292 0.01972248 0.42299902
-0.047748629 0.019722417 0.42300764
-0.047372825 0.01972105 0.42298809
-0.047000628 0.019721173 0.42300051
-0.046626709 0.019720569 0.4229973
-0.034748383 0.019534456 0.41926497
-0.034376554 0.019532837 0.41923741
-0.034007594 0.019532837 0.41924444
-0.033579387 0.019498434 0.418513
-0.033190142 0.01948614 0.41825604
-0.032810003 0.019478979 0.41810909
-0.032431271 0.019472502 0.41797677
-0.032053605 0.019466523 0.41785511
-0.031677324 0.019461256 0.4177486
-0.031291407 0.019449877 0.41751081
-0.030925533 0.019450832 0.41753775
-0.030536933 0.019437347 0.41725454
-0.030167947 0.019436169 0.41723549
-0.029792635 0.01943084 0.41712722
-0.029421285 0.019427991 0.41707218
-0.029046889 0.019423036 0.4169718
-0.02865937 0.019409066 0.4166778
-0.028290933 0.019407827 0.416657
-0.027918521 0.019403789 0.41657609
-0.027544074 0.019398211 0.416462
-0.027171761 0.01939401 0.41637743
-0.026806772 0.019394992 0.41640398
-0.026419409 0.01937959 0.41607872
-0.026045142 0.019373497 0.41595325
-0.025677633 0.019372327 0.4159334
-0.025311131 0.019371895 0.41592932
-0.024938891 0.019366996 0.41582921
-0.0245804 0.019372789 0.41595861
-0.02421801 0.019375635 0.41602466
-0.02386489 0.019386102 0.41625425
-0.017532516 0.019268651 0.41380224
-0.017153686 0.019251999 0.41344804
-0.016792385 0.019254725 0.41350988
-0.016419571 0.019244079 0.41328448
-0.016048608 0.019235168 0.41309628
-0.015685165 0.019235069 0.4130972
-0.015319836 0.019232597 0.41304708
-0.014956597 0.019232694 0.41305205
-0.014587006 0.019224424 0.41287729
-0.066836923 0.020349804 0.42778164
-0.066455849 0.02034862 0.42777026
-0.066081867 0.020349601 0.42780438
-0.065691024 0.020345375 0.42772892
-0.065303639 0.020342179 0.42767504
-0.064875379 0.020326134 0.42735097
-0.064491823 0.020323994 0.42731914
-0.064088002 0.020315405 0.42715168
-0.06370651 0.020313831 0.42713162
-0.063310809 0.020307686 0.42701536
-0.062924884 0.020304618 0.42696375
-0.06250865 0.020291679 0.42670447
-0.062125832 0.020289494 0.42667124
-0.061721191 0.020280112 0.42648661
-0.061321791 0.020272348 0.4263359
-0.060937028 0.020269357 0.42628551
-0.060548935 0.020265216 0.42621085
-0.060173441 0.020265266 0.42622423
-0.059736069 0.020244345 0.42579651
-0.059355985 0.020242698 0.4257741
-0.058963541 0.02023679 0.42566195
-0.058587551 0.020236488 0.4256677
-0.058182325 0.02022602 0.42545947
-0.057799898 0.020223392 0.42541611
-0.057403915 0.02021596 0.42527154
-0.057023473 0.020213934 0.42524073
-0.056623526 0.020204926 0.42506289
-0.056246988 0.020204207 0.42505935
-0.055837244 0.020191466 0.4248029
-0.055440862 0.020183422 0.42464507
-0.055053398 0.020178538 0.42455369
-0.054669596 0.020174935 0.42448923
-0.054285869 0.020171314 0.42442423
-0.053906295 0.020169195 0.42439076
-0.053495876 0.020155428 0.42411214
-0.05311368 0.020152174 0.42405468
-0.05271611 0.020143 0.42387253
-0.052336555 0.020140627 0.42383346
-0.051958963 0.020138979 0.42380956
-0.051549684 0.02012494 0.4235248
-0.051163211 0.020119665 0.42342442
-0.050769974 0.020111633 0.4232659
-0.050394941 0.020110749 0.42325768
-0.05000902 0.02010547 0.42315701
-0.049632542 0.020103943 0.42313513
-0.049245428 0.020098049 0.42302135
-0.04886676 0.020095536 0.42297861
-0.048493583 0.020095265 0.42298293
-0.048118461 0.020094175 0.42297
-0.047742076 0.020092539 0.42294547
-0.047367871 0.020091798 0.42293972
-0.046993881 0.020091143 0.42293566
-0.046613909 0.020087896 0.42287701
-0.046238534 0.020086594 0.42285922
-0.045863058 0.02008523 0.42284006
-0.045483328 0.020081963 0.42278072
-0.045108646 0.020080891 0.42276752
-0.035497934 0.019910276 0.41938314
-0.035120208 0.019905392 0.41928753
-0.034754902 0.019907517 0.41933951
-0.034376264 0.01990197 0.41922981
-0.033999566 0.019897439 0.41914138
-0.033570897 0.019862061 0.41840312
-0.033195563 0.019857801 0.4183203
-0.032811984 0.01984846 0.41813031
-0.032447357 0.0198505 0.41818002
-0.032072134 0.019846035 0.41809258
-0.03169217 0.019838495 0.41794032
-0.031308394 0.019828368 0.4177334
-0.030924732 0.019818071 0.41752288
-0.030550402 0.01981358 0.41743457
-0.030179128 0.019810986 0.41738617
-0.029807715 0.019808233 0.41733432
-0.029427867 0.019799739 0.41716146
-0.029057115 0.01979723 0.41711459
-0.028675955 0.019787472 0.41691488
-0.028308386 0.019786963 0.41690999
-0.027930703 0.01977928 0.41675386
-0.027557198 0.019774387 0.41665646
-0.027187465 0.019772111 0.41661406
-0.026812494 0.019765908 0.41648886
-0.026438041 0.019759919 0.41636813
-0.026059914 0.019750984 0.41618514
-0.025690626 0.019748587 0.4161399
-0.025319653 0.019744804 0.41606539
-0.024950735 0.019742539 0.41602278
-0.024581021 0.019739565 0.41596511
-0.024223141 0.019746153 0.41610888
-0.023863209 0.019751241 0.41622096
-0.023508532 0.019760909 0.41642946
-0.017538657 0.019639846 0.41394344
-0.017158514 0.019621523 0.4135606
-0.016797431 0.019624677 0.41363037
-0.016431639 0.019622345 0.41358444
-0.016062751 0.019616129 0.41345656
-0.015696174 0.019612508 0.41338333
-0.015329788 0.019608971 0.41331172
-0.014965136 0.019607525 0.41328418
-0.066467956 0.020729965 0.42784402
-0.066097409 0.020732068 0.42790085
-0.065702945 0.020726647 0.42780232
-0.065324754 0.020726329 0.42780912
-0.064915508 0.020716095 0.42761111
-0.06450405 0.020705035 0.427396
-0.064114019 0.02070076 0.42732087
-0.063722149 0.020695839 0.4272323
-0.063346334 0.020696104 0.42725074
-0.062949307 0.020689404 0.4271253
-0.062550269 0.020681955 0.42698434
-0.062150292 0.020674104 0.42683503
-0.061763138 0.020670451 0.42677224
-0.061338399 0.020654097 0.42644715
-0.060960248 0.020653328 0.42644376
-0.060563985 0.020646371 0.4263126
-0.06017435 0.020641606 0.4262265
-0.059784424 0.020636676 0.42613703
-0.059411861 0.020637717 0.42617074
-0.05898691 0.020620456 0.42582646
-0.05859641 0.020615101 0.42572787
-0.058214348 0.020612657 0.42568943
-0.057824578 0.02060744 0.42559355
-0.057429437 0.020600226 0.42545643
-0.057035953 0.020593515 0.4253296
-0.056640793 0.020586109 0.4251883
-0.056249 0.020579835 0.42507035
-0.055862784 0.020575533 0.42499301
-0.055474859 0.020570537 0.42490125
-0.055085607 0.020564981 0.42479786
-0.054699514 0.020560533 0.42471728
-0.054295134 0.020549107 0.42449245
-0.053926844 0.020551275 0.42454839
-0.053534802 0.020544356 0.42441654
-0.053133775 0.020533871 0.42421091
-0.052730113 0.020522209 0.42398092
-0.052359384 0.020523291 0.42401412
-0.051976461 0.020519575 0.42394811
-0.051561493 0.020503065 0.42361766
-0.05118284 0.020500856 0.42358264
-0.050799165 0.020496594 0.42350507
-0.050420184 0.020494172 0.42346552
-0.050036021 0.020489596 0.42338133
-0.04963382 0.020477507 0.42314181
-0.049248602 0.020472297 0.42304441
-0.04887503 0.020471884 0.42304599
-0.048492409 0.020467646 0.42296848
-0.048112638 0.020464556 0.42291459
-0.047738981 0.020464037 0.42291379
-0.047360692 0.020461511 0.42287144
-0.046991687 0.020462988 0.4229117
-0.046612695 0.020460105 0.42286178
-0.04623371 0.020457178 0.42281094
-0.045857795 0.020455575 0.42278728
-0.045480523 0.020453336 0.42275044
-0.045101453 0.02045024 0.4226959
-0.044724327 0.020447986 0.42265859
-0.044344794 0.020444583 0.4225975
-0.043953493 0.020435655 0.42242205
-0.043580372 0.020435095 0.42241955
-0.043201584 0.020431846 0.4223614
-0.037077498 0.0203363 0.4205189
-0.036699247 0.020331802 0.42043346
-0.036309522 0.020320792 0.42021334
-0.035912514 0.02030544 0.41990334
-0.035496622 0.020278979 0.41936353
-0.035124011 0.020276947 0.41932881
-0.034749754 0.020273911 0.41927323
-0.034374632 0.020270305 0.41920578
-0.03399092 0.020261498 0.4190307
-0.033586603 0.020240078 0.41859466
-0.033196785 0.020227024 0.41833156
-0.032825142 0.020224873 0.41829386
-0.032457408 0.02022511 0.41830549
-0.032080613 0.020219639 0.418199
-0.03170909 0.020217407 0.41815937
-0.031327322 0.02020851 0.41798183
-0.030948922 0.020201603 0.41784537
-0.030572267 0.02019568 0.41772923
-0.030197766 0.020191055 0.41763976
-0.029819181 0.020183554 0.41749078
-0.029444247 0.02017837 0.4173896
-0.02906728 0.020171639 0.41725639
-0.028696505 0.020169092 0.4172096
-0.02832224 0.020163996 0.41711
-0.027943261 0.020155361 0.41693714
-0.027568029 0.02014924 0.41681617
-0.027197208 0.020146219 0.41675928
-0.026824336 0.020141577 0.41666877
-0.026450126 0.020135786 0.41655439
-0.026074655 0.020128865 0.41641653
-0.025699597 0.020122064 0.41628113
-0.025326595 0.020116705 0.41617545
-0.024962278 0.020118186 0.41621119
-0.024588935 0.02011233 0.41609502
-0.024225846 0.020114811 0.41615129
-0.023864286 0.020118657 0.41623574
-0.023501508 0.020121582 0.41630101
-0.02314784 0.020132523 0.41653207
-0.017530441 0.01999492 0.41374561
-0.017164895 0.019993065 0.41371056
-0.016803725 0.019996332 0.41378146
-0.016435971 0.019991741 0.4136897
-0.016067844 0.019986475 0.41358387
-0.015704263 0.019986752 0.41359264
-0.015343259 0.019990398 0.41367108
-0.066104628 0.021112051 0.42794329
-0.065716833 0.021108689 0.42788854
-0.065346502 0.021110931 0.42794731
-0.064965189 0.021109628 0.42793411
-0.064536862 0.021092946 0.42760915
-0.064144 0.021087725 0.42751643
-0.063747823 0.021081351 0.4274002
-0.063361958 0.021078328 0.42735186
-0.062967785 0.02107249 0.42724642
-0.062585115 0.021070454 0.42721793
-0.062188093 0.021063533 0.42709035
-0.061798085 0.021058919 0.42700946
-0.061374869 0.021042865 0.42669648
-0.060999714 0.021043189 0.42671558
-0.060607292 0.021037525 0.42661318
-0.060219508 0.02103341 0.42654207
-0.059812646 0.02102254 0.42633393
-0.05940925 0.021012757 0.4261477
-0.059037942 0.021014271 0.42619058
-0.058642447 0.021007143 0.42605808
-0.058236148 0.020996025 0.42584458
-0.057850149 0.020992128 0.42577747
-0.057440318 0.020979481 0.42553279
-0.057063036 0.020978631 0.42552727
-0.056676045 0.020974176 0.42544863
-0.056284551 0.020967988 0.42533472
-0.055896111 0.020962864 0.42524225
-0.055504844 0.0209566 0.42512664
-0.055106979 0.020947745 0.42495838
-0.054705758 0.020937484 0.4247615
-0.054332573 0.020937884 0.42478088
-0.053937156 0.020929664 0.42462528
-0.053547498 0.020923583 0.42451295
-0.05315385 0.020915842 0.42436692
-0.052772764 0.020912971 0.42431957
-0.052400094 0.02091342 0.4243395
-0.051998153 0.020902108 0.42412078
-0.051598556 0.020891584 0.42391789
-0.051220469 0.020889679 0.42388985
-0.05082107 0.020878986 0.42368338
-0.050436903 0.020874441 0.42360166
-0.050051503 0.020869318 0.42350805
-0.04966782 0.020864839 0.42342743
-0.049300604 0.02086726 0.4234868
-0.048886709 0.020849809 0.42314279
-0.048500225 0.020843877 0.4230324
-0.04811193 0.020837061 0.4229041
-0.047736097 0.02083558 0.42288396
-0.047362056 0.020834869 0.42287937
-0.046984795 0.020832716 0.42284539
-0.046605162 0.020829469 0.42278922
-0.046233363 0.0208297 0.42280349
-0.045856949 0.020827839 0.42277524
-0.04547694 0.0208243 0.42271286
-0.045094594 0.020819629 0.42262736
-0.044714969 0.020816142 0.42256588
-0.044336259 0.020813026 0.42251188
-0.043958064 0.020810105 0.42246169
-0.043580879 0.020807615 0.42242023
-0.043202255 0.020804388 0.42236367
-0.042813081 0.020795984 0.42220193
-0.042438146 0.020794405 0.42217875
-0.042053077 0.020787794 0.42205325
-0.03860632 0.020732714 0.42100996
-0.038218725 0.020723497 0.42083076
-0.037829574 0.020713247 0.42063046
-0.037450377 0.0207083 0.42053774
-0.037065316 0.020699976 0.42037642
-0.036687762 0.020695724 0.42029771
-0.036304619 0.020688197 0.42015237
-0.035910472 0.020674182 0.4198752
-0.035498746 0.020649649 0.41938433
-0.035118155 0.020642906 0.41925466
-0.034752496 0.020644886 0.41930211
-0.034378715 0.020642038 0.41925138
-0.034007579 0.020640727 0.41923183
-0.033606593 0.020621078 0.41883966
-0.033208508 0.020602787 0.41847506
-0.032839313 0.020602215 0.4184702
-0.032461584 0.020596214 0.41835508
-0.032092687 0.020595744 0.41835216
-0.031719241 0.020592311 0.41828901
-0.03133738 0.020583274 0.41811186
-0.030971987 0.020584961 0.41815257
-0.030581884 0.020570073 0.41785645
-0.030206408 0.02056478 0.41775513
-0.029836414 0.020563135 0.41772789
-0.029457515 0.020555234 0.41757345
-0.029089307 0.02055469 0.41756839
-0.028711146 0.020547008 0.41741824
-0.028332883 0.020539057 0.41726255
-0.027953826 0.02053031 0.41709059
-0.027588097 0.020531252 0.41711542
-0.027207289 0.020520847 0.41690961
-0.026833719 0.020515691 0.41681036
-0.026466383 0.020515226 0.41680634
-0.026081566 0.020501005 0.41652277
-0.025707148 0.020494672 0.41639933
-0.025333419 0.020488713 0.41628346
-0.024963794 0.020485945 0.41623232
-0.02459657 0.020485099 0.41622016
-0.024230121 0.02048488 0.41622064
-0.0238667 0.020487253 0.41627371
-0.023501506 0.02048816 0.4162969
-0.023136368 0.020489139 0.41632155
-0.022772161 0.020490993 0.41636381
-0.017936194 0.02040676 0.41470474
-0.017539252 0.020369435 0.41394961
-0.017180011 0.020375235 0.4140709
-0.016816044 0.020375567 0.41408092
-0.016446033 0.020368423 0.413939
-0.016080361 0.020366453 0.4139021
-0.065761685 0.021501014 0.42817622
-0.065360144 0.021493118 0.42803231
-0.064983927 0.021493502 0.42805323
-0.064566247 0.0214801 0.42779949
-0.064190201 0.021480473 0.42782
-0.063793793 0.021473996 0.42770407
-0.063383639 0.021462787 0.42749375
-0.062994644 0.021458652 0.42742428
-0.062606394 0.021454725 0.42735887
-0.06221376 0.021449238 0.42726231
-0.061817978 0.02144259 0.42714259
-0.06141017 0.021431668 0.42693755
-0.061019961 0.021426789 0.42685291
-0.060629349 0.021421704 0.42676404
-0.06023347 0.021414688 0.42663664
-0.059838999 0.021408089 0.42651743
-0.05944537 0.021401707 0.42640251
-0.059066948 0.021400755 0.42639562
-0.058665622 0.021391442 0.42622212
-0.058265761 0.02138254 0.42605677
-0.05788321 0.02137992 0.42601645
-0.057500541 0.021377224 0.42597458
-0.057107452 0.021370588 0.42585415
-0.056685813 0.021353116 0.42551765
-0.056288406 0.021344598 0.42535949
-0.055911209 0.021343684 0.42535278
-0.055539943 0.021345034 0.42539117
-0.055133983 0.021332979 0.42516229
-0.054737147 0.021324314 0.42500091
-0.054355852 0.021321626 0.42495856
-0.053970832 0.02131743 0.42488608
-0.053566471 0.021305483 0.42465898
-0.053179618 0.021300381 0.4245683
-0.052798476 0.021297511 0.42452201
-0.05241004 0.021291636 0.42441574
-0.052008428 0.021280283 0.42420024
-0.051612988 0.021271313 0.42403209
-0.051236402 0.021270039 0.42401731
-0.050836507 0.021258997 0.42380774
-0.050472923 0.021263095 0.42389983
-0.050087489 0.021257976 0.42380819
-0.049687918 0.021246737 0.42359442
-0.049318854 0.021248471 0.42363921
-0.048911832 0.021233751 0.42335591
-0.048509598 0.021220904 0.42310977
-0.048121113 0.021213919 0.42298049
-0.047756761 0.021217544 0.42306268
-0.047367871 0.021210242 0.4229269
-0.046985786 0.021205893 0.42284998
-0.046605855 0.021202458 0.42279112
-0.046221036 0.021196725 0.42268637
-0.045850184 0.021197356 0.42270854
-0.04546994 0.021193618 0.42264342
-0.045096748 0.021193136 0.42264318
-0.044708528 0.021185527 0.42250067
-0.044336271 0.021185411 0.42250764
-0.043954961 0.021180937 0.42242754
-0.043574017 0.021176564 0.42234933
-0.0431902 0.021170706 0.42224148
-0.042813446 0.021168239 0.42220122
-0.042425849 0.021160321 0.42205209
-0.042049322 0.021157835 0.42201126
-0.041675575 0.021156715 0.42199758
-0.041279089 0.021143926 0.42175108
-0.040899578 0.021139683 0.42167494
-0.040515732 0.021133099 0.421552
-0.040136088 0.021128608 0.42147076
-0.039749447 0.021120314 0.42131355
-0.039369065 0.021115219 0.42122012
-0.038986873 0.02110905 0.42110518
-0.038603261 0.021101987 0.42097226
-0.038208682 0.021088734 0.42071581
-0.037825555 0.021081602 0.42058143
-0.037450273 0.02107875 0.42053226
-0.037061661 0.02106826 0.4203307
-0.036684051 0.021063875 0.42025086
-0.036320899 0.021067791 0.42033648
-0.035896119 0.021035669 0.41970307
-0.035522059 0.021032915 0.4196555
-0.035123885 0.021015676 0.41931883
-0.034749191 0.021012263 0.41925794
-0.034381445 0.021013033 0.41928035
-0.034012318 0.021012958 0.41928598
-0.033617996 0.02099715 0.41897747
-0.033230856 0.020985527 0.4187524
-0.032848518 0.020976705 0.41858321
-0.03247454 0.02097309 0.41851777
-0.032111559 0.020976575 0.41859397
-0.031729076 0.020967249 0.41841441
-0.031353142 0.020962086 0.41831788
-0.03097754 0.020957023 0.41822323
-0.030590929 0.020944303 0.41797572
-0.030216945 0.020940028 0.4178966
-0.029845582 0.02093748 0.41785195
-0.029471705 0.020933088 0.41777036
-0.029094137 0.02092593 0.41763347
-0.028724259 0.02092419 0.41760468
-0.028338883 0.020910969 0.41734666
-0.027961774 0.020903582 0.41720495
-0.027595187 0.020903971 0.41721839
-0.027219556 0.020897426 0.41709337
-0.026854938 0.020899273 0.41713572
-0.026476411 0.020890199 0.41696003
-0.026097897 0.02088088 0.41677937
-0.025723869 0.020874934 0.41666597
-0.02535044 0.020869313 0.41655892
-0.024974328 0.020861285 0.41640377
-0.024602875 0.020856967 0.41632262
-0.024239266 0.020859269 0.41637352
-0.023868341 0.020855254 0.41629821
-0.023503395 0.020856414 0.41632617
-0.023136025 0.020855431 0.41631117
-0.022769304 0.02085501 0.41630742
-0.022400307 0.020852456 0.41626096
-0.022038689 0.0208568 0.41635218
-0.01871521 0.020826885 0.41579139
-0.018306578 0.020778233 0.41482371
-0.017931908 0.020766929 0.41460159
-0.017555948 0.020753635 0.41433966
-0.017185621 0.020746578 0.41420218
-0.016823184 0.020748945 0.41425273
-0.016451031 0.020739172 0.4140608
-0.016089834 0.020743081 0.41414201
-0.015726421 0.020744245 0.41416833
-0.065390065 0.02188091 0.42822382
-0.065002158 0.021877427 0.42816895
-0.064597704 0.0218683 0.42800349
-0.064227588 0.021870762 0.42806479
-0.063830391 0.021863975 0.42794502
-0.063436605 0.021858286 0.42784658
-0.063014105 0.021842575 0.42755195
-0.062618077 0.021835905 0.42743418
-0.062236965 0.021834387 0.42741725
-0.061823804 0.02182154 0.42717838
-0.061439771 0.02181888 0.42713892
-0.061045386 0.021812489 0.4270263
-0.060651239 0.021806104 0.42691374
-0.060251661 0.021797674 0.42676106
-0.059890036 0.021802956 0.42687675
-0.059475359 0.021788869 0.42661315
-0.059066962 0.021776918 0.42639133
-0.058692437 0.021777384 0.42641246
-0.058289323 0.021767177 0.42622462
-0.057911348 0.02176629 0.42621914
-0.057514947 0.021758417 0.42607683
-0.057121102 0.021751417 0.42595151
-0.056735296 0.021747407 0.42588463
-0.056317691 0.021731073 0.42557639
-0.055938043 0.021729264 0.42555249
-0.055555385 0.021726254 0.42550498
-0.055160474 0.021718375 0.42536208
-0.054775484 0.021714328 0.42529413
-0.054373741 0.021703536 0.42509392
-0.05397502 0.021693809 0.4249146
-0.053576093 0.021683862 0.42473084
-0.053188935 0.021678574 0.42463821
-0.052810717 0.021676879 0.42461601
-0.052420847 0.021670345 0.4244988
-0.052039087 0.021667091 0.42444584
-0.051651873 0.021661509 0.42434713
-0.051246163 0.021648027 0.42409366
-0.050874252 0.021648733 0.42411801
-0.050483979 0.021641575 0.42398825
-0.050108425 0.021640671 0.42398089
-0.049718138 0.02163334 0.42384759
-0.049333513 0.021628382 0.42376068
-0.048958413 0.021627558 0.42375466
-0.048550166 0.021611964 0.42345923
-0.048144825 0.021597434 0.42318448
-0.047762938 0.021593282 0.42311305
-0.047383275 0.021590073 0.42306
-0.047004059 0.021587025 0.42301002
-0.046618711 0.021581087 0.42290333
-0.046237409 0.021576943 0.42283168
-0.045848019 0.021568928 0.42268413
-0.045459896 0.02156138 0.42254567
-0.045087457 0.021561207 0.42255166
-0.044711143 0.021559168 0.42252097
-0.044328086 0.021553813 0.42242524
-0.043944173 0.021547947 0.42231938
-0.04356828 0.02154595 0.42228931
-0.043189522 0.02154249 0.42223045
-0.042805415 0.021536278 0.42211759
-0.042418484 0.021528525 0.42197442
-0.04204227 0.021526121 0.42193606
-0.041658834 0.021519944 0.42182362
-0.041282151 0.021517174 0.42177793
-0.040892955 0.021507777 0.42160222
-0.040516101 0.021504758 0.42155147
-0.040124174 0.02149361 0.42134124
-0.03974881 0.021491207 0.42130241
-0.039360158 0.021481507 0.42112043
-0.038977429 0.021474889 0.42099875
-0.03858782 0.021464316 0.42079949
-0.038200095 0.021454595 0.42061689
-0.037820924 0.021449536 0.42052552
-0.037442341 0.021444714 0.4204388
-0.037060011 0.02143763 0.42030758
-0.036678206 0.02143071 0.42017955
-0.036309864 0.021431593 0.42020437
-0.035912395 0.021415129 0.419889
-0.035519626 0.021401156 0.41962236
-0.035144843 0.021397835 0.41956457
-0.034766901 0.021392504 0.41946724
-0.034392942 0.021389537 0.41941616
-0.034026161 0.021391014 0.41945222
-0.03363774 0.021378774 0.41921917
-0.03326273 0.021374879 0.4191497
-0.032854948 0.021349603 0.41866085
-0.032484513 0.021348298 0.41864192
-0.032124173 0.021353671 0.41875398
-0.031742305 0.021344695 0.4185845
-0.03137346 0.021344369 0.41858459
-0.030985706 0.021331018 0.41832915
-0.030614983 0.021329213 0.41830006
-0.030242518 0.021326134 0.41824591
-0.029865526 0.021319749 0.41812685
-0.029478731 0.021306118 0.41786563
-0.0291081 0.021303974 0.41782957
-0.028741235 0.021304572 0.41784716
-0.028354699 0.021290408 0.41757527
-0.027977221 0.02128277 0.41743115
-0.027601287 0.021276113 0.41730627
-0.027228557 0.021271786 0.41722697
-0.026855161 0.021266809 0.41713488
-0.026490865 0.021269005 0.41718337
-0.026111849 0.021259278 0.41699788
-0.025742542 0.021257291 0.41696417
-0.025354145 0.021239253 0.41661555
-0.024980977 0.021233629 0.41651037
-0.024610071 0.021229796 0.41644016
-0.024244243 0.021230288 0.41645476
-0.023872796 0.021225804 0.41637167
-0.023502083 0.021221843 0.41629872
-0.023135984 0.021221986 0.41630626
-0.022767926 0.02122031 0.41627797
-0.022399196 0.021217946 0.4162361
-0.022030381 0.021215422 0.41619104
-0.021665392 0.021216555 0.41621765
-0.018702686 0.021178802 0.41550905
-0.018295446 0.021130618 0.41456732
-0.017933836 0.021134246 0.4146421
-0.017561808 0.021125495 0.41447383
-0.017193651 0.021121131 0.41439164
-0.016821632 0.02111173 0.41421047
-0.016454199 0.021107797 0.4141365
-0.016096247 0.021116123 0.414303
-0.065405145 0.022263994 0.42831808
-0.065028131 0.022264214 0.42833552
-0.064621501 0.022254232 0.42815667
-0.064237088 0.022251833 0.42812362
-0.063842982 0.022246029 0.42802498
-0.063446827 0.022239434 0.42791104
-0.063037768 0.022228213 0.427708
-0.06264507 0.022222659 0.42761394
-0.062267423 0.022222411 0.4276219
-0.061860789 0.022211749 0.42742947
-0.061469443 0.022206485 0.42734069
-0.061063867 0.02219598 0.42715105
-0.060680062 0.022193307 0.4271121
-0.060288068 0.022187589 0.42701441
-0.059898514 0.022182707 0.42693272
-0.059491336 0.02217119 0.42672327
-0.059109882 0.022169176 0.42669663
-0.058707424 0.022159208 0.42651683
-0.058305189 0.022149194 0.42633611
-0.057917092 0.022144463 0.4262569
-0.057541505 0.022144482 0.42626911
-0.057151042 0.022138737 0.42617029
-0.056755763 0.022131039 0.42603379
-0.056353133 0.022120353 0.42583972
-0.055959597 0.022113118 0.42571193
-0.055569451 0.022107134 0.42560819
-0.055182576 0.02210238 0.42552805
-0.054789655 0.022095123 0.42539963
-0.054396439 0.022087645 0.42526686
-0.053994246 0.022076396 0.42506143
-0.053604409 0.022070076 0.42495081
-0.053209547 0.022061583 0.42479828
-0.052832648 0.022060471 0.42478779
-0.052442566 0.022053801 0.42467016
-0.052076392 0.022057159 0.42474565
-0.051672436 0.022044448 0.42451155
-0.051256958 0.022026604 0.42417851
-0.050901782 0.022034599 0.42434302
-0.050501045 0.022022841 0.42412707
-0.050115533 0.022017602 0.4240365
-0.049729615 0.022012103 0.42394093
-0.049355481 0.022011779 0.42394489
-0.048950493 0.021997584 0.42368162
-0.048557874 0.02198877 0.42352191
-0.048168771 0.021981424 0.42339045
-0.04779039 0.021978898 0.42335168
-0.047410984 0.021975856 0.42330292
-0.047024745 0.021969574 0.42319167
-0.046640579 0.021964168 0.42309719
-0.046241406 0.021951551 0.42286375
-0.04586225 0.021948311 0.42281085
-0.045473702 0.021940481 0.42266947
-0.045096546 0.021938069 0.42263237
-0.044711377 0.021931686 0.42251867
-0.04433028 0.02192721 0.42244163
-0.043949347 0.021922741 0.42236465
-0.043562807 0.021915374 0.42223182
-0.043182593 0.02191109 0.42215824
-0.04280581 0.021908488 0.42211694
-0.042413637 0.021897895 0.4219217
-0.042040199 0.021896875 0.42191076
-0.041657243 0.021890834 0.421803
-0.041274648 0.021884877 0.42169681
-0.040888425 0.021876873 0.42155102
-0.040502843 0.021869067 0.42140901
-0.040117189 0.021861076 0.4212634
-0.03973363 0.021854091 0.42113706
-0.039362468 0.021853855 0.42114064
-0.038977731 0.021846008 0.42099753
-0.038584359 0.021833124 0.42075726
-0.038200591 0.021825479 0.42061785
-0.037825134 0.021822479 0.42056787
-0.037451919 0.021820726 0.42054191
-0.037072252 0.021815144 0.42044199
-0.036696449 0.021811742 0.42038405
-0.036315665 0.021805283 0.42026705
-0.035924368 0.021792313 0.42002451
-0.035536114 0.021780942 0.41981271
-0.035154499 0.021773437 0.41967541
-0.034777671 0.021768777 0.41959274
-0.034409434 0.021769449 0.41961282
-0.034038059 0.021768128 0.41959447
-0.033651818 0.021757169 0.41939014
-0.033274982 0.021752117 0.41929966
-0.032871045 0.021729033 0.41886148
-0.032504413 0.021730369 0.41889399
-0.032136299 0.021730736 0.41890764
-0.031758074 0.021724189 0.41878802
-0.03137996 0.021717569 0.4186669
-0.030997697 0.021707887 0.41848662
-0.030622633 0.021703076 0.41840017
-0.030247413 0.021698032 0.41830921
-0.029871773 0.021692563 0.41820991
-0.029496726 0.021687392 0.4181163
-0.029120062 0.021680888 0.41799688
-0.028746927 0.021676878 0.41792551
-0.028369244 0.021669291 0.41778508
-0.027983367 0.021655165 0.41751847
-0.027611744 0.02165184 0.41746002
-0.027240971 0.021649102 0.41741282
-0.026864337 0.021641567 0.41727304
-0.026496632 0.021641118 0.41726983
-0.026121279 0.021634324 0.41714412
-0.025742818 0.021624722 0.41696426
-0.025364539 0.021614999 0.41678196
-0.024997177 0.02161443 0.41677612
-0.024625454 0.02161002 0.4166961
-0.02424619 0.021598758 0.41648388
-0.023882419 0.021601167 0.41653517
-0.023506213 0.021592226 0.41636753
-0.023135599 0.021588223 0.41629502
-0.022766227 0.021585267 0.41624266
-0.022400064 0.021585306 0.41624793
-0.022031924 0.02158341 0.41621581
-0.021664608 0.021582276 0.41619831
-0.021297026 0.02158083 0.41617471
-0.020933168 0.021583175 0.41622415
-0.020563962 0.02157999 0.41616684
-0.020196322 0.021578368 0.41613957
-0.019823063 0.021570567 0.41599312
-0.019435046 0.021546116 0.4155255
-0.01906772 0.021544104 0.41549045
-0.018693164 0.021533687 0.41529331
-0.018325632 0.021531107 0.41524717
-0.017936399 0.021502405 0.41469717
-0.017569415 0.02149974 0.41464925
-0.017197208 0.02149044 0.41447324
-0.016829154 0.021486033 0.41439155
-0.016460598 0.021480778 0.41429344
-0.016100192 0.021486167 0.41440049
-0.065026164 0.022641571 0.42831796
-0.064651787 0.022642717 0.4283528
-0.064270049 0.022641279 0.42833871
-0.063869953 0.022633322 0.4282012
-0.063481465 0.022629406 0.42814007
-0.063100129 0.022628007 0.42812651
-0.062677249 0.022611609 0.42782903
-0.062293515 0.022609219 0.42779654
-0.061897997 0.022602493 0.42768195
-0.061509568 0.022598293 0.42761508
-0.061092857 0.022583585 0.42734927
-0.060700927 0.022577913 0.42725441
-0.060321204 0.02257674 0.42724457
-0.059934109 0.022572774 0.42718181
-0.059546173 0.022568442 0.42711204
-0.059143707 0.022558512 0.42693624
-0.058739327 0.02254772 0.42674404
-0.05834597 0.022541046 0.42662972
-0.057942972 0.022530541 0.42644277
-0.057574529 0.022533419 0.42650911
-0.0571911 0.022530438 0.42646444
-0.056790896 0.02252076 0.42629293
-0.056376942 0.022505464 0.42601502
-0.055974659 0.022494653 0.42582193
-0.055592883 0.022491997 0.42578307
-0.055198871 0.022484317 0.42564911
-0.054821409 0.022483326 0.4256416
-0.054425195 0.022474572 0.42548713
-0.054024909 0.022464009 0.42529827
-0.053632449 0.022456571 0.42516854
-0.05323277 0.022445982 0.42497906
-0.052836526 0.022436706 0.42481437
-0.052467909 0.022439113 0.42487079
-0.052091103 0.022438031 0.42486101
-0.051704288 0.022432586 0.42476866
-0.051300574 0.02241968 0.42453486
-0.050914716 0.022414444 0.42444623
-0.050524756 0.022407312 0.42432162
-0.050143875 0.022404129 0.42427176
-0.049763996 0.02240135 0.42422944
-0.049372602 0.022393307 0.42408735
-0.04897891 0.022384092 0.42392299
-0.048595347 0.022379402 0.42384419
-0.048204679 0.022371341 0.42370149
-0.047808714 0.022360677 0.42350945
-0.047433134 0.022359455 0.42349613
-0.047056064 0.022357505 0.42346895
-0.046664298 0.022348486 0.42330781
-0.046268191 0.022337226 0.42310414
-0.045883399 0.022331292 0.42300123
-0.045501694 0.022326773 0.42292508
-0.045097124 0.02231087 0.42263317
-0.044730086 0.022313427 0.42269093
-0.044339191 0.022304025 0.42252198
-0.043957483 0.022299122 0.42243823
-0.043580156 0.022296378 0.42239532
-0.043191608 0.022287801 0.42224178
-0.042811222 0.022283319 0.42216578
-0.042424187 0.022275271 0.42202207
-0.042043421 0.022270398 0.42193854
-0.041659769 0.022263899 0.42182401
-0.041275278 0.022256831 0.42169866
-0.040900379 0.022254854 0.42166972
-0.040512156 0.022245524 0.42150137
-0.040129721 0.022239232 0.42139047
-0.039744239 0.022231117 0.42124492
-0.0393738 0.02223134 0.42125732
-0.03898111 0.022218887 0.42102945
-0.038594447 0.022209667 0.42086273
-0.038212493 0.022203 0.42074436
-0.037828777 0.022195173 0.42060384
-0.037455451 0.022193344 0.42057696
-0.0370779 0.022188952 0.42050144
-0.036703464 0.022186356 0.42045984
-0.036328461 0.022183361 0.4204106
-0.035940602 0.022172371 0.42020977
-0.035550695 0.02215988 0.41998041
-0.035164855 0.022149689 0.41979456
-0.03479261 0.022147929 0.41976842
-0.034426287 0.022149952 0.41981387
-0.034047011 0.022143587 0.41970029
-0.033664897 0.022135217 0.41954863
-0.033289541 0.022131156 0.41947854
-0.032887232 0.022108886 0.41906324
-0.03251943 0.022109574 0.41908297
-0.032155361 0.022112845 0.4191516
-0.031772874 0.022103377 0.41897869
-0.031400494 0.022100801 0.41893637
-0.031024981 0.022095932 0.41885048
-0.030631769 0.022078192 0.41852051
-0.030255128 0.022072108 0.4184114
-0.029884068 0.022069996 0.41837752
-0.02950976 0.022065407 0.41829661
-0.029132597 0.022058537 0.41817236
-0.028756637 0.022052413 0.41806218
-0.028387681 0.022051575 0.41805214
-0.027997913 0.022034334 0.41773102
-0.027632877 0.022036361 0.41777509
-0.027256751 0.022029474 0.41765013
-0.026879398 0.0220214 0.41750255
-0.026509902 0.022019625 0.41747433
-0.026133608 0.022012074 0.41733655
-0.025754025 0.022001503 0.41714135
-0.025386075 0.022000704 0.41713139
-0.025009995 0.021992737 0.41698545
-0.024629163 0.021980288 0.41675442
-0.024267739 0.021985048 0.41684964
-0.023893874 0.021978512 0.41673052
-0.023515336 0.021967405 0.41652474
-0.023148023 0.021966601 0.41651416
-0.022770129 0.021955566 0.41630957
-0.022398893 0.021950699 0.4162218
-0.022031605 0.021949604 0.41620547
-0.021664584 0.02194874 0.41619349
-0.021298874 0.021949204 0.41620651
-0.020930812 0.021947211 0.41617298
-0.020560481 0.021942727 0.41609207
-0.020189036 0.021936877 0.41598514
-0.019809211 0.021921532 0.41569814
-0.019436514 0.02191365 0.41555253
-0.019065065 0.021906897 0.41542831
-0.018694881 0.021901365 0.41532713
-0.018324168 0.021894984 0.41520971
-0.017946301 0.021879617 0.41492188
-0.017569495 0.021864938 0.41464692
-0.017203903 0.021863883 0.41463035
-0.016832829 0.021855667 0.41447785
-0.016468069 0.021855468 0.41447729
-0.064663857 0.023025068 0.42842814
-0.064283781 0.023024226 0.42842558
-0.063907124 0.023024609 0.42844573
-0.063494369 0.023011915 0.42822248
-0.063125707 0.023015145 0.42829543
-0.062704667 0.022999199 0.42801154
-0.062308289 0.022992162 0.42789331
-0.061917059 0.022986954 0.42780903
-0.061526611 0.022981972 0.42772892
-0.061139196 0.022978067 0.42766875
-0.060728624 0.02296536 0.4274447
-0.060347997 0.022963887 0.42742962
-0.059943188 0.022953138 0.42724186
-0.059557866 0.022949765 0.42719126
-0.059163406 0.022942798 0.42707375
-0.058764923 0.022934178 0.42692533
-0.058375318 0.022928933 0.42683965
-0.057984721 0.022923229 0.42674541
-0.057584316 0.022913545 0.426577
-0.057203673 0.022911653 0.42655349
-0.056817871 0.022907652 0.42649072
-0.056414008 0.022896273 0.42629045
-0.056013733 0.022886204 0.42611453
-0.055622496 0.022879716 0.42600521
-0.055241868 0.022877539 0.42597601
-0.05485718 0.022873634 0.42591465
-0.052876789 0.022828711 0.42513347
-0.052505039 0.02282992 0.42516682
-0.052107673 0.022819925 0.42499149
-0.051706355 0.022808051 0.42478096
-0.051329799 0.022806998 0.42477202
-0.050931796 0.022796337 0.42458397
-0.050538067 0.022787442 0.42442876
-0.050171115 0.022790581 0.42449757
-0.049784373 0.022784706 0.42439851
-0.049396478 0.022778213 0.42428777
-0.049018066 0.02277603 0.42425722
-0.048602808 0.022756558 0.4239046
-0.048215091 0.022749783 0.42378837
-0.047831949 0.022745075 0.42371058
-0.047445811 0.022738859 0.42360461
-0.047070339 0.022737697 0.42359275
-0.046662927 0.022720965 0.42329067
-0.046296377 0.022724019 0.42335719
-0.045896348 0.02271056 0.42311594
-0.045518395 0.022707889 0.42307565
-0.045137137 0.022703519 0.42300358
-0.044741809 0.022691935 0.42279699
-0.044372313 0.022693373 0.42283297
-0.043971758 0.022678811 0.42257079
-0.043589957 0.022673758 0.42248568
-0.043197788 0.02266318 0.42229754
-0.042817082 0.022658482 0.42221889
