# .PCD v0.7 - Point Cloud Data file format
VERSION 0.7
FIELDS x y z
SIZE 4 4 4
TYPE F F F
COUNT 1 1 1
WIDTH 1340
HEIGHT 1
VIEWPOINT 0 0 0 1 0 0 0
POINTS 1340
DATA ascii
-0.058136538 0.05963622 0.43853253
-0.057789028 0.059677139 0.4388448
-0.051208843 0.05923574 0.43576872
-0.050817832 0.059228208 0.43572336
-0.050431896 0.059226524 0.43572092
-0.05003009 0.059206039 0.43558004
-0.049625073 0.059181403 0.43540856
-0.049238626 0.059178703 0.4353984
-0.048846811 0.059169453 0.43533999
-0.048470687 0.059179232 0.43542147
-0.048106205 0.059203483 0.43560937
-0.099844076 0.061880909 0.45058858
-0.099418536 0.061864421 0.45048645
-0.099009804 0.061858308 0.45045981
-0.09857209 0.061833974 0.4503004
-0.098174863 0.061834935 0.45032513
-0.097724795 0.061802488 0.4501065
-0.097300664 0.061786246 0.45000586
-0.096855901 0.061756711 0.44980833
-0.096419774 0.061732478 0.4496493
-0.095989086 0.06171152 0.44951409
-0.095555656 0.061688624 0.44936475
-0.095115758 0.061661359 0.4491834
-0.094717667 0.061661068 0.44919857
-0.09429206 0.061642785 0.44908264
-0.093834497 0.061603371 0.44881266
-0.093436681 0.061603021 0.44882718
-0.093005233 0.061580386 0.44867936
-0.092583388 0.061563961 0.4485766
-0.092144877 0.061536249 0.44839165
-0.091719545 0.061517142 0.44826925
-0.09129519 0.061498523 0.44815043
-0.090889446 0.061492343 0.44812214
-0.090454079 0.061465982 0.44794664
-0.090017289 0.061438404 0.44776231
-0.089584105 0.061413068 0.4475942
-0.089177087 0.061405517 0.44755566
-0.088743649 0.06137963 0.44738343
-0.088327751 0.061365698 0.44729823
-0.087901406 0.06134434 0.44715887
-0.087453783 0.061307881 0.44690937
-0.087031297 0.061288796 0.4467864
-0.086642265 0.0612932 0.44683465
-0.086204976 0.061263353 0.4466331
-0.085807167 0.061261408 0.44663495
-0.085347369 0.061214983 0.44631243
-0.084914021 0.061187208 0.44612578
-0.084505588 0.061177194 0.44606856
-0.08407224 0.061148971 0.44587851
-0.083654605 0.061131962 0.44577014
-0.083250351 0.061124615 0.44573221
-0.082840435 0.06111303 0.44566327
-0.082423091 0.061095815 0.44555321
-0.08203765 0.061102211 0.44561526
-0.081638269 0.061098229 0.44560155
-0.081228837 0.061086651 0.44553244
-0.080829009 0.061082222 0.44551539
-0.080431163 0.061079245 0.44550887
-0.080023363 0.06106865 0.4454467
-0.079629168 0.061068386 0.44545984
-0.079226427 0.061061535 0.4454248
-0.078825042 0.061055664 0.4453969
-0.078436293 0.061059572 0.44544026
-0.077985696 0.061015125 0.44513083
-0.077580325 0.061005794 0.44507748
-0.069645494 0.060606167 0.44242775
-0.069234945 0.060588963 0.44231549
-0.068810888 0.060559664 0.44211489
-0.068385899 0.06052921 0.44190574
-0.067962326 0.060499672 0.4417032
-0.067491278 0.060427278 0.44118771
-0.0670508 0.060381569 0.44086695
-0.066652358 0.060373418 0.44082031
-0.066219948 0.060334217 0.4405469
-0.065820903 0.060325131 0.44049329
-0.06545122 0.060343012 0.44063655
-0.065012604 0.060297173 0.44031438
-0.064149976 0.060217533 0.43975782
-0.063774563 0.060229786 0.43985966
-0.063355893 0.060201082 0.43966234
-0.062961474 0.060195211 0.43963167
-0.062556706 0.060179308 0.43952772
-0.062144052 0.060155578 0.43936649
-0.061726868 0.060127135 0.43917078
-0.061337441 0.060125541 0.43917108
-0.06092583 0.060102049 0.43901137
-0.060510073 0.060074139 0.43881929
-0.06010139 0.060052939 0.43867612
-0.059722405 0.060061328 0.43874905
-0.059294268 0.060020067 0.43845922
-0.058910016 0.060022984 0.43849203
-0.058518346 0.060018338 0.4384695
-0.058174644 0.060063157 0.43880829
-0.057819579 0.060096759 0.43906513
-0.051239744 0.059656717 0.43602002
-0.050867364 0.059671268 0.43613642
-0.050459459 0.059644055 0.43594742
-0.050039988 0.059602637 0.43565458
-0.049644675 0.059589587 0.4355689
-0.049249612 0.059576627 0.43548387
-0.048864953 0.059576154 0.43549004
-0.048484027 0.059580263 0.43552962
-0.048140042 0.059630193 0.43590412
-0.099468954 0.062295448 0.45070377
-0.099054366 0.062285736 0.45065141
-0.098635435 0.062273212 0.45057854
-0.098198809 0.06224937 0.45042378
-0.097770952 0.062230907 0.45030788
-0.097346351 0.062214386 0.45020592
-0.09691295 0.062192075 0.45006204
-0.096505791 0.062186494 0.45003915
-0.096079081 0.062168218 0.44992432
-0.095621236 0.062129553 0.44966194
-0.095177308 0.062099651 0.4494628
-0.094742246 0.062075302 0.44930387
-0.094324611 0.062062223 0.44922638
-0.093897365 0.062042676 0.44910204
-0.093485251 0.062033013 0.4490492
-0.093044959 0.062004473 0.44885969
-0.092618182 0.061984744 0.44873384
-0.092184015 0.061959889 0.44857076
-0.091769308 0.061947946 0.44850114
-0.091332749 0.061921079 0.44832346
-0.090922587 0.061911955 0.44827414
-0.090510614 0.061901517 0.44821525
-0.090070374 0.061871573 0.448015
-0.089640617 0.061848588 0.44786513
-0.08923202 0.061840072 0.44781998
-0.088765308 0.061791029 0.44748122
-0.0883637 0.061787065 0.44746888
-0.087953039 0.061776705 0.4474102
-0.087503366 0.061738726 0.44715133
-0.087118283 0.06174618 0.44722155
-0.086659923 0.061701532 0.44691429
-0.086246714 0.06168877 0.4468379
-0.085816808 0.0616639 0.44667369
-0.085408673 0.061654508 0.44662163
-0.08498165 0.061631333 0.4464696
-0.084550813 0.061605159 0.4462958
-0.084148675 0.061599761 0.4462724
-0.083699472 0.061559681 0.44599774
-0.083282344 0.061542936 0.44589201
-0.082858451 0.061521005 0.44574866
-0.082458988 0.061517086 0.44573575
-0.082021132 0.061484359 0.44551402
-0.081638172 0.061492663 0.44558954
-0.081210285 0.061467044 0.44541919
-0.080821007 0.061470538 0.44545972
-0.080408737 0.061456498 0.44537312
-0.080021128 0.061461255 0.44542271
-0.079609059 0.061447185 0.44533578
-0.079215124 0.061447039 0.44534969
-0.078799188 0.06142975 0.44523925
-0.078399822 0.06142525 0.44522151
-0.07798291 0.061406907 0.44510335
-0.077582702 0.061401587 0.44507954
-0.077178121 0.061392743 0.44503003
-0.075521246 0.061325137 0.4445979
-0.072624438 0.061202105 0.44380459
-0.072182082 0.061159607 0.44351023
-0.071784198 0.061154518 0.44348705
-0.07137315 0.061138105 0.44338176
-0.070051603 0.061010774 0.44249889
-0.069640324 0.060992979 0.44238323
-0.069225073 0.060971484 0.44224069
-0.068785362 0.060928091 0.44193918
-0.068372391 0.06090802 0.44180676
-0.067915417 0.060848299 0.44138667
-0.067468606 0.060797036 0.44102779
-0.067073278 0.060791846 0.44100311
-0.066677347 0.060786042 0.44097388
-0.06624566 0.060747381 0.44070622
-0.065836996 0.060729519 0.44058937
-0.065433361 0.060716089 0.44050458
-0.065043062 0.060714949 0.44050893
-0.064626731 0.060689364 0.44033584
-0.064185522 0.060639963 0.43998981
-0.06380707 0.0606496 0.44007218
-0.063394822 0.060627043 0.43992078
-0.062987641 0.060609087 0.43980271
-0.062559582 0.060570695 0.43953624
-0.06217235 0.060571589 0.43955484
-0.061754223 0.060542215 0.43935367
-0.06135961 0.060535662 0.43931812
-0.060950618 0.060514759 0.43917823
-0.060567487 0.060519416 0.43922389
-0.060138013 0.06047754 0.43893167
-0.059720565 0.060447302 0.4387238
-0.059335038 0.060449172 0.43874899
-0.058931407 0.060432516 0.43863955
-0.058531679 0.060419664 0.43855771
-0.058176186 0.060452599 0.43880817
-0.057797648 0.060461883 0.43888682
-0.057447944 0.06050165 0.43918675
-0.051242586 0.060045283 0.4360325
-0.050881006 0.060072701 0.4362416
-0.050494935 0.060071412 0.43624216
-0.050073929 0.060028214 0.4359383
-0.04966142 0.059994616 0.43570408
-0.049267568 0.059983209 0.43563092
-0.048876539 0.059975088 0.43558156
-0.048524503 0.060015067 0.43588147
-0.048145588 0.060022179 0.43594259
-0.099099882 0.062714137 0.45084724
-0.098700464 0.062714033 0.45086434
-0.098213941 0.062658377 0.45048192
-0.097822227 0.062662989 0.45053273
-0.097368382 0.062627688 0.45029655
-0.096942782 0.062610328 0.45018926
-0.096547656 0.062612593 0.45022306
-0.096103467 0.062582925 0.4500272
-0.095682591 0.062568262 0.44993916
-0.095229656 0.062532417 0.44969866
-0.094817623 0.062523246 0.44964999
-0.094342023 0.062471908 0.44929796
-0.093954876 0.062478956 0.44936582
-0.093512267 0.062449016 0.44916758
-0.093092695 0.062434278 0.44907859
-0.092647567 0.0624022 0.44886482
-0.092250548 0.062402386 0.44888309
-0.091835991 0.062390666 0.44881561
-0.091412432 0.062372699 0.44870317
-0.090961315 0.062335689 0.44845363
-0.090535067 0.062315475 0.44832489
-0.090103991 0.062291749 0.44817081
-0.089688659 0.06227874 0.44809374
-0.089260727 0.062256835 0.4479526
-0.088855244 0.06225045 0.44792315
-0.088390112 0.062202044 0.44759116
-0.087993376 0.062201541 0.44760385
-0.087545089 0.062164437 0.44735307
-0.087136403 0.062155236 0.44730306
-0.086721778 0.062141698 0.44722173
-0.086278737 0.062107593 0.44699231
-0.085854404 0.062086686 0.44685784
-0.08542338 0.062060732 0.44668698
-0.085022554 0.062056582 0.44667295
-0.084588401 0.062027954 0.44648269
-0.084182449 0.062019836 0.44643998
-0.083759122 0.061998781 0.44630408
-0.083336934 0.061978363 0.44617274
-0.08290267 0.061948743 0.44597498
-0.082482934 0.061929733 0.44585365
-0.082058117 0.061906714 0.4457033
-0.081633277 0.061883464 0.44555128
-0.081214502 0.0618646 0.4454307
-0.080806382 0.061853707 0.44536749
-0.080413267 0.061854254 0.44538659
-0.080004126 0.061842427 0.44531646
-0.079596855 0.061831925 0.44525588
-0.07919234 0.061823469 0.44520995
-0.078785636 0.061813217 0.44515103
-0.078383379 0.061806366 0.44511652
-0.077976197 0.061795551 0.44505337
-0.07757014 0.061785512 0.44499579
-0.077164188 0.061775453 0.44493797
-0.076755695 0.061763261 0.44486475
-0.076341599 0.061746407 0.44475782
-0.075927749 0.061729576 0.44465107
-0.075517684 0.061715666 0.44456521
-0.075097099 0.061692968 0.44441602
-0.074696191 0.061686281 0.44438204
-0.074272104 0.061660282 0.44420892
-0.073030524 0.061606489 0.44386345
-0.072587587 0.06156351 0.44356769
-0.072178699 0.061549097 0.44347766
-0.071766309 0.06153154 0.44336489
-0.071350791 0.061511073 0.44323114
-0.070931122 0.061486784 0.44306973
-0.070483007 0.06143745 0.44272771
-0.070060052 0.061409604 0.4425405
-0.069616057 0.061362907 0.44221738
-0.06920246 0.061342623 0.44208449
-0.068765059 0.061300896 0.44179699
-0.068363823 0.06129111 0.44173968
-0.067930005 0.061251834 0.4414697
-0.067530304 0.061243057 0.44141939
-0.067103676 0.061209604 0.44119123
-0.066696115 0.061193258 0.44108626
-0.066301987 0.061189104 0.44106919
-0.065876849 0.061156135 0.44084424
-0.065494962 0.061163157 0.44090757
-0.065060996 0.061121333 0.44061866
-0.064663284 0.061113276 0.44057307
-0.064220659 0.061062422 0.44021887
-0.063840516 0.06107071 0.44029102
-0.063426591 0.061046597 0.44012946
-0.063012026 0.061021551 0.43996117
-0.062603608 0.061002206 0.43983379
-0.06220182 0.0609891 0.43975142
-0.06180767 0.060983375 0.43972215
-0.061381634 0.060945924 0.43946403
-0.060993623 0.06094598 0.43947628
-0.060559284 0.060899463 0.43915266
-0.060155183 0.060882937 0.43904519
-0.059759047 0.060874321 0.43899468
-0.059347555 0.060849845 0.43882975
-0.058950193 0.060839631 0.43876758
-0.058565348 0.060842291 0.43879816
-0.058185883 0.060850609 0.43886954
-0.057804253 0.060856756 0.43892515
-0.057417367 0.060857419 0.43894115
-0.057069071 0.060899273 0.43925419
-0.051273957 0.06046753 0.43628764
-0.050901897 0.06048296 0.43640894
-0.050507002 0.060471278 0.43633455
-0.050124828 0.060474772 0.43636963
-0.049705207 0.060432788 0.43607643
-0.049313139 0.060423911 0.4360221
-0.048901521 0.060390756 0.43579242
-0.048522092 0.060397133 0.43584803
-0.098718762 0.063125506 0.45093662
-0.098300576 0.063113414 0.45086792
-0.097860865 0.063087344 0.45069933
-0.097429745 0.063066632 0.45056897
-0.097016536 0.063057378 0.45052043
-0.096594907 0.063042559 0.45043203
-0.09616103 0.063019589 0.45028538
-0.095712841 0.062987015 0.45006993
-0.095299833 0.062977411 0.45001867
-0.094856918 0.062947877 0.44982493
-0.094439805 0.0629353 0.44975221
-0.094001263 0.062908277 0.44957623
-0.093595579 0.062903099 0.44955629
-0.093139179 0.06286364 0.44929135
-0.092717692 0.062847517 0.44919312
-0.092269309 0.062812947 0.44896293
-0.091851726 0.062799141 0.448881
-0.091442198 0.062790737 0.44883779
-0.091040611 0.062787741 0.44883311
-0.090575859 0.062740974 0.44851542
-0.090172231 0.062736303 0.4484987
-0.089723498 0.062700085 0.44825628
-0.089308724 0.062687382 0.44818196
-0.088893689 0.062674381 0.44810539
-0.088443674 0.062636487 0.44785082
-0.08801382 0.062612601 0.4476963
-0.087580286 0.06258586 0.44752136
-0.087144017 0.062556922 0.44733059
-0.086773619 0.062575221 0.44747758
-0.086344786 0.062551357 0.44732291
-0.085893907 0.062511213 0.44705188
-0.085472733 0.062492426 0.44693345
-0.085046954 0.06247009 0.44678953
-0.084656522 0.062473636 0.44683066
-0.084229052 0.062449742 0.44667551
-0.083799757 0.062424269 0.44650897
-0.083378218 0.062404353 0.44638214
-0.082934991 0.062367946 0.44613722
-0.082501821 0.062338796 0.44594413
-0.082116634 0.062345784 0.44600952
-0.081683598 0.062316347 0.44581428
-0.081271127 0.062302381 0.44572961
-0.080833696 0.062269043 0.44550636
-0.080432169 0.062263194 0.44547963
-0.080005594 0.062237788 0.44531295
-0.079557143 0.062195037 0.44502208
-0.079190761 0.062216327 0.44518936
-0.078775764 0.062199466 0.44508356
-0.078377858 0.062195994 0.44507352
-0.077957265 0.062174384 0.44493362
-0.077576905 0.062184803 0.44502288
-0.077151716 0.062159218 0.44485441
-0.076726615 0.062133435 0.44468445
-0.076337546 0.062136732 0.4447225
-0.075918518 0.062115531 0.44458523
-0.075510748 0.062103394 0.44451267
-0.07509803 0.062087014 0.44440976
-0.074685439 0.062070578 0.44430634
-0.074267007 0.062049095 0.44416666
-0.073849842 0.06202843 0.44403288
-0.073427714 0.06200337 0.4438675
-0.073002361 0.061975304 0.4436805
-0.072598599 0.061965365 0.44362319
-0.072179995 0.061942577 0.44347385
-0.07173273 0.061894812 0.4431456
-0.071317539 0.061874349 0.44301271
-0.070908844 0.061859325 0.44291881
-0.070479728 0.061826222 0.44269529
-0.070045769 0.061788484 0.44243851
-0.069639884 0.061775222 0.44235691
-0.069224179 0.061753053 0.44221145
-0.068807729 0.06172996 0.44205937
-0.068386838 0.061702602 0.44187659
-0.067983836 0.061691158 0.44180772
-0.067560293 0.061660841 0.4416036
-0.067148693 0.061641127 0.44147536
-0.066722468 0.061607689 0.44124871
-0.066321358 0.061597183 0.44118628
-0.065914072 0.06158077 0.44108149
-0.065513074 0.061570082 0.4410176
-0.065103427 0.06155109 0.44089413
-0.064687848 0.061526243 0.44072863
-0.064251937 0.061481614 0.4404214
-0.063871145 0.061489519 0.44049042
-0.063447602 0.061456114 0.44026339
-0.063055456 0.061452892 0.44025254
-0.062640838 0.061427597 0.44008347
-0.062235661 0.061411295 0.43997875
-0.06182076 0.061385144 0.43980339
-0.061427169 0.061379954 0.43977818
-0.061011653 0.061352644 0.43959436
-0.060607731 0.061336726 0.43949211
-0.060189284 0.061305806 0.43928227
-0.059786972 0.061291024 0.43918794
-0.059382793 0.061274126 0.43907842
-0.05897047 0.061248548 0.43890664
-0.058581531 0.061247081 0.43890753
-0.058179259 0.061231565 0.43880767
-0.057809699 0.061250493 0.43895462
-0.057417575 0.061245613 0.43893084
-0.057034243 0.061250102 0.43897417
-0.056655224 0.061259322 0.43905133
-0.051694263 0.060894575 0.43656355
-0.051299263 0.060883064 0.4364911
-0.050925612 0.060896918 0.43660042
-0.050527792 0.060881849 0.43650231
-0.050129443 0.060865916 0.43639791
-0.04972801 0.060845967 0.4362646
-0.049350202 0.060854841 0.43633792
-0.048958205 0.060846206 0.43628567
-0.048609518 0.060891703 0.43662143
-0.098322079 0.06352707 0.45095515
-0.097889617 0.063505605 0.45082039
-0.097485431 0.063502371 0.45081502
-0.097066998 0.063489802 0.45074335
-0.096630797 0.063465454 0.45058796
-0.096223496 0.063459955 0.45056641
-0.095758043 0.063415915 0.45027107
-0.095329568 0.063396089 0.4501476
-0.094906196 0.063379511 0.45004711
-0.094486736 0.063365415 0.4499642
-0.094095394 0.063370131 0.45001486
-0.093645602 0.063335367 0.44978505
-0.093202695 0.063304976 0.44958627
-0.092769064 0.063280657 0.4494305
-0.092335992 0.063256502 0.44927585
-0.091891408 0.063224226 0.44906345
-0.091489956 0.063221477 0.44906068
-0.091040276 0.063185222 0.44881991
-0.090647846 0.063188568 0.44886032
-0.090200394 0.063153408 0.4486272
-0.089779004 0.063136287 0.44852203
-0.089373641 0.063130312 0.44849613
-0.088887513 0.063066997 0.44806269
-0.088520057 0.063087679 0.448226
-0.087173454 0.062974438 0.4474701
-0.086778469 0.062975109 0.44749093
-0.086378083 0.062971838 0.44748375
-0.085977033 0.06296806 0.4474729
-0.085490264 0.062901184 0.44701353
-0.08509592 0.062901989 0.4470351
-0.084670834 0.062879987 0.44689453
-0.084254079 0.062863991 0.44679654
-0.083829798 0.062842198 0.4466573
-0.083409652 0.062823318 0.44653872
-0.083005533 0.062816396 0.44650501
-0.082550749 0.062770873 0.44619685
-0.082159266 0.062773272 0.44622937
-0.081752673 0.062764101 0.44617951
-0.081301101 0.062720135 0.44588226
-0.080879644 0.062699102 0.44574788
-0.080441818 0.062665105 0.4455213
-0.080044061 0.062662147 0.44551533
-0.07960391 0.062625796 0.44527191
-0.079214379 0.062629111 0.44531038
-0.078799486 0.06261231 0.44520581
-0.078373402 0.062586404 0.44503641
-0.077952825 0.062564649 0.44489652
-0.077558927 0.062564202 0.44490799
-0.077138074 0.062541902 0.44476399
-0.076734073 0.062533088 0.44471586
-0.076305211 0.062503837 0.44452232
-0.075900994 0.062494572 0.44447079
-0.075497642 0.062485922 0.44442365
-0.075088665 0.062472507 0.44434249
-0.074650899 0.062434871 0.44408903
-0.074257113 0.062433816 0.44409564
-0.073824376 0.062399834 0.44386798
-0.073416375 0.062386494 0.4437871
-0.072994009 0.062360752 0.44361791
-0.072577573 0.06233982 0.44348288
-0.072169811 0.062326152 0.4433994
-0.071750544 0.062302344 0.44324377
-0.071327336 0.06227484 0.44306177
-0.070894375 0.06223847 0.44281656
-0.070480309 0.062218379 0.44268709
-0.070064597 0.06219659 0.44254553
-0.069649868 0.062175442 0.44240841
-0.069243111 0.062161226 0.44232053
-0.068841293 0.062151294 0.4422631
-0.068425484 0.06212854 0.44211435
-0.068006232 0.062102389 0.44194135
-0.067582175 0.062071521 0.44173467
-0.067181468 0.062061876 0.44167894
-0.066772044 0.062044006 0.44156468
-0.06634327 0.062007852 0.44132012
-0.065943725 0.061998744 0.44126806
-0.065535657 0.061981473 0.44115776
-0.065132812 0.06196896 0.44108126
-0.064727299 0.061953738 0.44098547
-0.064299837 0.061917201 0.44073784
-0.063890249 0.061897535 0.44061023
-0.063484892 0.061881755 0.44051018
-0.063061953 0.06184854 0.44028595
-0.062676109 0.06185152 0.4403193
-0.062257107 0.06182161 0.44011846
-0.061838303 0.061791524 0.43991625
-0.061448254 0.061789971 0.43991715
-0.061055202 0.061785359 0.43989617
-0.060630981 0.061748952 0.43964872
-0.060244709 0.061750971 0.43967479
-0.05982843 0.061722055 0.43948057
-0.059417062 0.061697863 0.43931988
-0.058981795 0.06164838 0.438979
-0.058620758 0.061676335 0.43918949
-0.058205307 0.061647031 0.43899214
-0.057818752 0.061648149 0.43901139
-0.057420384 0.061636604 0.43894038
-0.057033874 0.061637715 0.43895942
-0.056646135 0.061637502 0.43896893
-0.056260232 0.061639301 0.43899274
-0.055941477 0.061715197 0.43954426
-0.052257374 0.061489541 0.43803182
-0.051731125 0.061324023 0.43686286
-0.051321287 0.061295055 0.43666655
-0.050948318 0.061310008 0.43678308
-0.0505597 0.061306216 0.436766
-0.050152496 0.061279662 0.43658665
-0.049757399 0.061267611 0.4365105
-0.049385227 0.061283804 0.43663561
-0.049027696 0.06131858 0.43689299
-0.097946279 0.063942321 0.45106986
-0.097520813 0.063925274 0.45096719
-0.097100094 0.063911207 0.4508855
-0.096673638 0.063893236 0.45077619
-0.096263342 0.063885838 0.45074147
-0.09581618 0.063853815 0.45053285
-0.095407277 0.063847132 0.45050302
-0.094972797 0.063823201 0.45035139
-0.094522037 0.063788071 0.45012075
-0.094092108 0.063766778 0.44998762
-0.093672469 0.063752308 0.44990253
-0.093199983 0.063701585 0.4495616
-0.092791945 0.063694671 0.44952977
-0.092385523 0.063688807 0.44950524
-0.09194833 0.063661598 0.44933003
-0.09148968 0.063619211 0.44904765
-0.091125749 0.063642621 0.44922963
-0.090668045 0.063600466 0.44894871
-0.090234682 0.063575074 0.44878608
-0.089795344 0.063545242 0.44859198
-0.089395836 0.063543454 0.44859585
-0.089009009 0.063550703 0.44866341
-0.088624112 0.063559413 0.44874123
-0.088248946 0.063575193 0.44886899
-0.087851852 0.063575253 0.44888568
-0.086399093 0.063383624 0.44758087
-0.085988097 0.06337256 0.44751874
-0.085595518 0.063375033 0.44755211
-0.085152119 0.06333974 0.44731867
-0.084702723 0.063299611 0.44705105
-0.084292881 0.063288823 0.44699058
-0.083883651 0.063278385 0.44693249
-0.083455645 0.063253611 0.44677317
-0.08305072 0.063246198 0.44673631
-0.082605161 0.063207604 0.4464792
-0.082207508 0.063205495 0.44647965
-0.081750169 0.063157238 0.44615406
-0.081351332 0.063153937 0.44614598
-0.080928124 0.063131578 0.44600326
-0.080507785 0.063111253 0.44587481
-0.080081895 0.063086368 0.44571406
-0.079667911 0.063070655 0.44561803
-0.079250656 0.063052192 0.44550249
-0.078806534 0.063012056 0.44523379
-0.078407906 0.063008077 0.4452205
-0.077989191 0.062987834 0.44509217
-0.077584364 0.062978663 0.44504201
-0.077163152 0.062956035 0.44489673
-0.07675074 0.062940381 0.44480062
-0.076310627 0.062901735 0.44454199
-0.075919613 0.062903367 0.44456795
-0.075490132 0.062872991 0.44436759
-0.075091779 0.062868349 0.44434905
-0.074641623 0.062820062 0.44402194
-0.074241348 0.062813476 0.44398952
-0.073842116 0.062807702 0.44396275
-0.073420539 0.06278275 0.44380039
-0.072993353 0.062752731 0.44360206
-0.07257247 0.062727816 0.44343978
-0.072163709 0.062713176 0.44335005
-0.071766257 0.062708251 0.44332898
-0.07132829 0.062667675 0.44305575
-0.070932306 0.062663749 0.44304156
-0.070521936 0.062646993 0.44293663
-0.070094354 0.062614679 0.44272155
-0.069678329 0.062592395 0.4425773
-0.069263786 0.062571183 0.44244063
-0.068870731 0.062569253 0.44244021
-0.068451636 0.062543519 0.44227141
-0.06803856 0.062523007 0.44213948
-0.067628622 0.062505171 0.44202632
-0.067211196 0.062480163 0.4418624
-0.066791371 0.062452633 0.44168055
-0.06637264 0.062425796 0.44150355
-0.065982521 0.062425703 0.44151562
-0.06557136 0.062405597 0.44138607
-0.065154299 0.062379595 0.44121474
-0.064750172 0.062365755 0.44112936
-0.064325713 0.062332027 0.44090319
-0.063940763 0.062336415 0.44094661
-0.063523188 0.062308852 0.44076395
-0.063117191 0.062292382 0.44065964
-0.062714383 0.06227887 0.44057623
-0.062300324 0.062253945 0.44041196
-0.061878569 0.062220983 0.44019073
-0.061464813 0.062195685 0.44002372
-0.061072145 0.062191539 0.44000626
-0.060665287 0.062172808 0.4398855
-0.060266178 0.062161826 0.43981948
-0.059851695 0.062134735 0.43963945
-0.059434637 0.062104598 0.43943781
-0.059015635 0.062072035 0.43921885
-0.058633674 0.062078252 0.43927422
-0.058231749 0.062063269 0.4391796
-0.057816386 0.062033676 0.43898141
-0.057429582 0.062034525 0.43899864
-0.057032283 0.062023986 0.43893516
-0.056645036 0.062024299 0.43894839
-0.056259088 0.062026046 0.43897176
-0.055861767 0.062015206 0.43890592
-0.055484619 0.062026758 0.43899849
-0.055159546 0.062097091 0.4395071
-0.054738142 0.062059216 0.43924969
-0.053055603 0.061905779 0.43820566
-0.052648947 0.061882444 0.43805075
-0.05222759 0.061841354 0.43777013
-0.051781788 0.061770499 0.43727869
-0.05137708 0.061747961 0.4371292
-0.050960287 0.061710462 0.43687367
-0.050562948 0.061696108 0.436782
-0.05017332 0.061691031 0.43675593
-0.049817216 0.061727405 0.43702322
-0.097556151 0.064348429 0.45111901
-0.097149797 0.064343885 0.4511047
-0.096721597 0.064324781 0.45098826
-0.096290842 0.064303808 0.45085865
-0.095886596 0.064300448 0.45085239
-0.095437706 0.06426698 0.45063508
-0.095012531 0.064249277 0.45052817
-0.094548285 0.064204894 0.45023414
-0.094155975 0.0642092 0.45028144
-0.093695864 0.06416709 0.45000324
-0.093261085 0.064142056 0.44984469
-0.092860162 0.064140201 0.44984853
-0.092401944 0.064098567 0.44957349
-0.091991849 0.06409011 0.44953102
-0.091577627 0.064078689 0.44946766
-0.091166303 0.064069211 0.44941789
-0.090746008 0.064053312 0.449323
-0.090284742 0.064008228 0.44902334
-0.089845605 0.063978516 0.44883138
-0.086010493 0.063785568 0.44762346
-0.085606076 0.063779317 0.44759551
-0.085199066 0.063771054 0.4475534
-0.084745556 0.063727766 0.44726536
-0.084318832 0.063704297 0.44711635
-0.083912157 0.063695833 0.44707257
-0.083497405 0.063681118 0.44698489
-0.083091669 0.063673183 0.44694471
-0.082658671 0.063644178 0.44675654
-0.082236417 0.063623212 0.44662479
-0.081797473 0.063589059 0.44640034
-0.081378512 0.063570194 0.4462831
-0.080976956 0.063564815 0.44626057
-0.080557793 0.063545473 0.44613993
-0.080134831 0.063522942 0.44599682
-0.079692714 0.06348493 0.44574487
-0.079291195 0.063479044 0.44571847
-0.078877233 0.063463092 0.44562134
-0.078472331 0.063454293 0.44557437
-0.078002863 0.063392945 0.44515827
-0.077608675 0.06339246 0.44516957
-0.077199474 0.063379645 0.44509414
-0.07679154 0.063367747 0.44502512
-0.07636153 0.063337415 0.44482657
-0.075964868 0.063334569 0.44482097
-0.07552103 0.063292161 0.44453746
-0.075096019 0.063265175 0.44436213
-0.074685976 0.063250579 0.4442738
-0.07429029 0.063248053 0.44427016
-0.073896699 0.063247293 0.4442789
-0.07344535 0.06319683 0.4439384
-0.073041163 0.063186616 0.44388059
-0.072603144 0.063146867 0.4436152
-0.072205089 0.063141637 0.44359219
-0.071791239 0.063122466 0.44347128
-0.071368814 0.06309551 0.44329548
-0.070979722 0.063097872 0.4433257
-0.07052552 0.063042074 0.44294712
-0.070137382 0.063045032 0.44298133
-0.069723889 0.063025109 0.44285467
-0.069286644 0.062983364 0.44257465
-0.06888517 0.062973842 0.44252098
-0.068465926 0.062947877 0.44235164
-0.068073466 0.062946387 0.44235423
-0.067653164 0.062918991 0.44217473
-0.06726519 0.062921502 0.44220531
-0.066821404 0.062871546 0.44186708
-0.066414341 0.062855758 0.44176888
-0.066001438 0.062834211 0.44163015
-0.06559331 0.062816978 0.44152173
-0.065192029 0.062806159 0.44145826
-0.064781778 0.062786497 0.44133255
-0.064355783 0.062751263 0.44109729
-0.063962057 0.06274724 0.4410814
-0.063533984 0.062709279 0.4408268
-0.063154511 0.062719114 0.44090813
-0.062738463 0.062692508 0.44073328
-0.062332276 0.062675506 0.44062576
-0.061913341 0.062645383 0.44042599
-0.061508194 0.062628917 0.44032219
-0.061107893 0.062617205 0.44025171
-0.060705185 0.06260287 0.44016266
-0.060295608 0.062581219 0.44002217
-0.059888575 0.062561944 0.43989825
-0.05948041 0.062541232 0.43976417
-0.059046827 0.062493339 0.43943888
-0.058667704 0.062502839 0.43951711
-0.058243684 0.062464312 0.4392575
-0.05784874 0.06245666 0.43921497
-0.057458229 0.062453724 0.4392055
-0.057036106 0.062416151 0.43895242
-0.056643967 0.062411115 0.43892801
-0.05625505 0.06240958 0.43892819
-0.055865612 0.062407438 0.43892401
-0.055472624 0.062401276 0.43889147
-0.05508076 0.062396303 0.43886724
-0.054679401 0.062380422 0.43876624
-0.054286025 0.062373482 0.43872806
-0.053869359 0.062339507 0.43849957
-0.053459056 0.06231245 0.43831971
-0.053064365 0.062303327 0.43826589
-0.05264724 0.062267534 0.43802443
-0.052231789 0.062233213 0.43779323
-0.051783964 0.06215952 0.43728495
-0.051413357 0.062178113 0.43742579
-0.05099332 0.062136747 0.43714476
-0.05059151 0.06211713 0.43701667
-0.050198071 0.062107574 0.43695927
-0.049842574 0.062145181 0.43723363
-0.097167633 0.064755738 0.4511759
-0.096770599 0.064757422 0.45120507
-0.096340448 0.064736865 0.45107922
-0.095905386 0.064712815 0.45092908
-0.095493086 0.064704001 0.45088491
-0.095037319 0.064665526 0.45063403
-0.094597325 0.064637512 0.45045599
-0.094159693 0.064610869 0.45028746
-0.093776047 0.064621218 0.45037663
-0.093325071 0.06458506 0.45014161
-0.092888251 0.064558424 0.4499729
-0.092498973 0.064564735 0.45003381
-0.092017688 0.064506613 0.44964552
-0.091613211 0.064502075 0.44963056
-0.091171302 0.064471014 0.44943076
-0.090783872 0.064478368 0.44949871
-0.090372257 0.064468548 0.44944677
-0.090000458 0.064487167 0.44959313
-0.089657992 0.064527065 0.44988778
-0.084751219 0.064128198 0.44728336
-0.08437565 0.064143494 0.44740573
-0.083963901 0.064131305 0.44733635
-0.083534695 0.064105593 0.44717261
-0.083123788 0.064093761 0.44710556
-0.082720131 0.064087428 0.44707683
-0.08227884 0.064051732 0.44684324
-0.081830487 0.064010181 0.44656861
-0.081418753 0.063996993 0.44649193
-0.081000887 0.063978843 0.44638044
-0.080581017 0.063958928 0.44625661
-0.080171242 0.063946865 0.4461875
-0.079735771 0.063914083 0.44597375
-0.079343282 0.063915618 0.44599935
-0.078916371 0.06388928 0.44583046
-0.078481354 0.063856088 0.44561365
-0.078062095 0.06383545 0.44548434
-0.077647142 0.063818142 0.44537821
-0.077241965 0.063808732 0.44532716
-0.076813512 0.063779905 0.44514048
-0.076403096 0.063765831 0.44505671
-0.075990394 0.063749701 0.44495851
-0.075596981 0.063749664 0.44497252
-0.07514286 0.063698165 0.44462731
-0.074711427 0.063665457 0.44441321
-0.074307695 0.063656129 0.44436222
-0.073918015 0.063658819 0.44439498
-0.073494688 0.063632391 0.44422454
-0.073061392 0.063597016 0.44399148
-0.07264179 0.063573234 0.44383928
-0.072227105 0.063553527 0.44371545
-0.071815021 0.063535899 0.44360608
-0.071433872 0.063545607 0.4436875
-0.071005069 0.063512787 0.44347194
-0.070567302 0.063471556 0.44319746
-0.070184171 0.06347926 0.44326475
-0.069747426 0.063438311 0.44299209
-0.069327697 0.063412443 0.44282478
-0.068916269 0.063393921 0.44270861
-0.068511799 0.063381635 0.44263595
-0.068117604 0.063378766 0.44262901
-0.067701571 0.063355424 0.44247898
-0.067264624 0.063312128 0.44218954
-0.066850953 0.063290365 0.4420504
-0.066452228 0.063282572 0.44200876
-0.066048115 0.063269541 0.44193041
-0.065642506 0.0632549 0.44184083
-0.065224618 0.063228182 0.44166675
-0.064819947 0.063214041 0.44158047
-0.064396568 0.06318137 0.44136468
-0.063999355 0.063174129 0.44132647
-0.063578457 0.063143276 0.44112319
-0.063172966 0.063127443 0.44102481
-0.062755421 0.063099295 0.44084027
-0.062367823 0.06310109 0.44086489
-0.061950248 0.063072391 0.44067639
-0.061540835 0.063051693 0.44054371
-0.06113977 0.06303934 0.44046921
-0.06072754 0.063015245 0.44031262
-0.060320169 0.062995903 0.44018921
-0.059919681 0.062983565 0.44011459
-0.059502348 0.062953234 0.43991423
-0.059102222 0.062940836 0.43983901
-0.058677446 0.062901832 0.43957791
-0.05829237 0.06290517 0.43961251
-0.057886351 0.062885791 0.43948838
-0.057481002 0.062866889 0.43936744
-0.057047695 0.062816948 0.43902948
-0.056650274 0.062806092 0.43896469
-0.056255624 0.062798202 0.43892044
-0.055861458 0.062790737 0.43887919
-0.055469938 0.062786169 0.43885806
-0.055077873 0.062780909 0.43883207
-0.054682206 0.062771447 0.43877655
-0.05426937 0.062741995 0.43858129
-0.053850945 0.062705606 0.4383375
-0.053438876 0.062676162 0.43814206
-0.053051729 0.062675722 0.43814936
-0.052647848 0.062655367 0.43801734
-0.05224786 0.062639371 0.43791577
-0.051834192 0.062606625 0.43769693
-0.051424339 0.062578022 0.43750703
-0.051025812 0.062562883 0.43741113
-0.05063485 0.062556848 0.43737888
-0.050253306 0.062562451 0.43742791
-0.096362807 0.065151908 0.45117223
-0.09595564 0.065146722 0.45115364
-0.095520601 0.065122485 0.45100307
-0.095101103 0.065108679 0.45092472
-0.094659276 0.065079413 0.45073923
-0.0942389 0.065064713 0.45065448
-0.093805067 0.065040559 0.45050424
-0.093387045 0.0650272 0.45042872
-0.092957899 0.065005951 0.45029849
-0.092504144 0.06496723 0.45004714
-0.092086211 0.064953454 0.44996852
-0.091672547 0.064942583 0.44990996
-0.091273412 0.064941958 0.44992226
-0.090861574 0.064932227 0.44987157
-0.090458676 0.064928845 0.44986475
-0.090118863 0.064970918 0.45017275
-0.083966359 0.064529382 0.44733751
-0.083582394 0.064538464 0.44741598
-0.083168693 0.064524561 0.44733509
-0.082745068 0.064502791 0.44719961
-0.082318753 0.064478703 0.44704801
-0.081892356 0.064454317 0.44689423
-0.081452765 0.064419255 0.44666642
-0.081065878 0.064425752 0.44672659
-0.080614224 0.064380579 0.44642851
-0.080217317 0.064378902 0.44643188
-0.079773709 0.064339548 0.44617397
-0.079395369 0.064352691 0.44628006
-0.078965575 0.064324066 0.44609639
-0.078536652 0.064295858 0.44591555
-0.078120597 0.064277954 0.44580612
-0.07769157 0.064249143 0.44562098
-0.077290609 0.064243369 0.44559553
-0.076836854 0.064193435 0.44526365
-0.076468222 0.064214461 0.44542396
-0.076056786 0.064199567 0.44533509
-0.075584181 0.064132646 0.4448851
-0.075175285 0.064119339 0.44480708
-0.074754462 0.064095683 0.44465712
-0.074352458 0.064087972 0.44461778
-0.073946066 0.064076416 0.44455159
-0.073554941 0.064078003 0.44457659
-0.073117524 0.064039081 0.44432044
-0.072670907 0.063991629 0.44400507
-0.072260626 0.063975848 0.44390926
-0.071862414 0.06397061 0.4438867
-0.071443893 0.063947156 0.44373757
-0.071036033 0.063933045 0.44365317
-0.070609242 0.06390164 0.44344869
-0.070205107 0.063890494 0.44338483
-0.06980484 0.063882768 0.44334453
-0.069358572 0.063832618 0.44300979
-0.068963192 0.063829012 0.44299793
-0.068547346 0.063806295 0.44285345
-0.068133682 0.063785374 0.44272128
-0.067732558 0.063776009 0.4426693
-0.067312695 0.063748807 0.44249341
-0.066904649 0.063732527 0.44239324
-0.066488728 0.063708514 0.44223934
-0.066082619 0.063693672 0.44214907
-0.065665178 0.063667677 0.4419812
-0.065268375 0.063661501 0.44195089
-0.064855851 0.06363982 0.4418129
-0.064424276 0.063599065 0.44154239
-0.064033471 0.06359832 0.44154954
-0.063606948 0.063561849 0.44130865
-0.0631999 0.063544534 0.44120061
-0.062784091 0.063518137 0.44102949
-0.062392592 0.063516162 0.44102776
-0.061993401 0.063506275 0.44097117
-0.061568432 0.063469693 0.44072902
-0.06116337 0.063453294 0.44062701
-0.06075649 0.063434795 0.44051027
-0.060357913 0.063424781 0.44045246
-0.059950091 0.063404851 0.44032571
-0.059530903 0.063372567 0.4401131
-0.059112988 0.06334123 0.4399069
-0.058728587 0.063345626 0.43994883
-0.058323458 0.063327566 0.43983474
-0.057931613 0.063323788 0.43981975
-0.05751707 0.063294992 0.43963093
-0.057083238 0.063244425 0.43929076
-0.0566747 0.06322138 0.43914178
-0.056270652 0.063203067 0.43902552
-0.055881973 0.063201882 0.43902814
-0.055474192 0.063178927 0.43887949
-0.055078842 0.063169904 0.43882754
-0.054689214 0.063167356 0.43882054
-0.054269586 0.063129887 0.4385708
-0.053865559 0.063110143 0.4384442
-0.053465359 0.063094653 0.43834695
-0.05307154 0.06308651 0.43830076
-0.052675784 0.06307593 0.43823752
-0.052272409 0.063056007 0.43810925
-0.051865574 0.063031577 0.43794969
-0.05146239 0.063011244 0.4378185
-0.051040407 0.062967435 0.43752405
-0.050650142 0.062962361 0.43749872
-0.050298855 0.063006043 0.43781209
-0.095987953 0.065568775 0.45129374
-0.095551096 0.065543234 0.45113522
-0.095132835 0.065530285 0.45106336
-0.094720334 0.065521225 0.45101812
-0.094318509 0.065519504 0.45102334
-0.093848564 0.065470234 0.45070127
-0.093431644 0.065457702 0.45063195
-0.09298683 0.065425433 0.45042676
-0.09256684 0.06541042 0.4503403
-0.092107989 0.065367714 0.45006305
-0.091704905 0.065364391 0.45005685
-0.091291964 0.06535396 0.45000181
-0.090923168 0.065375194 0.45016462
-0.090551198 0.065394327 0.45031297
-0.090180367 0.065414444 0.45046803
-0.083994761 0.064947546 0.44747674
-0.083610013 0.064956173 0.44755176
-0.083216541 0.064958073 0.4475804
-0.082783394 0.064928889 0.44739467
-0.082338102 0.064889848 0.44714102
-0.081939071 0.064887047 0.44713706
-0.081524469 0.06487184 0.4470475
-0.081104584 0.064852275 0.44692779
-0.080684714 0.064832509 0.44680676
-0.080235481 0.064788848 0.44652089
-0.079832584 0.064782359 0.44649109
-0.079418197 0.064766429 0.44639623
-0.078993365 0.064741783 0.44624123
-0.078586459 0.064731658 0.44618621
-0.078132965 0.064682871 0.44586459
-0.07773228 0.064677514 0.44584236
-0.077313192 0.064656705 0.44571355
-0.076896168 0.064637445 0.44559523
-0.07648354 0.064621687 0.44550106
-0.076079428 0.064612992 0.44545549
-0.075646229 0.06457939 0.44523814
-0.075204387 0.064538009 0.44496709
-0.074774176 0.064506233 0.44476217
-0.074383721 0.064508602 0.44479257
-0.073973395 0.064493671 0.44470367
-0.073578618 0.064492211 0.44470754
-0.073139861 0.064451963 0.44444397
-0.072720274 0.064428285 0.44429448
-0.072300501 0.064404175 0.44414198
-0.071893588 0.064391322 0.44406706
-0.071457617 0.064352162 0.44381064
-0.071066827 0.064353488 0.44383329
-0.070642412 0.064324193 0.44364479
-0.070241563 0.064316168 0.4436028
-0.069827579 0.064295955 0.44347668
-0.069416009 0.064277738 0.44336441
-0.068999186 0.064254433 0.44321686
-0.068579659 0.064228341 0.44305
-0.068157017 0.064199008 0.44286069
-0.067749463 0.06418363 0.44276759
-0.067356504 0.064181976 0.44276911
-0.066949025 0.064166389 0.4426744
-0.066541508 0.064150587 0.4425782
-0.066093296 0.064095117 0.44220823
-0.065712355 0.064104632 0.44228649
-0.06530989 0.064093135 0.4422197
-0.064874418 0.064048901 0.44192708
-0.064465977 0.064031005 0.44181594
-0.064050809 0.06400615 0.4416568
-0.063655205 0.064000666 0.44163123
-0.063226826 0.06396196 0.44137633
-0.062829107 0.063953981 0.44133344
-0.06241373 0.063927822 0.44116491
-0.062005211 0.063908391 0.44104287
-0.061610997 0.063903563 0.44102144
-0.061206073 0.063887492 0.44092235
-0.060785152 0.063854411 0.44070584
-0.060399354 0.06385804 0.44074255
-0.059965625 0.063810714 0.44042751
-0.059549119 0.063781209 0.44023544
-0.059147608 0.063767485 0.4401522
-0.058750317 0.063758165 0.44009924
-0.058347341 0.063742511 0.4400025
-0.057957135 0.063740693 0.44000122
-0.05753994 0.063708968 0.43979341
-0.057107314 0.063659608 0.43946376
-0.056708634 0.063647665 0.43939236
-0.056286179 0.063608706 0.4391343
-0.055891622 0.063600935 0.43909159
-0.0554896 0.063584521 0.43898904
-0.055116393 0.063601129 0.43911442
-0.054711066 0.063580632 0.43898359
-0.054295763 0.06354817 0.43877003
-0.053892553 0.063529506 0.43865162
-0.053475257 0.063493833 0.43841577
-0.053074777 0.063477762 0.43831515
-0.052685834 0.063475356 0.43830881
-0.052286804 0.06346067 0.43821758
-0.051898211 0.063458525 0.43821296
-0.051480006 0.063419878 0.43795612
-0.051073883 0.063395634 0.43779865
-0.096030124 0.065997876 0.45148012
-0.095583841 0.065965801 0.45127794
-0.095166348 0.065953404 0.45121038
-0.094748087 0.065940365 0.45113835
-0.094338387 0.065933213 0.45110649
-0.093875743 0.06588883 0.45081985
-0.093480721 0.06589175 0.45085675
-0.09302368 0.065850772 0.45059332
-0.092635453 0.065858357 0.45066217
-0.092196114 0.065829538 0.45048168
-0.091765843 0.06580697 0.450344
-0.091343425 0.065789841 0.45024347
-0.09095636 0.065798141 0.45031697
-0.090596937 0.065826617 0.45052838
-0.090247765 0.065862805 0.45079264
-0.083983324 0.065334991 0.44740373
-0.083640866 0.065376684 0.44770479
-0.083236963 0.06537053 0.44767809
-0.08283484 0.065365717 0.4476606
-0.082381956 0.065320604 0.44736701
-0.081951886 0.065293238 0.44719487
-0.081538729 0.065279134 0.44711354
-0.08112973 0.065268256 0.44705421
-0.080715291 0.065252878 0.44696394
-0.080292881 0.065230854 0.44682813
-0.079864092 0.065203413 0.44665512
-0.07943482 0.065175317 0.44647753
-0.079015903 0.065155454 0.44635639
-0.078625239 0.065158822 0.44639421
-0.078188203 0.065123595 0.44616756
-0.077777125 0.065109745 0.4460873
-0.077337027 0.065071337 0.44583875
-0.076919548 0.065051675 0.44571847
-0.076513201 0.065041259 0.4456616
-0.076110214 0.065033607 0.44562358
-0.075699806 0.065019511 0.44554123
-0.075257584 0.064977787 0.44526961
-0.074838124 0.064955398 0.44513032
-0.074398033 0.064914756 0.44486591
-0.073992014 0.064903572 0.4448033
-0.073604412 0.064908534 0.44485119
-0.073184155 0.064884573 0.44470093
-0.072770283 0.064866036 0.44458774
-0.072369173 0.06485875 0.44455156
-0.071911149 0.064800099 0.44416326
-0.071525939 0.064806789 0.44422269
-0.071092471 0.064769566 0.44398108
-0.070654675 0.064727992 0.44370955
-0.070295863 0.064758688 0.4439334
-0.069857061 0.064715646 0.44365168
-0.069437057 0.064689621 0.44348657
-0.069017664 0.06466388 0.44332328
-0.068638377 0.064675629 0.44341695
-0.068201162 0.064632632 0.4431352
-0.067781746 0.064606093 0.44296625
-0.067379005 0.06459523 0.44290468
-0.066974707 0.064582743 0.44283187
-0.066555128 0.064555287 0.44265643
-0.066133216 0.064525232 0.44246301
-0.065741338 0.0645243 0.44246924
-0.065323666 0.064497888 0.44230068
-0.064919375 0.064484432 0.44222096
-0.064499542 0.064455301 0.44203356
-0.064083606 0.06442973 0.44187054
-0.063686661 0.064423069 0.44183713
-0.063269548 0.064395793 0.44166222
-0.062843688 0.06435921 0.44142345
-0.062453303 0.064358741 0.44143227
-0.062027667 0.064321704 0.44119021
-0.061628506 0.064311832 0.44113439
-0.061225776 0.064298071 0.44105193
-0.060820714 0.064281687 0.44095126
-0.060415611 0.064265043 0.44084883
-0.059989437 0.064225629 0.44059002
-0.059593368 0.064218141 0.44055021
-0.059205867 0.06421984 0.44057336
-0.058769226 0.064167917 0.44022852
-0.058364917 0.064150847 0.44012272
-0.057960082 0.064132959 0.4400112
-0.05755917 0.064119197 0.43992797
-0.057149917 0.064095892 0.43977919
-0.056746699 0.064079084 0.43967491
-0.056333233 0.064050406 0.43948904
-0.055924401 0.064026624 0.43933675
-0.055529162 0.06401819 0.43928966
-0.055144485 0.064021885 0.43932581
-0.054727063 0.063987359 0.43909952
-0.054327339 0.063973188 0.43901283
-0.05391207 0.063940376 0.4387981
-0.053520702 0.06393563 0.43877596
-0.053104542 0.063900992 0.43854859
-0.052724034 0.063909046 0.43861422
-0.05232165 0.063890532 0.43849728
-0.051917177 0.063869148 0.43836069
-0.051487856 0.063816659 0.43801045
-0.051103242 0.063819207 0.43803793
-0.050727118 0.063832477 0.4381389
-0.095218413 0.06638974 0.45144528
-0.094807394 0.066381857 0.4514088
-0.09437678 0.066360123 0.45127812
-0.0939615 0.06634903 0.45121974
-0.093546338 0.066337928 0.45116124
-0.093099028 0.066303842 0.4509463
-0.092658535 0.06627433 0.45076245
-0.092221826 0.066247284 0.45059532
-0.09179914 0.066230133 0.45049533
-0.091382116 0.066216916 0.45042217
-0.090985417 0.066218391 0.45044881
-0.090635471 0.06625405 0.45070791
-0.09030927 0.066307455 0.4510878
-0.083693057 0.065814272 0.44797194
-0.083289757 0.065808751 0.44794989
-0.082892738 0.065808155 0.44796124
-0.081981368 0.065712906 0.44734353
-0.081566893 0.065697782 0.44725582
-0.081151582 0.06568183 0.44716242
-0.08074785 0.065675139 0.44713196
-0.080335334 0.065661214 0.44705218
-0.079907149 0.06563428 0.44688374
-0.079482131 0.065609686 0.44673121
-0.0790473 0.065576717 0.44652152
-0.078666076 0.065588094 0.44661376
-0.078228876 0.065552697 0.44638741
-0.077819742 0.065540567 0.44631949
-0.077371955 0.065495603 0.44602787
-0.076974653 0.065493137 0.44602555
-0.076565869 0.065480821 0.44595608
-0.076163381 0.065473787 0.44592258
-0.075765416 0.065470591 0.4459151
-0.075280771 0.065392062 0.44539449
-0.074862495 0.065370664 0.44526294
-0.074458733 0.065361783 0.44521657
-0.074045949 0.065344855 0.44511524
-0.073647767 0.06534069 0.44510084
-0.073222771 0.065312579 0.44492319
-0.072802812 0.065288663 0.44477415
-0.072395734 0.065276116 0.44470242
-0.071951695 0.065229923 0.44440135
-0.071551681 0.065223344 0.44437018
-0.071142763 0.065208532 0.44428283
-0.070737988 0.065197386 0.44422036
-0.070294492 0.065150231 0.44391242
-0.069901481 0.06514959 0.44392142
-0.069478661 0.06512101 0.44373992
-0.069056213 0.065092444 0.44355848
-0.068650335 0.065079272 0.44348183
-0.068224587 0.065046996 0.443275
-0.067812219 0.065027185 0.44315293
-0.067424655 0.065031074 0.44319233
-0.066999182 0.064998224 0.4429813
-0.066590577 0.064981446 0.44287974
-0.066158816 0.064941742 0.44262183
-0.065762028 0.064936109 0.44259608
-0.065372139 0.064937264 0.44261646
-0.06494236 0.064898551 0.44236511
-0.064542487 0.064889453 0.44231549
-0.064121261 0.064858638 0.44211778
-0.063702837 0.064830296 0.44193688
-0.063289247 0.064806566 0.4417873
-0.062895134 0.064802594 0.44177237
-0.062479228 0.064776003 0.44160309
-0.0620781 0.06476447 0.44153646
-0.061667863 0.064743251 0.44140369
-0.061246008 0.06470947 0.44118521
-0.06083947 0.064691558 0.44107482
-0.060445976 0.064687364 0.44105792
-0.060030777 0.064659745 0.44088119
-0.059634041 0.06465178 0.44083843
-0.059203412 0.064606719 0.44054267
-0.058806676 0.0645983 0.44049662
-0.058398388 0.064576991 0.44036263
-0.057990566 0.064555921 0.44023019
-0.057586528 0.064538792 0.4401246
-0.057193335 0.064533688 0.44010085
-0.056766734 0.064490557 0.43981773
-0.056370299 0.064481325 0.43976575
-0.055950828 0.064445458 0.43953195
-0.055541608 0.064420953 0.43937567
-0.055170115 0.064440183 0.43951756
-0.054742504 0.064393677 0.43921098
-0.054355353 0.064394437 0.43922675
-0.053927477 0.064346619 0.43891105
-0.053529602 0.064334162 0.43883651
-0.05313316 0.064323254 0.43877247
-0.052741352 0.064317845 0.43874586
-0.052334916 0.064294383 0.43859598
-0.051929135 0.064271383 0.4384492
-0.051531151 0.064257763 0.43836632
-0.051160276 0.064277999 0.43851435
-0.094803721 0.066779472 0.45137927
-0.094406143 0.066780962 0.45140642
-0.09398821 0.066768013 0.45133594
-0.093571059 0.066755511 0.4512684
-0.093163431 0.066749714 0.45124614
-0.092690654 0.066696994 0.45090657
-0.092267804 0.06667991 0.45080787
-0.091842271 0.066660717 0.45069489
-0.091429226 0.066650473 0.45064229
-0.091002449 0.066630073 0.45052096
-0.090681858 0.066687599 0.45092648
-0.090311073 0.06670855 0.45108461
-0.083784617 0.066283502 0.44844982
-0.08332698 0.066235095 0.44813779
-0.082932025 0.06623628 0.44816127
-0.082503408 0.066210479 0.44800207
-0.080762379 0.066082992 0.44720012
-0.080377847 0.066092044 0.44727641
-0.079963788 0.066076793 0.44718817
-0.079506792 0.066025726 0.44685748
-0.079105631 0.06602075 0.44683865
-0.078694731 0.066007562 0.44676417
-0.078272566 0.065984748 0.44662443
-0.077837832 0.065951034 0.44641089
-0.077399522 0.065913953 0.44617441
-0.077002101 0.065911487 0.44617218
-0.076587811 0.065894477 0.44607151
-0.076185934 0.065888032 0.44604224
-0.075787738 0.065884709 0.44603404
-0.075354584 0.065850824 0.44581884
-0.074887976 0.065787181 0.44540209
-0.074458145 0.06575533 0.44520062
-0.074065223 0.065755934 0.44521868
-0.073673561 0.065757662 0.44524434
-0.073245399 0.065726645 0.44504824
-0.072854348 0.065728799 0.44507658
-0.072413132 0.065685451 0.44479683
-0.072003886 0.065670788 0.44471124
-0.071594864 0.065656178 0.44462594
-0.071161635 0.065619096 0.4443883
-0.070776351 0.065626048 0.44444883
-0.070323415 0.065569989 0.44408265
-0.069925517 0.065564923 0.44406161
-0.069501534 0.065535195 0.44387352
-0.069103107 0.065529369 0.44384724
-0.068694621 0.065513879 0.44375545
-0.06829077 0.065502673 0.44369256
-0.06787128 0.065476224 0.44352645
-0.067440905 0.065438919 0.44328666
-0.06703952 0.065429471 0.44323552
-0.066619016 0.065401159 0.44305646
-0.066233717 0.065407261 0.44311053
-0.065797061 0.065362416 0.4428193
-0.065356568 0.06531322 0.44249853
-0.064967126 0.06531474 0.44252133
-0.064572468 0.065311015 0.44250849
-0.064140171 0.065268934 0.44223571
-0.063744672 0.065264009 0.44221464
-0.063319556 0.065228529 0.44198638
-0.062906615 0.065205224 0.44184056
-0.062507771 0.06519632 0.44179231
-0.062104534 0.065182701 0.44171199
-0.061682101 0.065148644 0.44149309
-0.061283685 0.065139674 0.44144413
-0.060873412 0.065117911 0.44130841
-0.060471542 0.065104909 0.441232
-0.060069695 0.065091774 0.44115451
-0.059647042 0.065055765 0.44092199
-0.059271175 0.065070651 0.44103441
-0.058826648 0.065009855 0.44063371
-0.058430243 0.065001786 0.44059032
-0.058013834 0.064971216 0.44039431
-0.057626057 0.064972498 0.44041422
-0.057223752 0.064957306 0.44032237
-0.056784242 0.064899392 0.43994081
-0.056387052 0.064889394 0.43988395
-0.055993449 0.064883411 0.43985417
-0.055583347 0.064858086 0.43969333
-0.055193961 0.064856745 0.43969497
-0.054781005 0.064827502 0.43950737
-0.054370917 0.064801253 0.43933997
-0.05396504 0.064779676 0.43920422
-0.053558644 0.064757168 0.43906203
-0.053152654 0.064734831 0.43892089
-0.052760094 0.064728647 0.43888921
-0.052361812 0.064715296 0.43880886
-0.051954802 0.064690873 0.43865341
-0.094430789 0.067198701 0.45151219
-0.094009466 0.067183316 0.45142591
-0.093606196 0.06718076 0.4514257
-0.093208656 0.067182325 0.45145306
-0.092764087 0.067149848 0.45125169
-0.09228576 0.067092553 0.45088342
-0.091887169 0.067092985 0.45090306
-0.091475494 0.067083821 0.45085812
-0.091037944 0.067055523 0.45068455
-0.090705656 0.067104854 0.45103261
-0.090334013 0.067125365 0.45118701
-0.090001747 0.067175455 0.45154014
-0.083776787 0.066674493 0.44839561
