# .PCD v0.7 - Point Cloud Data file format
VERSION 0.7
FIELDS x y z
SIZE 4 4 4
TYPE F F F
COUNT 1 1 1
WIDTH 1345
HEIGHT 1
VIEWPOINT 0 0 0 1 0 0 0
POINTS 1345
DATA ascii
-0.095455535 0.077189095 0.42847875
-0.095070183 0.077184759 0.42847097
-0.094679855 0.07717634 0.42844048
-0.094220415 0.077111281 0.42809552
-0.093805425 0.077082239 0.42795041
-0.093395501 0.077057131 0.42782709
-0.093000151 0.077043884 0.42776963
-0.09255553 0.076989546 0.42748392
-0.092167817 0.076982304 0.42745966
-0.091794759 0.076987296 0.42750323
-0.091377243 0.076954879 0.42733908
-0.090920329 0.076888867 0.4269883
-0.09051834 0.076868966 0.4268935
-0.090113342 0.076846331 0.42678344
-0.089722306 0.076835439 0.42673865
-0.089312792 0.076808594 0.42660508
-0.088908419 0.076785944 0.42649481
-0.088488773 0.076749854 0.42630985
-0.088075042 0.076718621 0.42615172
-0.087674029 0.076698229 0.42605382
-0.087266207 0.076671682 0.42592168
-0.086871408 0.076656401 0.42585206
-0.086481631 0.076645434 0.42580634
-0.086073846 0.076618344 0.42567098
-0.08566799 0.076592751 0.42554387
-0.085262522 0.076567262 0.42541733
-0.084865808 0.076549463 0.42533338
-0.084446378 0.076510899 0.42513412
-0.084022202 0.0764677 0.42490888
-0.083620675 0.076444797 0.42479646
-0.083250143 0.076450154 0.42484102
-0.082826354 0.076406434 0.42461273
-0.082380891 0.076342233 0.42427057
-0.082039081 0.076373935 0.42446133
-0.081609808 0.076324135 0.42419913
-0.081209078 0.076300688 0.42408329
-0.08080899 0.076277636 0.42396957
-0.080414802 0.076259956 0.42388567
-0.080006994 0.076229133 0.4237287
-0.079604633 0.076203242 0.423599
-0.079210252 0.076184779 0.42351058
-0.078800179 0.076150976 0.42333683
-0.078389466 0.076116234 0.42315772
-0.078012571 0.07611414 0.42316014
-0.077598624 0.076075725 0.42296049
-0.077198952 0.076050982 0.42283678
-0.076795481 0.076022238 0.42269087
-0.076415449 0.076016538 0.42267296
-0.075980537 0.07595592 0.42234957
-0.075613864 0.075963244 0.42240396
-0.07518778 0.075910665 0.42212525
-0.074803218 0.075899705 0.42207778
-0.074413076 0.075882934 0.42199802
-0.074024171 0.075867265 0.42192429
-0.073615968 0.075831555 0.42173907
-0.073211551 0.075799398 0.42157352
-0.072818056 0.075778283 0.42146933
-0.072422005 0.075754277 0.42134899
-0.072034329 0.07573884 0.42127621
-0.071653277 0.075730227 0.4212414
-0.071229674 0.075676329 0.42095456
-0.070844077 0.075662449 0.42089033
-0.07043279 0.075620845 0.42067173
-0.070039578 0.075598314 0.42055917
-0.069651641 0.075581253 0.42047703
-0.069256209 0.075555831 0.42034829
-0.068885058 0.075556785 0.4203662
-0.068497516 0.075539649 0.42028347
-0.068073958 0.075482421 0.41997755
-0.067668058 0.075444236 0.41977751
-0.067280367 0.075426042 0.41968864
-0.066916652 0.075434677 0.41974902
-0.066527575 0.075414658 0.41964984
-0.06614437 0.075401112 0.41958669
-0.065736331 0.07535895 0.41936412
-0.065341376 0.075331382 0.4192228
-0.064946167 0.075303212 0.41907802
-0.064563364 0.07528919 0.41901189
-0.10879907 0.078422584 0.4326286
-0.10839235 0.078406282 0.43255636
-0.1079869 0.078390777 0.43248856
-0.10757329 0.078369223 0.43238726
-0.10718758 0.078367904 0.43239757
-0.10674205 0.078322694 0.43216571
-0.10636095 0.078324594 0.43219373
-0.10591236 0.078276634 0.43194658
-0.10547496 0.078236625 0.43174323
-0.10506495 0.078216724 0.43165076
-0.10467887 0.078214549 0.43165612
-0.10435497 0.078258999 0.43191874
-0.10402327 0.078297891 0.43215069
-0.1037134 0.078353561 0.43247527
-0.097587705 0.07775455 0.42940477
-0.097203262 0.077751726 0.42940569
-0.096788339 0.077724405 0.42927134
-0.095893241 0.077616319 0.42870712
-0.095508866 0.077612951 0.42870489
-0.095106781 0.077595115 0.42862269
-0.094728924 0.077596992 0.42864925
-0.094300844 0.077557571 0.42844769
-0.093885764 0.077528566 0.4283036
-0.093439482 0.077473454 0.42801523
-0.093009889 0.077431791 0.42780107
-0.092644602 0.07744354 0.42788199
-0.092250362 0.07743109 0.42782909
-0.091805995 0.077376299 0.42754221
-0.091392696 0.077347323 0.42739794
-0.091010198 0.077344298 0.42739704
-0.090580434 0.077300914 0.42717302
-0.090151504 0.077257864 0.42695078
-0.089739449 0.077228986 0.42680681
-0.08936692 0.077234022 0.42685023
-0.08894296 0.077194467 0.4266471
-0.088591211 0.077217504 0.42678991
-0.088137403 0.07715141 0.42644003
-0.087690778 0.077091068 0.4261218
-0.087324679 0.07710129 0.42619362
-0.086926006 0.077082723 0.42610624
-0.086510971 0.077049419 0.42593732
-0.086137272 0.077052802 0.42597118
-0.085694686 0.076994322 0.42566296
-0.085309304 0.076986946 0.42563725
-0.084910795 0.076967612 0.42554531
-0.0844706 0.076910138 0.42524248
-0.084077425 0.07689517 0.42517456
-0.083700098 0.076894626 0.42518634
-0.083267912 0.076843448 0.42491809
-0.082857847 0.076812312 0.42476061
-0.082478836 0.076809801 0.42476141
-0.08208596 0.076794297 0.42469031
-0.081644692 0.076733187 0.42436686
-0.081251711 0.076717094 0.42429233
-0.080845468 0.076688267 0.42414731
-0.080468245 0.076686837 0.42415375
-0.080066264 0.076661684 0.42402893
-0.07967785 0.076649345 0.42397493
-0.079235688 0.076584943 0.42363289
-0.078831747 0.076557055 0.4234927
-0.078451864 0.076552361 0.42348084
-0.078043759 0.076519959 0.42331561
-0.077625215 0.076476961 0.42309168
-0.077266529 0.076492809 0.42319325
-0.076830789 0.076432146 0.42287147
-0.076442964 0.076418795 0.42281136
-0.076016217 0.076366216 0.42253417
-0.075627446 0.076351456 0.42246616
-0.075229749 0.076327495 0.42234713
-0.074865371 0.076337263 0.42241472
-0.074452274 0.076297194 0.42220652
-0.074053071 0.07627105 0.42207518
-0.07366398 0.076255105 0.42200035
-0.073278427 0.076242685 0.42194489
-0.072848655 0.076183878 0.42163268
-0.072470427 0.076178662 0.42161697
-0.072056636 0.076135807 0.42139289
-0.071663089 0.076113999 0.42128524
-0.071275376 0.076098204 0.42121086
-0.07090985 0.076106064 0.42126724
-0.070498556 0.076064624 0.42105073
-0.070089377 0.076025024 0.42084432
-0.069687948 0.075993471 0.42068237
-0.06929525 0.075971134 0.42057142
-0.068924822 0.075973116 0.42059499
-0.06855391 0.075974576 0.42061567
-0.068141334 0.075929627 0.42037931
-0.067739516 0.075896248 0.42020693
-0.067333587 0.075857855 0.42000675
-0.066935517 0.075827956 0.41985348
-0.066544116 0.075805314 0.41974032
-0.066162214 0.075793289 0.41968596
-0.065787748 0.07578972 0.41967827
-0.06537272 0.075739093 0.41940996
-0.065023087 0.075764097 0.41956046
-0.10844077 0.078826092 0.43273678
-0.10806355 0.078831226 0.43278262
-0.1076133 0.078782938 0.43253514
-0.10722334 0.078778602 0.43252897
-0.10681412 0.078760043 0.43244457
-0.10636938 0.078715049 0.43221506
-0.10598058 0.078711279 0.43221182
-0.10555431 0.078679554 0.43205509
-0.10512811 0.078647658 0.43189728
-0.10471527 0.07862556 0.43179321
-0.10441754 0.078690037 0.43216467
-0.10405787 0.078708142 0.4322814
-0.10371071 0.078735888 0.43245098
-0.10336309 0.078763492 0.43261981
-0.097209677 0.078138299 0.42942083
-0.096817642 0.078129329 0.42938802
-0.096419767 0.078115575 0.42932886
-0.095990807 0.078076415 0.42913002
-0.095536239 0.078016035 0.42881444
-0.09512198 0.077988237 0.42867789
-0.094737552 0.077984743 0.42867497
-0.0943406 0.077970892 0.428615
-0.093963183 0.077973127 0.42864344
-0.093477421 0.077885114 0.42817566
-0.093074948 0.07786607 0.42808697
-0.092700288 0.077870235 0.4281258
-0.09229143 0.077845573 0.42800617
-0.091839261 0.077784039 0.42768371
-0.091468103 0.077790894 0.42773718
-0.091047354 0.077755444 0.42755806
-0.090625383 0.07771866 0.4273715
-0.090235613 0.077709287 0.42733565
-0.089820758 0.077678151 0.42718005
-0.089438573 0.077675126 0.42717895
-0.089000821 0.077623621 0.42691118
-0.088613145 0.077615514 0.42688209
-0.088180579 0.07756786 0.42663541
-0.08778587 0.07755325 0.42657039
-0.0873174 0.077473059 0.42614457
-0.086974598 0.077504165 0.42633089
-0.086546309 0.077459022 0.42609778
-0.086162128 0.077453129 0.4260805
-0.08574219 0.077414908 0.42588532
-0.085359618 0.077410251 0.42587465
-0.084937535 0.077369556 0.42566574
-0.084523655 0.077335984 0.42549601
-0.084149763 0.077338874 0.42552677
-0.083735503 0.077304527 0.42535257
-0.083316199 0.077265181 0.42515084
-0.082890645 0.077219673 0.42491513
-0.082506269 0.077212282 0.42488906
-0.08210212 0.077186219 0.42476022
-0.081695527 0.077157624 0.42461738
-0.081302591 0.077141725 0.4245443
-0.080891587 0.077108443 0.42437559
-0.080495864 0.077089496 0.42428565
-0.08009924 0.077069506 0.42418993
-0.079722613 0.077068642 0.4241994
-0.079266146 0.076990232 0.42378202
-0.078909583 0.077008583 0.42389709
-0.078505479 0.076980487 0.42375651
-0.078067712 0.076918945 0.42343175
-0.077665024 0.076891556 0.42329493
-0.07729619 0.076897569 0.4233419
-0.076885685 0.076861992 0.42315984
-0.076495104 0.076846071 0.42308596
-0.076095879 0.076821275 0.42296317
-0.075689219 0.076788686 0.42279738
-0.075272955 0.076745987 0.42257586
-0.074866593 0.076713003 0.42240778
-0.074494697 0.076715186 0.42243326
-0.074090712 0.076684192 0.42227596
-0.073722452 0.076690018 0.42232144
-0.073319539 0.076659694 0.42216772
-0.072918974 0.076631524 0.42202583
-0.072523512 0.076608457 0.42191195
-0.072111435 0.076567508 0.42169949
-0.071696587 0.076523162 0.42146832
-0.071343057 0.076544151 0.42159691
-0.070940435 0.076512419 0.42143509
-0.070541866 0.07648474 0.42129546
-0.070130832 0.07644318 0.42107934
-0.069737926 0.076421037 0.42097011
-0.06933824 0.076391205 0.42081845
-0.068945184 0.076368377 0.42070529
-0.068557449 0.07635124 0.42062345
-0.068165414 0.076329097 0.42051396
-0.06777101 0.076304048 0.42038834
-0.067349873 0.076248452 0.42009443
-0.066986732 0.076258272 0.4201608
-0.066596545 0.076237231 0.42005709
-0.066196665 0.076204792 0.41989052
-0.06583374 0.076214775 0.41995767
-0.065418892 0.076164432 0.41969225
-0.065003298 0.076112635 0.41941881
-0.10803638 0.079196118 0.43266091
-0.10766339 0.079204366 0.43272358
-0.10725231 0.07918454 0.43263283
-0.1068198 0.079148702 0.43245459
-0.10645867 0.079165697 0.43256488
-0.10604738 0.079145372 0.43247128
-0.10562467 0.07911633 0.43233004
-0.10518888 0.079077266 0.43213388
-0.10473798 0.079026505 0.43187383
-0.10441991 0.079075955 0.43216142
-0.10406958 0.079101257 0.43231693
-0.10370409 0.07911519 0.4324103
-0.10333982 0.07913015 0.43250927
-0.10295785 0.079131626 0.43253446
-0.10257384 0.079131529 0.43255109
-0.097239226 0.078543611 0.42953807
-0.096852347 0.078538872 0.42952865
-0.096447378 0.078519382 0.42943844
-0.096054018 0.078509219 0.42939925
-0.095582001 0.07843443 0.42900652
-0.095175751 0.078413241 0.42890683
-0.094775662 0.078396976 0.42883408
-0.094381019 0.078385085 0.4287852
-0.093963332 0.078353897 0.42863071
-0.093562841 0.07833685 0.42855355
-0.093145825 0.078305781 0.42839956
-0.092721127 0.078267962 0.42820865
-0.092337117 0.078264318 0.42820466
-0.091930836 0.078241698 0.42809671
-0.091503985 0.078201301 0.42789152
-0.091095462 0.078176305 0.42777047
-0.090667479 0.078134328 0.42755651
-0.090277001 0.078124456 0.42751816
-0.089866906 0.078097455 0.42738599
-0.089412607 0.078031644 0.42704141
-0.089050837 0.078046381 0.42713752
-0.088636808 0.078015238 0.42698252
-0.088241778 0.07800062 0.42691791
-0.087817736 0.077960119 0.42671159
-0.087382987 0.077909738 0.42645109
-0.087014787 0.077918492 0.42651424
-0.086564064 0.077853121 0.42617157
-0.086201236 0.077866562 0.42626029
-0.085801609 0.077846736 0.4261668
-0.085368253 0.077796005 0.42590412
-0.084973201 0.077779889 0.42583081
-0.084568813 0.077755041 0.42570969
-0.084151439 0.077717967 0.42552155
-0.083765097 0.077709369 0.42548922
-0.083327383 0.077652812 0.42519426
-0.082959145 0.077660769 0.42525253
-0.082544267 0.077624947 0.425071
-0.08212816 0.077587634 0.42488125
-0.081751645 0.077587552 0.42489535
-0.081352338 0.077565745 0.42479038
-0.080928333 0.077520072 0.42455462
-0.080522209 0.077491179 0.42441073
-0.080115847 0.077461801 0.42426407
-0.079732999 0.077454969 0.42424095
-0.079333335 0.077431671 0.42412743
-0.078927353 0.077401951 0.42397878
-0.078515418 0.077366091 0.42379639
-0.078141451 0.077367455 0.4238179
-0.077748679 0.077350155 0.42373702
-0.077311538 0.077288315 0.42341214
-0.07691332 0.077264979 0.42329812
-0.076542221 0.077268787 0.42333272
-0.076131411 0.077232353 0.42314681
-0.07572335 0.077198364 0.4229742
-0.07533291 0.077182069 0.42289856
-0.074946143 0.077169426 0.42284277
-0.074517667 0.077113472 0.42254966
-0.074121796 0.077090874 0.42243922
-0.073734179 0.077076681 0.42237476
-0.073332883 0.077047959 0.42223066
-0.072928227 0.077015407 0.42206547
-0.072555453 0.077016346 0.4220838
-0.072124392 0.076955117 0.42176133
-0.071709007 0.076910056 0.42152742
-0.071340628 0.076915212 0.42156863
-0.070945933 0.076891899 0.42145377
-0.070565157 0.076883517 0.42142063
-0.070158787 0.076847002 0.42123327
-0.069780566 0.076841086 0.42121357
-0.06938041 0.076810837 0.42106041
-0.068969734 0.07676854 0.42084116
-0.068590738 0.076761246 0.42081371
-0.068196565 0.076736785 0.42069212
-0.067798309 0.076707453 0.42054367
-0.067404777 0.076683156 0.42042288
-0.067012481 0.076660015 0.42030826
-0.066614896 0.076630533 0.42015883
-0.066231988 0.076617695 0.42010063
-0.065853894 0.076610312 0.42007223
-0.065516412 0.076650359 0.42030385
-0.065190695 0.076704711 0.42061388
-0.10730752 0.079610169 0.43284255
-0.10691986 0.079607695 0.43284664
-0.10647467 0.079562217 0.43261686
-0.10605366 0.079534546 0.43248382
-0.10563931 0.07951168 0.43237689
-0.1052692 0.079522081 0.43245077
-0.10482599 0.079477124 0.43222362
-0.10442828 0.079466462 0.43218291
-0.10408042 0.079493798 0.43234882
-0.1037077 0.079502285 0.43241218
-0.10334423 0.079517938 0.43251452
-0.10295915 0.079517037 0.43252674
-0.1025666 0.079510324 0.43250731
-0.10217471 0.07950408 0.43249041
-0.097281978 0.07895986 0.42971355
-0.096908376 0.078966066 0.42976376
-0.096513689 0.078955062 0.42972031
-0.096069455 0.078903288 0.42945486
-0.095676683 0.078893535 0.42941806
-0.095271319 0.078873277 0.42932406
-0.094823845 0.078817859 0.42903861
-0.09445177 0.078824922 0.42909321
-0.094010428 0.078773998 0.42883208
-0.093588278 0.078738801 0.42865655
-0.093174823 0.078710668 0.4285194
-0.092767276 0.078687318 0.42840824
-0.092383593 0.078684106 0.42840663
-0.091944709 0.078633659 0.42814779
-0.091558024 0.078627601 0.42813066
-0.091140099 0.078594573 0.42796656
-0.090699561 0.078541681 0.42769423
-0.090312451 0.078534812 0.42767248
-0.089903794 0.078509063 0.42754784
-0.089464873 0.078456566 0.42727748
-0.089071132 0.078443408 0.42722124
-0.088697553 0.078447953 0.4272615
-0.088263206 0.078398585 0.42700797
-0.087885268 0.078399099 0.42702612
-0.087419227 0.078320697 0.42661431
-0.087078378 0.078354239 0.42681229
-0.086649813 0.078308821 0.42658004
-0.086254254 0.078292966 0.42650878
-0.085835367 0.078255691 0.42632079
-0.085412905 0.078214839 0.42611319
-0.084986374 0.07816986 0.42588311
-0.084575109 0.07813859 0.42572764
-0.084257014 0.078193501 0.42604169
-0.08378008 0.078100845 0.42555159
-0.083368465 0.07806851 0.42539012
-0.082955919 0.078035012 0.42522225
-0.082532518 0.077990949 0.42499676
-0.082118586 0.077955469 0.42481792
-0.081749201 0.077962145 0.42486882
-0.081371471 0.077960886 0.42487639
-0.080969393 0.077936187 0.4247562
-0.080558717 0.077902935 0.42458934
-0.080145895 0.077867307 0.42440939
-0.079764366 0.077861868 0.42439398
-0.079388887 0.077862322 0.42441058
-0.078963116 0.077813216 0.42415705
-0.078577936 0.077803835 0.42411992
-0.078175537 0.077777237 0.42398891
-0.077791132 0.077768371 0.42395449
-0.077394567 0.077747211 0.42385301
-0.076968677 0.077696219 0.42358887
-0.076584108 0.07768666 0.42355052
-0.076172687 0.077649638 0.42336231
-0.075758204 0.077609099 0.42315495
-0.075371355 0.07759662 0.42310047
-0.074965432 0.077564277 0.42293763
-0.07456664 0.077539034 0.42281342
-0.074182063 0.07752838 0.42276874
-0.073755287 0.077473305 0.42248172
-0.07336504 0.077456228 0.42240185
-0.072963797 0.077427298 0.42225733
-0.072563939 0.077399567 0.4221192
-0.072177492 0.077385917 0.42205787
-0.071794577 0.077375941 0.42201644
-0.071390025 0.077342406 0.42184654
-0.071003921 0.07732863 0.42178428
-0.070600502 0.077295728 0.42161769
-0.070195772 0.077261046 0.42144129
-0.06980817 0.077244945 0.42136616
-0.069417804 0.077225603 0.42127332
-0.069010384 0.077186972 0.4210752
-0.068627551 0.077175573 0.42102551
-0.068236403 0.077154651 0.42092383
-0.067828111 0.077114001 0.42071447
-0.067425914 0.07707987 0.42054063
-0.067037933 0.077061713 0.42045382
-0.066649482 0.077042811 0.42036292
-0.066290215 0.077057615 0.42045584
-0.065919146 0.077058785 0.42047432
-0.065601811 0.07712315 0.42083761
-0.10690417 0.07998082 0.4327701
-0.10653409 0.079991467 0.43284523
-0.10611996 0.079969004 0.43274108
-0.10571577 0.079953901 0.43267673
-0.10529231 0.079924047 0.43253255
-0.1048512 0.079880551 0.43231446
-0.10445446 0.079870649 0.4322781
-0.10407386 0.079873063 0.43230841
-0.10371871 0.079895094 0.43244481
-0.10333335 0.079893947 0.43245572
-0.10296289 0.079904348 0.43252918
-0.1025735 0.079900078 0.43252313
-0.10217908 0.079891846 0.43249559
-0.10180225 0.079897359 0.43254244
-0.097934477 0.079561971 0.43087727
-0.097334169 0.079384148 0.42993069
-0.0969503 0.079382144 0.42993626
-0.096556768 0.079372175 0.42989868
-0.096143007 0.079345435 0.4297702
-0.09568879 0.079284966 0.42945895
-0.095308937 0.079285882 0.42948014
-0.094881274 0.079246864 0.42928496
-0.094473101 0.079223886 0.4291766
-0.094044767 0.079183742 0.42897522
-0.093629472 0.07915429 0.42883173
-0.09322077 0.079130195 0.4287172
-0.092802815 0.079098023 0.42855883
-0.092431083 0.079105139 0.42861328
-0.092024356 0.079082243 0.42850506
-0.091573752 0.079021312 0.42819065
-0.09116137 0.07899297 0.42805284
-0.090787046 0.078997523 0.42809317
-0.090355858 0.078952417 0.4278644
-0.089931019 0.078912497 0.42766365
-0.089522257 0.078886427 0.42753786
-0.089145377 0.078888334 0.42756373
-0.088718995 0.078846276 0.42735115
-0.088314526 0.07882341 0.42724258
-0.08791896 0.07880833 0.42717615
-0.087502196 0.078774035 0.4270055
-0.087087616 0.078741409 0.42684388
-0.086686462 0.078720696 0.42674676
-0.086306334 0.07871899 0.4267526
-0.085938223 0.078728259 0.42681792
-0.082134299 0.07834734 0.42488545
-0.081774935 0.078363724 0.42498875
-0.081371307 0.07833764 0.42486173
-0.080956817 0.078300819 0.42467639
-0.080607191 0.078326672 0.42483097
-0.080202743 0.078299262 0.42469653
-0.079792753 0.078266151 0.42453113
-0.07941065 0.078260213 0.42451307
-0.079011917 0.07823775 0.42440528
-0.078594208 0.078196183 0.42419386
-0.078192197 0.078169927 0.42406541
-0.077817678 0.078171022 0.42408523
-0.077418394 0.078147143 0.42396954
-0.077019185 0.078123093 0.42385286
-0.07660605 0.078084625 0.42365789
-0.076232016 0.078085825 0.4236781
-0.075800613 0.078027979 0.42337787
-0.075415663 0.078017622 0.42333522
-0.075005651 0.077981092 0.42315057
-0.074609853 0.077959068 0.42304447
-0.07420738 0.077929802 0.42289901
-0.073797926 0.07789287 0.42271194
-0.073427029 0.077896468 0.42274475
-0.073020905 0.077862538 0.4225738
-0.072602987 0.07781563 0.42233235
-0.072214879 0.077800341 0.42226246
-0.071809389 0.077766076 0.42208949
-0.071421742 0.077750877 0.42201993
-0.071013965 0.077713475 0.42182982
-0.070640974 0.077713966 0.42184532
-0.070228778 0.077671081 0.42162535
-0.069832616 0.0776456 0.4214997
-0.069446713 0.077631287 0.42143467
-0.069045417 0.077599533 0.42127487
-0.068663597 0.07758943 0.42123255
-0.068264887 0.077560037 0.42108542
-0.067871936 0.077536896 0.42097217
-0.067457318 0.077488624 0.42072245
-0.06707298 0.07747478 0.42065951
-0.066665128 0.077433474 0.42044744
-0.066339009 0.077487178 0.42075121
-0.06601993 0.077549741 0.42110303
-0.10655173 0.080389626 0.43290374
-0.10614545 0.080373041 0.43283188
-0.1057461 0.080361612 0.43278769
-0.10533825 0.080343612 0.43270808
-0.10491704 0.08031527 0.43257272
-0.10450785 0.080295935 0.43248585
-0.10408694 0.080267437 0.43234947
-0.10370515 0.080268987 0.43237507
-0.10332415 0.080271184 0.43240398
-0.10295115 0.080279626 0.4324666
-0.10255764 0.080272079 0.43244296
-0.10218894 0.080283955 0.432524
-0.10180475 0.080283724 0.4325397
-0.10146318 0.080317229 0.43273711
-0.10106651 0.080307201 0.43269998
-0.098438025 0.080043375 0.43137869
-0.097902469 0.079918623 0.43072292
-0.097397685 0.079818122 0.43019775
-0.097006984 0.079810701 0.43017414
-0.096605659 0.079794437 0.43010285
-0.096150056 0.079733029 0.4297882
-0.095784947 0.079746492 0.42987701
-0.095318943 0.079675704 0.42951173
-0.094937973 0.079675719 0.42952797
-0.094524704 0.079648525 0.42939746
-0.094099432 0.079610951 0.42921099
-0.093707822 0.079601683 0.42917705
-0.093251131 0.079536803 0.4288432
-0.092880115 0.079544775 0.42890212
-0.09244962 0.079501681 0.42868564
-0.092033781 0.07947088 0.42853537
-0.091641493 0.079460233 0.42849374
-0.091239616 0.079441153 0.4284066
-0.090851128 0.079433635 0.42838168
-0.090425059 0.079393037 0.4281784
-0.089999728 0.079352759 0.42797676
-0.089591369 0.079327166 0.42785424
-0.089176573 0.079295628 0.42769963
-0.088771991 0.079272948 0.42759269
-0.088370509 0.079252847 0.42749962
-0.087945104 0.079211034 0.42728943
-0.087549902 0.079196192 0.42722455
-0.087125748 0.079154901 0.427017
-0.086738773 0.079147168 0.42699048
-0.086341552 0.079129994 0.4269129
-0.085968003 0.079134457 0.42695203
-0.085561417 0.07910841 0.42682648
-0.085194908 0.079119354 0.42690048
-0.084886864 0.079184934 0.42726922
-0.084549598 0.07922373 0.42749339
-0.079831272 0.078680687 0.42472214
-0.079428688 0.07865461 0.42459553
-0.079047889 0.078649968 0.42458454
-0.078648224 0.078626409 0.42447141
-0.078211516 0.078565434 0.42415616
-0.077838212 0.078567855 0.42418313
-0.07742741 0.078532279 0.42400488
-0.077047639 0.07852798 0.42399547
-0.076614499 0.078468971 0.42369062
-0.076272286 0.078502968 0.42388785
-0.075866863 0.078471929 0.42373386
-0.075456917 0.078435875 0.42355272
-0.075023867 0.078375325 0.42323926
-0.074636757 0.078362405 0.42318293
-0.074246086 0.078345604 0.42310557
-0.073861144 0.078334704 0.42306
-0.07342995 0.078274377 0.42274743
-0.073051512 0.078269973 0.42273685
-0.07265117 0.078241929 0.42259851
-0.072270043 0.078234397 0.42257088
-0.071851835 0.078186437 0.42232487
-0.07145033 0.07815624 0.42217472
-0.071062975 0.078141294 0.42210683
-0.070681468 0.078132652 0.42207301
-0.070268527 0.078088976 0.42184982
-0.069894776 0.078088641 0.42186072
-0.069483705 0.078046374 0.42164499
-0.069087945 0.07802093 0.42152014
-0.068701349 0.078005627 0.42144999
-0.068309166 0.077983782 0.4213444
-0.067909375 0.077952951 0.42119023
-0.06750644 0.077918164 0.42101458
-0.067126684 0.077909902 0.42098221
-0.066774368 0.077933557 0.42112222
-0.066387683 0.077917129 0.42104566
-0.06605158 0.077960245 0.4212907
-0.1061856 0.080788426 0.43298241
-0.10576013 0.080757104 0.43283188
-0.10534553 0.080733895 0.4327248
-0.1049682 0.080739163 0.43277034
-0.10454743 0.080710962 0.43263635
-0.10415397 0.080703698 0.43261462
-0.10370627 0.080654196 0.43236643
-0.10332635 0.080657251 0.43239987
-0.10294551 0.080659583 0.43242949
-0.10257129 0.08066716 0.43248713
-0.10219072 0.080669776 0.43251815
-0.1017956 0.08066088 0.43248743
-0.10141313 0.08066199 0.43251026
-0.10100964 0.080646306 0.43244305
-0.10068923 0.080697112 0.43273231
-0.099373892 0.080564767 0.43207279
-0.098936357 0.080520697 0.43185312
-0.09842103 0.080412753 0.43129072
-0.097870544 0.080275103 0.43056896
-0.097513981 0.080296084 0.43069795
-0.097046509 0.08022552 0.43033588
-0.096649006 0.080212489 0.43028232
-0.096246675 0.080195315 0.43020651
-0.095822334 0.080159597 0.43003121
-0.095412642 0.080135904 0.42992032
-0.09495604 0.080072463 0.4295961
-0.094554946 0.080055498 0.42952123
-0.094169483 0.08005169 0.42951688
-0.093737528 0.080008171 0.42929938
-0.093333729 0.079988427 0.42920941
-0.092907093 0.079948872 0.42901313
-0.092533492 0.079954818 0.42906085
-0.092114948 0.079921812 0.42889959
-0.091712192 0.079902299 0.42881057
-0.091253281 0.079833493 0.42845705
-0.090853184 0.079815783 0.42837766
-0.090457082 0.079801448 0.42831632
-0.090088941 0.079811752 0.42838719
-0.089644238 0.079754047 0.42809296
-0.089238189 0.079730369 0.42798135
-0.088839173 0.079712816 0.42790252
-0.088443197 0.07969784 0.42783749
-0.088021301 0.079659276 0.4276458
-0.087565437 0.079589523 0.42728654
-0.087188765 0.079591438 0.42731205
-0.086765103 0.079550304 0.42710629
-0.086399756 0.0795625 0.42718685
-0.085999474 0.079542488 0.42709446
-0.085618012 0.079539783 0.42709494
-0.085277826 0.079575576 0.42730206
-0.084933721 0.079608023 0.42749119
-0.079472147 0.079074487 0.42481381
-0.079075307 0.079053991 0.42471781
-0.078686371 0.079041235 0.42466328
-0.078265399 0.078996025 0.42443433
-0.077868789 0.078975081 0.42433572
-0.077458575 0.078940086 0.42416149
-0.077087924 0.078945249 0.42420307
-0.07668516 0.078917429 0.42406726
-0.076291397 0.078898646 0.42398
-0.075881593 0.07886301 0.42380208
-0.075486176 0.078842022 0.42370284
-0.075077645 0.078807086 0.42352855
-0.074678846 0.078782059 0.4234075
-0.07427825 0.078754865 0.42327473
-0.073877841 0.078727596 0.42314145
-0.073491774 0.078715414 0.42308927
-0.073083498 0.078679197 0.42290777
-0.072677419 0.078644998 0.42273706
-0.072286621 0.078627057 0.42265368
-0.071878657 0.078590155 0.42246836
-0.071515553 0.07860218 0.42254594
-0.0711108 0.078568317 0.42237675
-0.070703678 0.078531459 0.42219141
-0.070309803 0.078509003 0.42208347
-0.069918901 0.078489646 0.42199209
-0.069526657 0.078468576 0.42189142
-0.069137774 0.078451082 0.42180994
-0.068743587 0.078427345 0.42169484
-0.068349719 0.078403726 0.42158028
-0.067950636 0.078373834 0.42143196
-0.067530751 0.078319483 0.421152
-0.067169227 0.078332588 0.42123473
-0.066762209 0.078292482 0.42103124
-0.10536968 0.08113721 0.43281069
-0.1049795 0.08113265 0.43280366
-0.10460063 0.081136823 0.43284318
-0.10420188 0.081125572 0.43280029
-0.10375159 0.081073955 0.43254203
-0.10331514 0.081032813 0.43233964
-0.10293902 0.081038848 0.43238887
-0.10256292 0.08104495 0.43243843
-0.1021942 0.08105696 0.43251947
-0.10178767 0.081038944 0.43244031
-0.10139733 0.081033736 0.4324294
-0.10101546 0.081035286 0.4324545
-0.10060798 0.081016228 0.43236959
-0.10017833 0.080979094 0.43218821
-0.099753827 0.080945872 0.43202755
-0.09931805 0.08090318 0.4318164
-0.098855712 0.080838472 0.43148759
-0.098403729 0.080781728 0.43120134
-0.097901307 0.080683 0.43069077
-0.097518265 0.080682255 0.43070325
-0.09713906 0.080684699 0.4307327
-0.096704699 0.080641158 0.43051663
-0.096320339 0.080639139 0.43052214
-0.095874064 0.08058507 0.43024972
-0.095460914 0.080558516 0.43012413
-0.095040828 0.080525868 0.42996603
-0.094615012 0.080488093 0.42978042
-0.094197065 0.080456734 0.42962903
-0.093806773 0.080448821 0.4296028
-0.093370616 0.080401368 0.42936534
-0.092984907 0.080397151 0.42935869
-0.092550896 0.080350943 0.42912784
-0.092141084 0.080325462 0.42900753
-0.091744356 0.080311224 0.42894724
-0.091302514 0.080257207 0.42867443
-0.090936109 0.080269329 0.42875487
-0.090485431 0.080206856 0.42843673
-0.090081766 0.080185696 0.4283393
-0.089675963 0.080162466 0.42823064
-0.089278519 0.080146529 0.42816094
-0.088889368 0.080137931 0.42813042
-0.088485755 0.080116175 0.42802951
-0.088044368 0.080059871 0.427744
-0.087627128 0.080025136 0.42757371
-0.087197132 0.079978406 0.42733917
-0.086828806 0.079988085 0.42740598
-0.086434379 0.079973675 0.42734411
-0.086057469 0.079975449 0.42736858
-0.085688092 0.079984255 0.4274306
-0.085337549 0.080010794 0.42758736
-0.07912074 0.079476364 0.42494771
-0.078714468 0.079446264 0.42480081
-0.078339487 0.079447627 0.424822
-0.077930048 0.079413868 0.42465544
-0.077504523 0.079363339 0.42439902
-0.07709752 0.079331353 0.42424175
-0.076718673 0.079328179 0.42423847
-0.076298721 0.079282254 0.42400655
-0.07592313 0.079282194 0.42401984
-0.075527221 0.079260841 0.42391914
-0.075115651 0.079222731 0.42372879
-0.074724592 0.079205997 0.42365268
-0.07432247 0.079177283 0.42351252
-0.07392621 0.079154573 0.42340431
-0.073524773 0.07912606 0.42326504
-0.073124789 0.079098821 0.42313251
-0.072742045 0.079090051 0.42309871
-0.072295479 0.079011448 0.42269126
-0.071912594 0.079001985 0.42265359
-0.071527258 0.078989707 0.42260087
-0.071139082 0.07897415 0.42253047
-0.070736192 0.078942001 0.42237133
-0.070362374 0.078942135 0.4223848
-0.069945276 0.07889346 0.42213702
-0.069557339 0.078877337 0.42206335
-0.069147885 0.078836493 0.42185739
-0.068765491 0.078826219 0.42181492
-0.068392836 0.078827091 0.42183197
-0.067963243 0.07876195 0.42149583
-0.067618653 0.078795157 0.42168584
-0.067289367 0.078846663 0.42197379
-0.10460225 0.081522904 0.4328365
-0.10423706 0.08153785 0.432933
-0.10381252 0.081506304 0.43278265
-0.1033749 0.081464209 0.43257624
-0.10295241 0.081433795 0.4324317
-0.1025455 0.081415489 0.43235153
-0.1021595 0.081413731 0.43235913
-0.10179631 0.081430197 0.4324635
-0.10139959 0.08141987 0.43242547
-0.10100554 0.081411622 0.43239853
-0.10059097 0.0813867 0.43228295
-0.10018194 0.081366107 0.43219024
-0.099747479 0.0813246 0.43198648
-0.099348448 0.081311777 0.43193504
-0.098845258 0.081213281 0.43142837
-0.098440595 0.081195273 0.43134928
-0.097985409 0.081135303 0.43104714
-0.097541273 0.081084043 0.43079126
-0.097170457 0.081093572 0.43085828
-0.096736796 0.081050515 0.43064585
-0.096343473 0.081041053 0.43061191
-0.095907547 0.080995552 0.43038633
-0.095467098 0.080945827 0.43013832
-0.095110275 0.080966912 0.4302665
-0.094676256 0.080922171 0.43004486
-0.094279639 0.080909178 0.42999187
-0.093867093 0.080882363 0.42986533
-0.09342251 0.080827594 0.4295902
-0.093021013 0.080809817 0.42951164
-0.092616424 0.080789201 0.42941788
-0.092186272 0.080746017 0.42920414
-0.091783442 0.080726504 0.42911619
-0.091365673 0.080693632 0.42895713
-0.090957515 0.080669016 0.42884192
-0.090529628 0.080626622 0.42863214
-0.09014979 0.080626845 0.42864886
-0.089707986 0.08057142 0.4283697
-0.089311913 0.080556765 0.42830718
-0.088917784 0.080543756 0.42825338
-0.088504709 0.080513388 0.42810726
-0.088113651 0.080502875 0.42806664
-0.087662183 0.080436856 0.42773083
-0.087259963 0.080415644 0.42763317
-0.086875625 0.080410786 0.4276225
-0.086442158 0.080360219 0.42736861
-0.086077079 0.080373071 0.42745197
-0.085723318 0.080396645 0.42759231
-0.079145364 0.079878166 0.42506582
-0.07872247 0.079831198 0.42482987
-0.078345835 0.079830907 0.42484227
-0.077968359 0.079829767 0.42485005
-0.077566862 0.079803891 0.42472616
-0.077179469 0.079792343 0.42467847
-0.076745003 0.079731792 0.42436987
-0.076350719 0.079712577 0.42428127
-0.075963691 0.079700798 0.42423218
-0.075576998 0.079689257 0.42418426
-0.075181179 0.079667926 0.42408419
-0.07474722 0.079605766 0.42376673
-0.074349597 0.079581857 0.4236528
-0.073957846 0.07956405 0.42357126
-0.073576361 0.079557143 0.42354777
-0.073159426 0.079511642 0.42331865
-0.072768405 0.07949397 0.42323774
-0.072369024 0.079466961 0.42310697
-0.071957581 0.079426356 0.42290372
-0.071571708 0.07941369 0.42284918
-0.071173832 0.079387486 0.42272258
-0.070761636 0.079344973 0.42250898
-0.070389338 0.079346962 0.42253232
-0.069985308 0.079313025 0.42236429
-0.069575243 0.079271853 0.42215762
-0.06916903 0.079234645 0.42197204
-0.068803646 0.079244055 0.42203468
-0.068409428 0.079220191 0.42191997
-0.068012178 0.079192519 0.42178497
-0.067669041 0.079227902 0.42198575
-0.10385861 0.081927396 0.43296134
-0.10347005 0.081924088 0.4329609
-0.10299502 0.081852034 0.43259713
-0.10258959 0.081834979 0.43252394
-0.10218218 0.081816189 0.43244159
-0.10176603 0.081790254 0.43232134
-0.1013747 0.081784129 0.43230584
-0.10096899 0.081766315 0.43222845
-0.10056456 0.081749417 0.43215588
-0.10013783 0.081714183 0.43198633
-0.099746779 0.08170791 0.43196985
-0.099321857 0.081673726 0.43180576
-0.098893054 0.081636086 0.43162331
-0.098463878 0.081597842 0.43143761
-0.098012678 0.081540979 0.43115345
-0.097644798 0.081553251 0.43123478
-0.097191527 0.081494033 0.43093801
-0.096770778 0.081461713 0.43078342
-0.096382931 0.081456952 0.43077454
-0.095970385 0.081431195 0.43065456
-0.095549397 0.08139804 0.43049538
-0.095119558 0.081357047 0.43029475
-0.094743505 0.081361912 0.43033656
-0.094307736 0.081315339 0.43010625
-0.093871579 0.081268042 0.42987207
-0.093484744 0.081263237 0.42986259
-0.09306331 0.081228189 0.42969307
-0.092681266 0.081227392 0.4297047
-0.092220083 0.081156924 0.42934769
-0.091841601 0.081158958 0.42937422
-0.091416977 0.081120074 0.42918414
-0.091013744 0.08109992 0.42909318
-0.090601914 0.081071906 0.4289605
-0.090150714 0.08100827 0.42863935
-0.089743465 0.080983773 0.42852518
-0.08932285 0.080946952 0.42834574
-0.088975631 0.080976605 0.42851803
-0.088543743 0.08092913 0.42828214
-0.088151284 0.08091744 0.42823553
-0.087763079 0.080909565 0.4282091
-0.087294176 0.080826923 0.42778683
-0.086910591 0.080822892 0.42778057
-0.086512975 0.080805711 0.42770475
-0.086146735 0.080817819 0.42778382
-0.085760646 0.080811322 0.42776445
-0.085432962 0.080860071 0.42803732
-0.085075624 0.080881052 0.42816326
-0.079180434 0.080290809 0.42523995
-0.078798957 0.080285989 0.42522842
-0.078424662 0.08028847 0.42525551
-0.07798361 0.080222301 0.42491892
-0.077594563 0.080209248 0.42486361
-0.077201642 0.080192052 0.42478627
-0.07679712 0.080162577 0.42464381
-0.076431029 0.080173127 0.42471334
-0.075991087 0.080105923 0.42437094
-0.07560537 0.080095507 0.42432922
-0.075198725 0.080062695 0.42416888
-0.074813828 0.08005283 0.42413002
-0.074436873 0.080051415 0.42413586
-0.073995002 0.079979815 0.42376977
-0.073618002 0.079977959 0.42377317
-0.073188208 0.079918429 0.42347088
-0.072797403 0.079901084 0.42339212
-0.072405845 0.079882726 0.4233079
-0.072008051 0.07985726 0.42318591
-0.071619309 0.079841636 0.42311603
-0.071193412 0.0797842 0.42282453
-0.070800848 0.079763725 0.42272875
-0.070420913 0.079757318 0.42270753
-0.070017725 0.079724371 0.42254558
-0.069618493 0.07969559 0.42240566
-0.069218673 0.07966584 0.42226052
-0.068832077 0.079651058 0.42219466
-0.068441115 0.079631045 0.42210099
-0.068122983 0.079696 0.4224577
-0.10303942 0.082272038 0.43277007
-0.10260583 0.08223246 0.43257883
-0.10221029 0.082223192 0.43254697
-0.10181588 0.082214765 0.4325195
-0.10141084 0.082197651 0.43244633
-0.1010074 0.082181714 0.43237928
-0.10058335 0.082148835 0.43222299
-0.10018599 0.082137577 0.43218046
-0.099757895 0.082100935 0.4320043
-0.099352062 0.082082398 0.43192336
-0.098958895 0.082074232 0.43189698
-0.09851858 0.082026742 0.43166357
-0.098100834 0.08199776 0.43152747
-0.097641967 0.081934035 0.43120855
-0.097274922 0.081947163 0.43129399
-0.096834086 0.081897981 0.43105149
-0.096409775 0.08186245 0.43088073
-0.096002646 0.081841283 0.43078557
-0.095595479 0.081819914 0.43068925
-0.095184937 0.081795469 0.43057665
-0.094754927 0.081754036 0.43037462
-0.094378375 0.081758574 0.43041456
-0.093930021 0.081700698 0.43012583
-0.093563475 0.081713803 0.43021077
-0.093113177 0.081653558 0.42990947
-0.092708923 0.081633367 0.42981896
-0.092306875 0.081614964 0.42973787
-0.091901198 0.081593186 0.42963892
-0.091487616 0.081564181 0.42950183
-0.091022193 0.08148852 0.42911905
-0.090648152 0.081494376 0.42916545
-0.090238087 0.081467763 0.42904082
-0.089843653 0.081455104 0.42898959
-0.089395665 0.08139357 0.42868093
-0.088987015 0.08136747 0.42855886
-0.088607624 0.081368029 0.42857713
-0.088195823 0.081338689 0.42843786
-0.087813519 0.081336431 0.42844117
-0.087402962 0.081307866 0.42830586
-0.086955033 0.081244141 0.42798522
-0.08658281 0.081250891 0.42803586
-0.086176783 0.08122585 0.42791891
-0.085799918 0.081228197 0.42794624
-0.085463271 0.08126881 0.42817509
-0.085134454 0.081317246 0.42844516
-0.079248317 0.080737196 0.42559025
-0.078841642 0.080706902 0.42544448
-0.078446507 0.080688171 0.42535967
-0.078048483 0.080666274 0.42525813
-0.077651724 0.080645487 0.42516232
-0.077219114 0.080587074 0.42486814
-0.076838739 0.080582865 0.42485961
-0.076443382 0.080562845 0.42476767
-0.0760267 0.080520019 0.42455548
-0.075654782 0.080524437 0.42459226
-0.075232424 0.080474921 0.42434463
-0.074843124 0.080460459 0.42428178
-0.074436605 0.080427244 0.42411998
-0.074025191 0.080388382 0.42392829
-0.073679708 0.08042109 0.42411399
-0.073245771 0.080357082 0.42378959
-0.07285665 0.080341846 0.42372233
-0.072441958 0.080298088 0.42350459
-0.072031856 0.080259018 0.42331147
-0.071641162 0.080241255 0.42323068
-0.071251079 0.080224 0.42315257
-0.070842937 0.080186136 0.42296559
-0.070457086 0.080173224 0.42291021
-0.070050888 0.080136903 0.42273128
-0.069643565 0.080098875 0.42254335
-0.069258116 0.080085769 0.42248669
-0.06890633 0.080111623 0.42263559
-0.06850908 0.080084629 0.42250562
-0.10142541 0.082593895 0.43249482
-0.10103394 0.082587712 0.4324792
-0.10063338 0.082574025 0.43242422
-0.10022471 0.082553558 0.43233374
-0.099826105 0.08254125 0.4322859
-0.099407062 0.082511887 0.43214875
-0.098971382 0.082468443 0.43193772
-0.098584101 0.082465135 0.43193689
-0.098176844 0.082445033 0.43184805
-0.09770713 0.082372114 0.43148252
-0.097298793 0.082350567 0.43138602
-0.096893318 0.0823313 0.43130136
-0.09648557 0.082309924 0.43120566
-0.096063733 0.082276314 0.43104577
-0.095647849 0.082247555 0.4309113
-0.095223255 0.082211055 0.43073615
-0.094805717 0.082180366 0.43059143
-0.094418988 0.082176246 0.43058583
-0.093985394 0.08213114 0.43036547
-0.093597591 0.08212585 0.43035364
-0.093157239 0.08207421 0.43009895
-0.092777275 0.082075574 0.43012193
-0.092339411 0.082025521 0.42987534
-0.091878921 0.081954867 0.42952079
-0.091512889 0.08196824 0.42960647
-0.091101132 0.081940584 0.42947719
-0.090651549 0.081878543 0.42916754
-0.09029451 0.081899919 0.42929506
-0.089884117 0.081872873 0.42916876
-0.089490376 0.081860833 0.42912108
-0.089041702 0.081798218 0.42880818
-0.088623859 0.081763513 0.42864153
-0.088262461 0.081780814 0.4287475
-0.087844096 0.081745245 0.42857623
-0.087389156 0.081675194 0.42822409
-0.087001376 0.081667572 0.4281992
-0.086631976 0.081677206 0.4282648
-0.086214729 0.081641622 0.42809319
-0.085821331 0.081628419 0.42803884
-0.085451417 0.081637524 0.42810151
-0.085128404 0.08169172 0.42840052
-0.084800668 0.081741847 0.42867818
-0.079306908 0.081174754 0.42589062
-0.078880362 0.081124157 0.42563912
-0.078475721 0.081095695 0.42550376
-0.07808499 0.08108142 0.4254427
-0.077687003 0.081059441 0.42534113
-0.077295624 0.081044167 0.42527473
-0.076865546 0.08098796 0.42499349
-0.076466486 0.080964059 0.42488167
-0.076064445 0.080936737 0.42475185
-0.075687073 0.080935538 0.42475903
-0.075272322 0.08089415 0.42455527
-0.074867807 0.080863401 0.42440727
-0.074476957 0.080847174 0.42433545
-0.0740707 0.080813982 0.42417449
-0.07369826 0.080817521 0.42420629
-0.073253199 0.080741063 0.42381811
-0.072880626 0.080744125 0.42384726
-0.072494537 0.080732174 0.42379758
-0.072088383 0.080697641 0.42362922
-0.071702242 0.08068525 0.4235771
-0.071291193 0.080644563 0.42337635
-0.070894577 0.080619857 0.42325944
-0.07049755 0.080594435 0.42313865
-0.070108026 0.080577336 0.42306155
-0.069672637 0.080507077 0.42270526
-0.069283701 0.08049003 0.42262822
-0.068966739 0.080556847 0.42299157
-0.1006603 0.082980558 0.43252617
-0.10021464 0.08292947 0.43227655
-0.099851526 0.082946561 0.43238223
-0.09943898 0.08292257 0.43227375
-0.098981597 0.08286085 0.43196851
-0.098620608 0.082879648 0.43208304
-0.098159641 0.082814254 0.43175852
-0.097747192 0.082789451 0.4316456
-0.09738107 0.082803838 0.43173698
-0.096892036 0.082713418 0.43128178
-0.096531197 0.082732141 0.43139565
-0.096118584 0.082706466 0.43127799
-0.095719807 0.082692556 0.43122157
-0.095280163 0.082643077 0.43097964
-0.094860442 0.082610533 0.43082601
-0.094443694 0.08258035 0.4306846
-0.094031751 0.082554132 0.43056381
-0.093638666 0.082544319 0.43052852
-0.093227588 0.082518511 0.43040976
-0.092808224 0.082485117 0.43025139
-0.092367716 0.082432576 0.42999309
-0.091966264 0.082414612 0.42991507
-0.091573104 0.08240395 0.42987514
-0.091170415 0.082384601 0.42978975
-0.090735942 0.082336225 0.42955297
-0.090320244 0.082304575 0.42940333
-0.089936823 0.082302175 0.42940629
-0.089498915 0.082249701 0.42914787
-0.089073218 0.082208037 0.42894584
-0.088679664 0.082195818 0.42889735
-0.088281795 0.082179464 0.42882723
-0.087855279 0.082136199 0.42861664
-0.087485984 0.082146287 0.42868441
-0.087060951 0.082103893 0.42847827
-0.086638898 0.082063943 0.42828482
-0.086236447 0.082042314 0.42818686
-0.085826539 0.082013354 0.42805064
-0.085477166 0.082042232 0.42821625
-0.085118428 0.082062349 0.42833605
-0.084801599 0.082123227 0.42866865
-0.079276308 0.081521139 0.42571193
-0.078918628 0.0815413 0.4258312
-0.078556232 0.081556767 0.42592591
-0.078143999 0.081520401 0.42574978
-0.077735692 0.081487782 0.42559326
-0.077333272 0.081461057 0.4254674
-0.076925747 0.081428669 0.42531192
-0.076527536 0.081405863 0.42520642
-0.076119259 0.08137209 0.42504355
-0.075721405 0.081349157 0.42493725
-0.075314134 0.08131583 0.42477661
-0.074899435 0.081274115 0.42457208
-0.07450559 0.081254736 0.42448413
-0.074099541 0.081221774 0.42432517
-0.073722057 0.081219934 0.42432877
-0.073300175 0.081168927 0.42407539
-0.072906934 0.081149273 0.42398578
-0.072504237 0.081118822 0.42383972
-0.072118513 0.081107162 0.42379174
-0.071728677 0.081090719 0.42371875
-0.071330823 0.081064999 0.42359719
-0.070936814 0.081043392 0.42349705
-0.070549898 0.081029706 0.42343822
-0.070126183 0.080973379 0.42315656
-0.069757342 0.080980167 0.42320457
-0.10030963 0.08339265 0.43267244
-0.099893115 0.083365552 0.43254849
-0.099494696 0.083353415 0.43250206
-0.09905272 0.083304547 0.43226504
-0.098659158 0.083296172 0.43223804
-0.098252721 0.083276831 0.43215409
-0.097791396 0.083210625 0.43182689
-0.097429931 0.083229199 0.43193963
-0.097003907 0.083192565 0.43176576
-0.096582182 0.083159335 0.43160957
-0.096162662 0.083127744 0.43146178
-0.09573362 0.083087653 0.43126979
-0.095345899 0.083083227 0.43126297
-0.094898723 0.083026759 0.43098587
-0.09449181 0.083005205 0.43088996
-0.094129778 0.083023056 0.43099859
-0.093651034 0.082937695 0.43057135
-0.093266614 0.08293552 0.43057588
-0.092871897 0.08292412 0.43053249
-0.092413172 0.08285524 0.43019062
-0.092019737 0.082844585 0.43015096
-0.091581114 0.082792968 0.42989862
-0.091184542 0.082779109 0.4298422
-0.090795897 0.082772359 0.42982268
-0.090384789 0.082744986 0.42969605
-0.089994036 0.082736097 0.42966533
-0.089582108 0.082707584 0.42953262
-0.089099824 0.082613587 0.42905977
-0.088745661 0.082638085 0.42920229
-0.088305324 0.082582213 0.42892733
-0.08790531 0.082563743 0.42884657
-0.08754532 0.082582846 0.42896095
-0.087080702 0.082502991 0.42856121
-0.086653322 0.082457885 0.4283419
-0.086303279 0.082486287 0.42850441
-0.085896678 0.082460657 0.42838615
-0.08548934 0.082434081 0.42826298
-0.085103109 0.082427718 0.42824468
-0.084757976 0.082461283 0.42843381
-0.084423728 0.082505785 0.4286797
-0.084084459 0.08254575 0.42890209
-0.079355843 0.081981003 0.4261246
-0.078945905 0.081947416 0.42596397
-0.078563109 0.081941813 0.42594874
-0.078167491 0.081922717 0.4258633
-0.077765092 0.081896298 0.42573974
-0.077373855 0.081881441 0.4256762
-0.076966479 0.08184927 0.42552266
-0.076572046 0.081830621 0.42543927
-0.07617034 0.081803963 0.42531425
-0.075748548 0.08175537 0.42507511
-0.075374588 0.081758171 0.4251031
-0.074934855 0.081689298 0.42475837
-0.074565686 0.081697062 0.42481199
-0.074149705 0.081653327 0.42459786
-0.073752873 0.081630357 0.42449161
-0.07336653 0.081618831 0.42444476
-0.072942011 0.081564479 0.42417517
-0.072576262 0.081575632 0.42424619
-0.072135173 0.081501767 0.42387503
-0.07175222 0.081493177 0.42384323
-0.071368672 0.081483826 0.42380738
-0.070977464 0.08146555 0.42372513
-0.070570447 0.081428863 0.423547
-0.070251659 0.081494115 0.42389905
-0.099512592 0.083752871 0.43256599
-0.099087194 0.083717853 0.43240157
-0.098683067 0.083700582 0.43232888
-0.09831892 0.083717242 0.43243131
-0.097889267 0.083678022 0.43224511
-0.097431079 0.083614014 0.43193075
-0.097049437 0.083615445 0.43195447
-0.096643761 0.08359611 0.43187076
-0.096228197 0.083568014 0.43174183
-0.09579882 0.083527669 0.43154949
-0.095379166 0.083495498 0.43139938
-0.09496256 0.083465777 0.43126178
-0.094531812 0.083423302 0.43105835
-0.094138294 0.083413489 0.43102357
-0.093709335 0.083372056 0.43082532
-0.093297862 0.083345905 0.43070599
-0.092924438 0.083353676 0.43076196
-0.092502519 0.083317816 0.43059242
-0.092082016 0.083282962 0.43042791
-0.091650836 0.08323811 0.43021175
-0.091229819 0.083202161 0.43004149
-0.090832897 0.083187968 0.42998368
-0.090443715 0.083180778 0.42996201
-0.090019315 0.083140999 0.42977178
-0.089612 0.08311674 0.42966175
-0.089198783 0.083086751 0.4295221
-0.088752128 0.083025247 0.42921937
-0.088351369 0.08300633 0.42913678
-0.08796382 0.082999714 0.42911771
-0.087550379 0.082968488 0.42897144
-0.087145396 0.082945064 0.42886531
-0.086721927 0.08290375 0.42866671
-0.086322181 0.082884856 0.42858398
-0.085917592 0.082861133 0.42847615
-0.085515283 0.082839377 0.42837858
-0.085121714 0.082825959 0.42832395
-0.084739871 0.082823873 0.42832792
-0.084392883 0.082855999 0.42850873
-0.08404915 0.082891613 0.42870757
-0.083678931 0.082901321 0.42877239
-0.083328456 0.082930766 0.42893922
-0.079385169 0.082389526 0.42626759
-0.078981303 0.082362264 0.42614049
-0.078580663 0.08233811 0.42602941
-0.078208894 0.082344137 0.42607442
-0.077794917 0.082305551 0.42588851
-0.077398255 0.082285002 0.42579591
-0.077013843 0.08227735 0.42576993
-0.076617666 0.082256988 0.42567819
-0.076208808 0.082222745 0.42551449
-0.075799763 0.082187951 0.42534792
-0.075399436 0.082162313 0.42522866
-0.075000778 0.08213824 0.42511743
-0.074600689 0.082112372 0.42499682
-0.074244872 0.082135193 0.42512819
-0.073798381 0.082057431 0.42473888
-0.07338874 0.082020074 0.42455861
-0.072982363 0.081985988 0.42439523
-0.072585702 0.081962518 0.42428675
-0.072181366 0.081930093 0.42413184
-0.07176435 0.081882864 0.42390025
-0.071396507 0.081891552 0.42395797
-0.071001269 0.081868723 0.42385256
-0.07065133 0.081898175 0.42401776
-0.07031329 0.081941813 0.42425632
-0.098718598 0.084115081 0.43247056
-0.098336838 0.084116861 0.4324961
-0.09791597 0.08408507 0.432349
-0.097489841 0.084048502 0.43217725
-0.097079419 0.084025241 0.43207389
-0.096703656 0.08403191 0.43212435
-0.096274287 0.08399184 0.43193454
-0.095857166 0.083962202 0.43179822
-0.095443375 0.083935268 0.43167573
-0.09501107 0.083891749 0.43146795
-0.094589807 0.083857663 0.43130866
-0.094187111 0.083839841 0.43123287
-0.093799509 0.083835371 0.43122575
-0.093320914 0.08374919 0.43079829
-0.092947654 0.083757222 0.43085536
-0.092524529 0.083720215 0.43068069
-0.092137001 0.08371523 0.43067074
-0.091731511 0.083693832 0.43057626
-0.091355629 0.083699368 0.43062034
-0.090843908 0.08357998 0.43002158
-0.090454958 0.083573014 0.4300012
-0.090057291 0.083557889 0.42993882
-0.089648001 0.083531827 0.42982006
-0.089244634 0.083511077 0.4297286
-0.088853739 0.083501868 0.42969647
-0.088394836 0.083428398 0.42933357
-0.088021934 0.083435811 0.42938688
-0.087612659 0.083408654 0.42926222
-0.087192982 0.083371334 0.42908517
-0.086803757 0.083362915 0.42905685
-0.086350493 0.083292656 0.42871016
-0.08593569 0.083259039 0.42855203
-0.085548148 0.083251648 0.42852885
-0.085160181 0.083243787 0.42850313
-0.084739372 0.083203606 0.42831099
-0.084356621 0.083200589 0.42831019
-0.084012717 0.083236054 0.42850733
-0.083631724 0.083234906 0.42851603
-0.083299041 0.083282068 0.42877334
-0.082931243 0.083294377 0.42885122
-0.082538381 0.083281524 0.42879945
-0.080400981 0.083036654 0.4276098
-0.079936452 0.082947858 0.42716658
-0.07945019 0.08283554 0.42660218
-0.079080388 0.08284416 0.42666051
-0.07864286 0.082781576 0.42635205
-0.078234747 0.082749493 0.42620066
-0.077834323 0.082725279 0.4260897
-0.077431619 0.08269839 0.42596483
-0.077050552 0.082694463 0.42595831
-0.076652698 0.082672387 0.42585814
-0.076249354 0.08264415 0.42572623
-0.075845383 0.082614943 0.42558926
-0.075429566 0.082572483 0.42538393
-0.075025983 0.08254306 0.4252457
-0.07463073 0.082522541 0.42515329
-0.074221745 0.08248657 0.42498118
-0.07381089 0.082448117 0.42479625
-0.073435932 0.082449593 0.42481697
-0.073027812 0.082413658 0.42464483
