# .PCD v0.7 - Point Cloud Data file format
VERSION 0.7
FIELDS x y z
SIZE 4 4 4
TYPE F F F
COUNT 1 1 1
WIDTH 1336
HEIGHT 1
VIEWPOINT 0 0 0 1 0 0 0
POINTS 1336
DATA ascii
0.010087859 0.053741924 0.38337785
0.010431255 0.053769846 0.38357434
0.010764347 0.053744551 0.3833912
-0.047401626 0.056545407 0.4002898
-0.047052577 0.056550525 0.40033525
-0.046688307 0.056537297 0.40025073
-0.046339389 0.056542594 0.40029734
-0.045968588 0.056521073 0.40015399
-0.045617055 0.056523077 0.40017715
-0.045234565 0.056486476 0.39992687
-0.044865824 0.056466598 0.39979494
-0.044496786 0.056446023 0.39965799
-0.044126611 0.056423672 0.39950839
-0.043769654 0.056417994 0.3994768
-0.043410748 0.056409694 0.39942655
-0.043039508 0.056385111 0.39926091
-0.042666018 0.056357142 0.39907122
-0.042299632 0.056338169 0.39894518
-0.041932944 0.056318473 0.39881393
-0.041571394 0.056305401 0.39872953
-0.041221127 0.056307524 0.39875269
-0.040857468 0.05629123 0.39864531
-0.040488593 0.056267403 0.39848453
-0.040115651 0.056237463 0.39828035
-0.039762929 0.056235589 0.3982749
-0.039405737 0.056227311 0.398224
-0.039036255 0.056201179 0.39804664
-0.038676623 0.056188889 0.39796719
-0.038317673 0.05617737 0.39789313
-0.037952788 0.056156855 0.39775532
-0.037584219 0.056130461 0.39757574
-0.037230875 0.056126531 0.39755517
-0.036879744 0.056125887 0.39755785
-0.036512975 0.056101196 0.39739016
-0.036150925 0.056083363 0.39727095
-0.035770912 0.056037024 0.39694974
-0.035418138 0.056032877 0.3969273
-0.035055473 0.056012843 0.39679226
-0.034708735 0.05601811 0.39683637
-0.034346033 0.055997457 0.39669678
-0.033983905 0.055977318 0.39656082
-0.033648193 0.056000736 0.39673331
-0.033305909 0.056013588 0.39683086
-0.032962859 0.056025412 0.3969211
-0.0034648962 0.054615233 0.38720715
-0.0031235646 0.054614808 0.38720438
-0.0027820109 0.054609936 0.38717002
-0.0024408021 0.054611426 0.38718066
-0.0020984632 0.054584026 0.38698637
-0.00175717 0.054578461 0.38694689
-0.0014154383 0.054553345 0.38676867
-0.0010744105 0.054548051 0.38673094
-0.00073330296 0.054531932 0.38661635
-0.00039251294 0.054531999 0.38661653
-5.1714709e-05 0.054524727 0.38656452
0.00028884306 0.054489158 0.38631186
0.00062906207 0.054462712 0.38612378
0.00096922455 0.054451641 0.38604465
0.001309538 0.054452583 0.38605061
0.001649381 0.054437596 0.38594353
0.001988895 0.05441872 0.38580886
0.0023278866 0.054393139 0.38562658
0.0026681011 0.054398999 0.38566712
0.0030064909 0.054370537 0.38546425
0.0033453829 0.054356005 0.38536006
0.0036839617 0.054339528 0.38524202
0.0040222658 0.054322112 0.38511726
0.0043606237 0.054308075 0.38501638
0.0046985596 0.054291185 0.38489518
0.0050380998 0.054293852 0.38491261
0.0053760256 0.054279879 0.38481194
0.0057140528 0.054268524 0.38472977
0.006052712 0.054264102 0.38469672
0.0063884435 0.054235294 0.38449067
0.0067232093 0.054201603 0.38424993
0.0070610717 0.054194905 0.38420051
0.0073968912 0.054173846 0.38404927
0.0077347802 0.054169137 0.38401374
0.0080721164 0.054161098 0.38395461
0.0084085502 0.054147895 0.3838588
0.0087448517 0.054134898 0.38376436
0.0090816291 0.0541257 0.38369673
0.0094182324 0.05411616 0.38362667
0.0097544678 0.054105241 0.38354674
0.010093587 0.054110505 0.38358149
0.01043428 0.054123595 0.38367161
0.010775152 0.054136753 0.38376215
0.01111647 0.054151293 0.38386241
-0.04741348 0.056913354 0.40037879
-0.04707792 0.056934938 0.40053979
-0.046704963 0.056911267 0.40038246
-0.046344779 0.056902923 0.40033281
-0.045993142 0.05690502 0.40035659
-0.045620676 0.056881193 0.40019786
-0.045256641 0.056867585 0.40011099
-0.044890501 0.056851089 0.40000373
-0.044531289 0.05684318 0.39995682
-0.044158854 0.056818135 0.39978924
-0.043787498 0.056794081 0.39962861
-0.043423865 0.056779739 0.39953619
-0.043063909 0.056770008 0.39947617
-0.042701378 0.056756698 0.39939091
-0.042322069 0.056720681 0.39914572
-0.041972019 0.056723602 0.39917454
-0.041600496 0.056697302 0.39899758
-0.041242231 0.056688782 0.39894575
-0.04087431 0.056666732 0.39879858
-0.040508863 0.056647755 0.39867297
-0.040135883 0.056617822 0.39847022
-0.039781176 0.056613356 0.39844659
-0.039424244 0.056605633 0.39839995
-0.039060328 0.056587648 0.39828107
-0.038703408 0.056579556 0.39823171
-0.038328752 0.056545157 0.39799714
-0.037965886 0.056527678 0.39788154
-0.03760083 0.056506589 0.39774045
-0.037246425 0.056501247 0.3977102
-0.036885895 0.056486435 0.39761317
-0.036526561 0.056473184 0.39752704
-0.03616773 0.056460463 0.39744458
-0.035809573 0.056448556 0.39736784
-0.035428654 0.056400172 0.39703417
-0.035088047 0.056415647 0.39714998
-0.034707084 0.056365892 0.39680651
-0.034360606 0.056371696 0.39685413
-0.034000199 0.056354538 0.39673999
-0.033660155 0.056371123 0.39686337
-0.033321436 0.056390304 0.39700493
-0.033003688 0.056445759 0.39740184
-0.0031241009 0.054967001 0.38726753
-0.0027831381 0.054975074 0.38732451
-0.0024409336 0.054957457 0.38720047
-0.0020995156 0.054954704 0.38718113
-0.0017579813 0.054947268 0.38712865
-0.0014161963 0.054926544 0.3869825
-0.0010747807 0.054911554 0.38687667
-0.0007336181 0.0549016 0.38680628
-0.00039252159 0.054883655 0.3866795
-5.1646835e-05 0.05486504 0.38654789
0.00028902982 0.054852638 0.38646004
0.00062946044 0.05483219 0.38631541
0.00097004365 0.054834701 0.38633242
0.0013101739 0.054816939 0.38620657
0.0016498697 0.054792058 0.3860305
0.0019901057 0.054790549 0.38601902
0.0023292708 0.054764297 0.38583308
0.0026694576 0.054765679 0.38584185
0.0030077407 0.054732107 0.3856042
0.0033462238 0.054708611 0.38543752
0.0036860739 0.054709733 0.38544422
0.0040243906 0.054689825 0.38530263
0.0043634623 0.054682467 0.38524944
0.0047016586 0.054665983 0.3851319
0.005039182 0.054644428 0.3849785
0.0053788456 0.054647323 0.38499734
0.0057164957 0.05463063 0.38487807
0.0060546668 0.054620516 0.38480505
0.0063919919 0.05460424 0.38468859
0.0067261267 0.054563709 0.38440117
0.0070651798 0.054565057 0.38440874
0.0074024023 0.054552786 0.38432032
0.0077397292 0.054542325 0.38424447
0.0080735795 0.054509263 0.38400939
0.0084116589 0.054506265 0.38398606
0.00874775 0.054491106 0.38387698
0.0090860305 0.054490216 0.38386831
0.0094224457 0.054478593 0.38378397
0.0097616129 0.054483134 0.38381347
0.010096105 0.054462146 0.38366303
0.010436766 0.054474723 0.38374895
0.010776131 0.05447996 0.3837831
0.011117887 0.054496575 0.38389736
0.011463152 0.054528918 0.38412231
-0.047457613 0.057320483 0.40074036
-0.047095411 0.057310171 0.40067744
-0.046748172 0.057318062 0.40074173
-0.046374436 0.057293318 0.40057784
-0.046002764 0.057270776 0.40042922
-0.045645919 0.057266489 0.40040818
-0.04528017 0.057250869 0.40030783
-0.04490833 0.057227246 0.40015143
-0.044544231 0.057213191 0.40006191
-0.044183567 0.057203364 0.40000182
-0.04381099 0.057177827 0.39983186
-0.043434985 0.057147365 0.39962739
-0.043083303 0.057148665 0.39964494
-0.042721704 0.057136733 0.39956987
-0.042355105 0.057117864 0.39944616
-0.041980423 0.057087682 0.39924332
-0.041607928 0.057059985 0.39905781
-0.041258652 0.057063933 0.39909351
-0.040880404 0.057027534 0.39884695
-0.040526845 0.057025235 0.39883882
-0.040159449 0.057003271 0.39869308
-0.039797567 0.056988809 0.39859971
-0.039429415 0.056965027 0.39844114
-0.03907764 0.056964699 0.39844647
-0.038710821 0.056942236 0.39829692
-0.038343295 0.056918304 0.39813709
-0.037995387 0.056923322 0.39817962
-0.03762209 0.056890044 0.39795426
-0.037277885 0.056900546 0.39803502
-0.036898907 0.056857672 0.39774233
-0.036541428 0.056847412 0.39767778
-0.036188573 0.056844227 0.39766258
-0.035808593 0.056797955 0.39734584
-0.03546226 0.056804664 0.39739975
-0.035095155 0.056777902 0.39721939
-0.034720235 0.056737829 0.39694583
-0.034371883 0.056740798 0.39697337
-0.034016348 0.056731854 0.39691746
-0.033682026 0.05675846 0.39711016
-0.033355866 0.056799535 0.39740407
-0.0027842298 0.055339806 0.38747409
-0.0024421096 0.055327214 0.38738599
-0.0021005874 0.055326279 0.38737947
-0.0017582879 0.05530056 0.38719931
-0.0014168337 0.055295449 0.3871634
-0.0010751975 0.055277754 0.38703927
-0.00073364232 0.055249751 0.38684297
-0.00039267002 0.05525519 0.38688064
-5.1602161e-05 0.055230632 0.38670829
0.00028931675 0.055235434 0.38674143
0.00062994403 0.055209443 0.38655886
0.0009704167 0.055192888 0.3864423
0.001310764 0.055179633 0.38634878
0.0016507182 0.055158712 0.38620147
0.0019908319 0.055149339 0.38613501
0.0023303437 0.055128451 0.38598785
0.0026706764 0.05512983 0.38599649
0.0030092727 0.055099104 0.38578025
0.0033496162 0.055103343 0.38580877
0.0036879107 0.055076193 0.38561749
0.0040270835 0.055065632 0.38554224
0.0043652249 0.055043705 0.38538733
0.0047038845 0.055031005 0.385297
0.0050414628 0.05500821 0.38513586
0.0053805104 0.055003308 0.38509995
0.0057182121 0.054986041 0.38497743
0.0060570403 0.054980934 0.38493991
0.0063956245 0.054974265 0.38489142
0.0067315185 0.054946307 0.38469386
0.0070685861 0.054930147 0.3845787
0.0074062115 0.054919597 0.38450286
0.0077425921 0.054901145 0.38437158
0.0080779251 0.054877117 0.3842012
0.0084147938 0.054865047 0.38411444
0.0087517621 0.05485452 0.38403845
0.0090884641 0.054843161 0.38395655
0.0094238026 0.054824695 0.38382483
0.0097628506 0.054828335 0.3838478
0.010099955 0.054821182 0.38379514
0.010440359 0.054831821 0.38386694
0.010781907 0.054847598 0.38397467
0.011118741 0.054839175 0.38391289
-0.047470208 0.057689942 0.40083548
-0.047115091 0.057688355 0.40083367
-0.046761788 0.057688992 0.40084723
-0.046401724 0.057681222 0.40080234
-0.046043757 0.057675969 0.40077484
-0.045660611 0.057638846 0.40052581
-0.045306616 0.057638228 0.4005304
-0.044934493 0.057614371 0.40037337
-0.044565961 0.057594765 0.40024585
-0.04419316 0.057569295 0.40007749
-0.04383764 0.057566099 0.40006384
-0.043476667 0.057555631 0.39999965
-0.043102592 0.057527512 0.39981267
-0.042744454 0.057520375 0.39977142
-0.042353317 0.057468347 0.39941809
-0.042002421 0.0574705 0.3994413
-0.041648239 0.057468154 0.3994332
-0.041279972 0.057446182 0.39928854
-0.040909696 0.057420995 0.39912149
-0.040547077 0.057406224 0.39902675
-0.040195342 0.057406735 0.3990382
-0.039821278 0.057375081 0.398826
-0.039463431 0.057366453 0.3987737
-0.039087646 0.057331335 0.39853728
-0.038732708 0.057326451 0.39851093
-0.038366854 0.057305176 0.39837053
-0.037998132 0.05727917 0.3981972
-0.037639804 0.057268512 0.39813051
-0.037286557 0.057265442 0.3981165
-0.036915448 0.057234626 0.39790946
-0.036557212 0.05722338 0.39783844
-0.036199253 0.057212345 0.3977688
-0.035823975 0.057173453 0.39750543
-0.03547575 0.057177391 0.39753976
-0.035116524 0.057163514 0.39745015
-0.034752004 0.057140641 0.39729792
-0.034404449 0.057145484 0.39733836
-0.034044374 0.057129417 0.39723328
-0.033709813 0.057156283 0.39742669
-0.033372734 0.057179406 0.39759398
-0.03302506 0.057184659 0.39763695
-0.0027847691 0.05569379 0.38754678
-0.0024433164 0.055698033 0.38757637
-0.0021009243 0.055678762 0.38744232
-0.0017597247 0.055689771 0.38751885
-0.0014176031 0.0556699 0.38738042
-0.0010755025 0.055638503 0.38716176
-0.0007339174 0.055617038 0.38701212
-0.00039273902 0.055615921 0.38700396
-5.1557046e-05 0.055596571 0.38686889
0.00028945328 0.055589758 0.38682097
0.00063043402 0.055587672 0.38680595
0.00097084092 0.055554196 0.3865723
0.0013115689 0.055551685 0.38655415
0.001651469 0.055522379 0.38634941
0.0019915013 0.055506751 0.3862398
0.0023316334 0.05549806 0.38617837
0.0026714306 0.055484619 0.38608387
0.0030106879 0.055464257 0.38594109
0.0033506227 0.055459242 0.38590506
0.0036898067 0.055443868 0.38579682
0.0040296917 0.05544072 0.38577363
0.0043676216 0.055413254 0.38558114
0.004706332 0.055398937 0.38548008
0.0050443732 0.055379197 0.38534123
0.0053828084 0.055365998 0.38524777
0.005721882 0.055360537 0.38520813
0.0060591931 0.05533959 0.38506064
0.006397116 0.055326153 0.38496533
0.0067354226 0.055317216 0.38490129
0.0070727603 0.055301551 0.38479033
0.0074090715 0.055279665 0.38463604
0.0077446843 0.055254716 0.38446033
0.0080842534 0.055258889 0.38448721
0.0084192865 0.055232972 0.38430464
0.0087604746 0.055247866 0.38440597
0.0090916762 0.055201016 0.38407767
0.0094302176 0.055200495 0.38407159
0.0097681144 0.055196371 0.38404036
0.010106615 0.055195812 0.38403392
0.010444321 0.055191085 0.38399836
0.010784255 0.055198058 0.38404417
0.011120914 0.055188365 0.38397387
0.011464668 0.055213399 0.38414517
-0.047496531 0.058076378 0.40104651
-0.047129482 0.058060326 0.40094486
-0.046782944 0.058069494 0.40101728
-0.046420228 0.05805856 0.40095088
-0.046057902 0.058047961 0.40088665
-0.045694303 0.058035571 0.40081006
-0.045330778 0.058023091 0.40073273
-0.044951927 0.057990652 0.40051746
-0.044580232 0.057966989 0.40036276
-0.044213779 0.057949834 0.40025288
-0.043862425 0.057952337 0.40027878
-0.043499473 0.05793944 0.40019822
-0.043134484 0.0579236 0.40009722
-0.042747345 0.057877503 0.39978719
-0.042385317 0.057864934 0.39970866
-0.04202551 0.0578552 0.39964965
-0.041657753 0.057834264 0.39951321
-0.041295726 0.057821002 0.39942965
-0.040944837 0.057823233 0.3994531
-0.040564917 0.057784151 0.39919111
-0.0402104 0.057780899 0.39917645
-0.03984059 0.057755418 0.39900821
-0.039477486 0.057739276 0.39890447
-0.039117329 0.057727206 0.39882874
-0.038757745 0.057715766 0.39875728
-0.038385209 0.057684656 0.39854985
-0.038035702 0.057687901 0.39857975
-0.037667498 0.057662591 0.39841223
-0.037291676 0.057625014 0.39815992
-0.036935076 0.057616726 0.39810985
-0.036576159 0.05760463 0.39803344
-0.036214251 0.05758753 0.3979224
-0.035864238 0.057589207 0.39794099
-0.03548494 0.057543423 0.39763156
-0.035129327 0.057535518 0.39758384
-0.034767292 0.057516843 0.39746153
-0.034431573 0.05754175 0.39764041
-0.034058515 0.057504136 0.39738715
-0.033705927 0.057500672 0.39736977
-0.033382922 0.057548106 0.39770415
-0.033057269 0.05759196 0.39801365
-0.0024445304 0.056069382 0.38776791
-0.0021021597 0.056055356 0.3876709
-0.0017601738 0.056048144 0.38762099
-0.0014179779 0.056029171 0.38748962
-0.0010764945 0.056035273 0.38753164
-0.00073451502 0.05600927 0.38735151
-0.00039272758 0.055965487 0.38704836
-5.1497416e-05 0.055947579 0.38692406
0.00028964237 0.055954318 0.38697016
0.00063072616 0.055948764 0.38693118
0.00097140344 0.055923678 0.38675708
0.0013119583 0.055906396 0.38663682
0.0016531103 0.055916425 0.38670537
0.0019927626 0.05588096 0.38645923
0.0023330296 0.055870559 0.38638642
0.0026735601 0.055868316 0.38636985
0.003012069 0.055829089 0.38609749
0.003352961 0.055837516 0.38615462
0.0036918854 0.055814635 0.38599515
0.0040305262 0.055791676 0.38583508
0.0043701474 0.055784807 0.38578621
0.0047077592 0.055755135 0.38557956
0.0050480808 0.055759378 0.38560739
0.005385702 0.05573513 0.38543814
0.0057235463 0.055715933 0.38530371
0.0060632592 0.055716053 0.38530281
0.0064002983 0.055692896 0.38514087
0.0067399293 0.055693481 0.38514304
0.0070766266 0.055670932 0.38498518
0.0074142339 0.055657271 0.38488868
0.0077512334 0.055640437 0.38477021
0.0080871647 0.055617679 0.38461062
0.0084248129 0.055608071 0.38454196
0.0087614805 0.055592984 0.38443533
0.0090948436 0.055558834 0.38419682
0.0094363065 0.055574838 0.38430503
0.0097722588 0.055558398 0.3841888
0.010107623 0.055539828 0.38405782
0.010447176 0.055544723 0.38408902
0.010786425 0.055547755 0.38410726
0.011125491 0.055549674 0.38411772
0.011465777 0.0555574 0.38416824
-0.047534358 0.058477357 0.40135455
-0.047160722 0.058453392 0.40119928
-0.046798635 0.05844349 0.40114045
-0.046432696 0.058428593 0.40104726
-0.046080343 0.058430694 0.40107068
-0.045708414 0.05840781 0.40092254
-0.045354273 0.058407474 0.40092909
-0.044969831 0.058367811 0.40066558
-0.044620641 0.05837363 0.40071431
-0.044235453 0.058332093 0.40043777
-0.043871373 0.058317933 0.40034911
-0.043512344 0.058310308 0.4003053
-0.043157034 0.058307584 0.40029505
-0.042800881 0.058303673 0.40027657
-0.042422742 0.058269497 0.40005022
-0.042040572 0.058229171 0.39978158
-0.041676849 0.058213912 0.399685
-0.041303288 0.058184557 0.39949149
-0.040949352 0.05818256 0.39948583
-0.040589083 0.05817147 0.39941764
-0.040225931 0.058155999 0.39931926
-0.039867125 0.058146618 0.39926264
-0.039502267 0.058128145 0.39914355
-0.039134171 0.058104549 0.39898917
-0.038767725 0.05808299 0.39884868
-0.038392253 0.058047391 0.39861175
-0.038039967 0.058046501 0.39861313
-0.037672315 0.05802194 0.39845183
-0.037307546 0.058001399 0.39831808
-0.036942523 0.057980079 0.39817888
-0.036603041 0.057998814 0.39831468
-0.036227226 0.057959776 0.39805371
-0.035866573 0.057944477 0.39795563
-0.035502583 0.057923432 0.39781806
-0.035146132 0.057914395 0.39776281
-0.034793731 0.057911903 0.39775255
-0.034435045 0.057898801 0.39766929
-0.034083303 0.057897232 0.39766514
-0.033737253 0.057905402 0.39772785
-0.033392772 0.057916451 0.39781031
-0.033064358 0.057955906 0.39808774
-0.0024446293 0.056415372 0.38778257
-0.0021028733 0.056418389 0.38780329
-0.0017609232 0.056416348 0.38778922
-0.0014184326 0.056391872 0.38762081
-0.001076724 0.056392826 0.38762718
-0.00073460507 0.056363229 0.38742346
-0.00039297604 0.056352492 0.38734931
-5.147397e-05 0.056338809 0.38725483
0.00028982168 0.056317158 0.38710552
0.00063091575 0.056300901 0.38699317
0.00097176485 0.056281842 0.38686153
0.0013126796 0.056275483 0.3868171
0.0016536743 0.056274448 0.3868092
0.0019938268 0.056250002 0.38664031
0.0023337111 0.05622622 0.38647589
0.0026736874 0.056210417 0.38636631
0.0030140281 0.056204986 0.38632786
0.0033535734 0.056187321 0.38620526
0.0036935252 0.05617908 0.38614741
0.0040332833 0.056169532 0.38608047
0.0043719239 0.056147117 0.38592505
0.0047098994 0.056120008 0.38573724
0.005049149 0.056110695 0.38567176
0.0053904536 0.056123961 0.38576135
0.0057258112 0.056077395 0.38543963
0.0060637658 0.056060061 0.38531876
0.006403076 0.056056429 0.38529196
0.0067410176 0.056041773 0.38518938
0.0070790639 0.056029357 0.38510212
0.007417846 0.056023628 0.38506073
0.007753293 0.055994313 0.38485715
0.0080919182 0.055989444 0.3848215
0.0084290886 0.055975307 0.38472211
0.0087664062 0.055963196 0.38463658
0.0091038374 0.055952687 0.38456196
0.009438795 0.055928271 0.3843917
0.0097745582 0.055910151 0.38426465
0.010113156 0.055908911 0.38425356
0.010450706 0.05590215 0.38420442
0.010790331 0.05590656 0.38423198
0.011127516 0.055898447 0.38417339
0.011476126 0.05594651 0.38450086
0.011824085 0.055988725 0.38478804
-0.047184456 0.05883757 0.40138978
-0.046833739 0.058842123 0.40142995
-0.046461213 0.058819126 0.40128213
-0.046095163 0.058804043 0.40118822
-0.045732502 0.05879309 0.40112239
-0.045366593 0.058777742 0.40102658
-0.045003343 0.058765639 0.40095279
-0.044630751 0.058741052 0.40079373
-0.044260524 0.058719203 0.4006533
-0.04390784 0.058720466 0.4006705
-0.043529332 0.058686927 0.40045017
-0.043169346 0.058678027 0.4003979
-0.04280265 0.058659784 0.40028173
-0.04244623 0.05865543 0.40026033
-0.0420601 0.058609612 0.39995587
-0.041705742 0.05860766 0.39995071
-0.041334976 0.058582429 0.39978659
-0.040967047 0.058560818 0.39964712
-0.040601056 0.058541611 0.399524
-0.040241458 0.058531381 0.39946207
-0.03987981 0.058517966 0.39937833
-0.039522797 0.058511164 0.39933962
-0.03915761 0.058492046 0.39921677
-0.038787451 0.058465071 0.39904025
-0.038422991 0.058446281 0.39891949
-0.038061671 0.058431964 0.39882925
-0.037702832 0.058421221 0.39876327
-0.037338112 0.058401074 0.39863309
-0.036974337 0.058382049 0.39851043
-0.036613561 0.058367424 0.39841777
-0.03625147 0.05835041 0.39830875
-0.035877962 0.058314506 0.39807063
-0.035528313 0.058317062 0.39809504
-0.035160951 0.058290295 0.39791918
-0.034805927 0.058283657 0.39788067
-0.034445848 0.058268327 0.39778271
-0.034098625 0.058274649 0.39783257
-0.033755906 0.058288898 0.3979364
-0.033403508 0.058286548 0.39792687
-0.033058673 0.058297485 0.39800802
-0.00244617 0.056794889 0.38802591
-0.0021036128 0.056782372 0.38794041
-0.0017618091 0.056789286 0.38798758
-0.001419513 0.056779854 0.387923
-0.0010767292 0.056738764 0.38764206
-0.00073505437 0.056745097 0.38768503
-0.00039307014 0.056717854 0.38749853
-5.1423543e-05 0.056701504 0.38738641
0.00029000267 0.056680501 0.38724241
0.00063133251 0.056673519 0.38719416
0.00097233593 0.056652389 0.38704917
0.001313276 0.0566395 0.38696036
0.0016544365 0.056639448 0.3869592
0.0019946201 0.056611683 0.38676864
0.0023348571 0.056593306 0.38664219
0.0026753156 0.056584284 0.38657954
0.0030150851 0.056564372 0.38644242
0.0033554193 0.056558009 0.38639781
0.0036946172 0.05653543 0.3862423
0.0040340731 0.056520265 0.3861374
0.0043731839 0.056503002 0.3860181
0.004713099 0.056497872 0.38598159
0.0050518741 0.05648068 0.38586265
0.0053911582 0.056470986 0.38579479
0.0057297619 0.056455731 0.38568893
0.0060688956 0.056447111 0.38562831
0.0064064194 0.056425229 0.38547701
0.0067460644 0.05642328 0.38546187
0.0070824167 0.056395303 0.38526878
0.0074190088 0.0563717 0.38510549
0.0077592125 0.056376405 0.38513556
0.0080945734 0.056347001 0.38493252
0.0084326947 0.056338403 0.38487154
0.0087696053 0.056322694 0.38476193
0.0091073774 0.05631347 0.38469657
0.0094445581 0.056301396 0.38461164
0.009781125 0.056286614 0.38450816
0.010118416 0.056276847 0.38443884
0.010458016 0.056280136 0.38445866
0.010794919 0.056269173 0.38438103
0.011133358 0.056266628 0.38436082
0.011478001 0.056294654 0.38454941
0.011814313 0.056281384 0.3844558
-0.047199272 0.059210926 0.40150437
-0.046838764 0.05920326 0.40146151
-0.046477247 0.059194203 0.40140915
-0.046120055 0.05919056 0.40139344
-0.045768861 0.059194606 0.4014298
-0.045392096 0.059165403 0.40124059
-0.045011107 0.059130177 0.40101048
-0.04466163 0.059136119 0.40105954
-0.044303149 0.059130151 0.40102768
-0.04392511 0.059097759 0.40081659
-0.04354937 0.059067976 0.40062308
-0.043178786 0.059044752 0.40047401
-0.042818196 0.059034914 0.40041563
-0.042456981 0.059024051 0.40035024
-0.042092532 0.059008472 0.40025282
-0.041733366 0.059000105 0.40020415
-0.041367933 0.058982652 0.40009388
-0.040986091 0.058941312 0.39982143
-0.040614877 0.058914654 0.39964858
-0.040257558 0.058907878 0.39961046
-0.039899521 0.058899913 0.39956424
-0.039543077 0.058894183 0.39953312
-0.039157696 0.058844872 0.39920622
-0.038802359 0.058840223 0.39918226
-0.038441066 0.058826365 0.39909577
-0.038071696 0.058799781 0.39892286
-0.037716601 0.05879496 0.3988975
-0.037349354 0.058770929 0.39874172
-0.036997132 0.058770295 0.3987447
-0.03662936 0.058744725 0.39857835
-0.036265835 0.058725528 0.3984552
-0.035901211 0.058704168 0.39831725
-0.035544258 0.058695044 0.39826229
-0.035186928 0.05868512 0.39820182
-0.034819897 0.058658645 0.398029
-0.034451816 0.058629848 0.39784029
-0.034104232 0.058635704 0.39788669
-0.033769589 0.058664154 0.39808634
-0.033410579 0.058650438 0.39799976
-0.033090331 0.0587052 0.39837784
-0.0024471579 0.057161968 0.3881816
-0.0021047685 0.057157941 0.3881543
-0.0017620672 0.057142258 0.38804772
-0.0014199709 0.057143379 0.38805518
-0.0010773789 0.057118937 0.387889
-0.00073526613 0.057109043 0.38782153
-0.00039318827 0.057087064 0.38767192
-5.1379131e-05 0.057071656 0.38756686
0.00029020716 0.057048619 0.38740993
0.00063177815 0.057049081 0.38741246
0.00097275554 0.057014395 0.38717628
0.0013138826 0.057004198 0.38710636
0.0016546714 0.056986555 0.38698572
0.0019955798 0.056978349 0.38692909
0.0023359961 0.056960527 0.38680714
0.0026774327 0.056968939 0.38686329
0.003016378 0.056928426 0.38658705
0.0033571392 0.056926925 0.38657573
0.003697288 0.056916267 0.38650215
0.0040360284 0.05688756 0.38630587
0.0043766531 0.056887794 0.38630611
0.0047142906 0.056851972 0.3860614
0.0050525791 0.05682829 0.38589907
0.0053936206 0.056836601 0.38595396
0.0057324599 0.056822099 0.3858538
0.0060710972 0.056807328 0.38575178
0.0064100698 0.056797083 0.38568041
0.0067485524 0.056783747 0.38558799
0.0070853061 0.056757838 0.3854101
0.0074237403 0.056747146 0.38533548
0.0077602756 0.056723502 0.38517284
0.0080987858 0.056715671 0.3851175
0.0084352745 0.05669488 0.38497409
0.0087723844 0.056679718 0.38486883
0.0091131385 0.056688331 0.38492495
0.0094482154 0.056662295 0.38474572
0.0097867595 0.05665813 0.3847149
0.010122495 0.056638524 0.38457918
0.010455539 0.056605611 0.38435307
0.010796507 0.056616325 0.38442308
0.011140753 0.056643043 0.38460168
0.011479616 0.056641623 0.38458917
-0.047234792 0.05961062 0.40179491
-0.04685913 0.059583988 0.40162453
-0.046514221 0.059596352 0.40171695
-0.046151847 0.059586361 0.40165856
-0.045789622 0.059576407 0.40160039
-0.045418367 0.059554446 0.40146124
-0.045029487 0.05950886 0.40116271
-0.044670835 0.059502814 0.40113068
-0.044302296 0.059483398 0.4010084
-0.043951146 0.059487205 0.40104264
-0.043567568 0.059446834 0.40077895
-0.043215644 0.059449341 0.40080428
-0.042842101 0.059421901 0.40062764
-0.042486988 0.059419785 0.40062168
-0.042111252 0.059388548 0.40041929
-0.041742768 0.059367094 0.4002828
-0.041379187 0.059352312 0.40019122
-0.041010883 0.059330445 0.40005177
-0.040635955 0.059298534 0.39984453
-0.040273029 0.059283726 0.39975253
-0.039911769 0.059271138 0.39967546
-0.03954979 0.059257239 0.39958945
-0.039189044 0.059244964 0.39951432
-0.038810328 0.059205048 0.39925271
-0.038450837 0.059193995 0.39918569
-0.038099591 0.059195559 0.39920369
-0.037741404 0.059186261 0.39914834
-0.037370581 0.059156787 0.39895687
-0.037022237 0.059162673 0.39900377
-0.03663975 0.059113596 0.39867997
-0.036289729 0.059116453 0.39870626
-0.035933703 0.059109483 0.39866629
-0.035574447 0.059097011 0.3985891
-0.035199489 0.059057955 0.39833254
-0.034842476 0.059048507 0.39827567
-0.034469351 0.059011299 0.39803141
-0.034116827 0.059008941 0.39802215
-0.033783291 0.059039742 0.39823645
-0.033430263 0.059036754 0.39822283
-0.033102933 0.059079573 0.39851809
-0.002447943 0.057524577 0.38830513
-0.0021054205 0.057520162 0.3882753
-0.0017629276 0.057515018 0.38824052
-0.0014205718 0.05751295 0.38822645
-0.0010778026 0.057487547 0.38805479
-0.00073540246 0.057467394 0.38791838
-0.00039327765 0.057452463 0.38781726
-5.133505e-05 0.057443086 0.38775355
0.00029041461 0.057417553 0.38758069
0.00063220866 0.057423618 0.38762105
0.00097343099 0.057391696 0.38740495
0.0013147135 0.057378966 0.38731825
0.0016564303 0.057386514 0.38736844
0.0019970213 0.057359129 0.38718274
0.0023367191 0.057317831 0.38690302
0.0026774348 0.05730883 0.38684124
0.003018179 0.057302393 0.38679671
0.0033591979 0.05730195 0.38679254
0.0036989544 0.057282019 0.38665682
0.0040383493 0.057260331 0.38650912
0.004377245 0.057235487 0.38634002
0.0047181509 0.057238605 0.38635966
0.0050569428 0.057217386 0.38621491
0.0053964271 0.057206172 0.38613763
0.0057345061 0.057182275 0.38597468
0.0060756654 0.057190053 0.38602543
0.0064145615 0.057176817 0.38593432
0.0067501143 0.057136618 0.3856611
0.0070891357 0.057128225 0.38560247
0.007427033 0.057111945 0.3854906
0.0077658361 0.057103757 0.38543326
0.0081030047 0.057084735 0.38530269
0.0084426822 0.057084206 0.38529688
0.0087787537 0.057060272 0.38513306
0.009114502 0.057036098 0.38496754
0.0094525572 0.057027582 0.38490757
0.0097938171 0.057038318 0.38497752
0.010129183 0.057015143 0.38481852
0.010466838 0.057005942 0.38475379
0.010802669 0.056987703 0.38462791
0.011145101 0.057004318 0.38473728
0.011480334 0.056984238 0.38459885
0.011823935 0.057005633 0.38474032
0.012176014 0.057065576 0.38514185
-0.047255035 0.059991464 0.40195554
-0.046892188 0.05998126 0.4018963
-0.046542708 0.059988137 0.40195137
-0.046167571 0.059961785 0.40178382
-0.045806669 0.059953656 0.40173829
-0.04544377 0.059942774 0.40167418
-0.045070145 0.059917461 0.40151334
-0.044698957 0.059895009 0.40137157
-0.044332638 0.059878781 0.40127149
-0.04396338 0.059858277 0.40114266
-0.043607108 0.059855282 0.40113106
-0.043233283 0.059827946 0.4009563
-0.042878695 0.059826992 0.40095827
-0.04248308 0.059768312 0.40057328
-0.042122468 0.059758294 0.40051433
-0.041768808 0.05975806 0.40052092
-0.041404594 0.059742596 0.40042534
-0.041043114 0.059730843 0.40035459
-0.040667702 0.059698433 0.40014529
-0.040312022 0.059694685 0.40012801
-0.039929081 0.059650138 0.39983723
-0.039560009 0.0596257 0.39968115
-0.039212588 0.059633758 0.39974281
-0.038842212 0.059606727 0.39956918
-0.038478471 0.059589475 0.39946103
-0.038126476 0.059590273 0.39947382
-0.037746601 0.059547096 0.39919174
-0.037389081 0.059538711 0.39914283
-0.037021171 0.059513461 0.39898077
-0.036665 0.059506785 0.39894319
-0.036306515 0.059496183 0.39887914
-0.035945468 0.059481144 0.39878535
-0.035593767 0.059481412 0.39879405
-0.035216369 0.059438318 0.39851204
-0.034838054 0.059392802 0.39821362
-0.034491744 0.059401475 0.3982785
-0.034145322 0.059410121 0.39834312
-0.033783678 0.059392188 0.39822948
-0.033460993 0.059443109 0.39857739
-0.033122566 0.059466835 0.39874294
-0.0021059618 0.057879597 0.38837597
-0.0017635196 0.057879344 0.38837424
-0.0014204677 0.057854164 0.38820514
-0.0010782944 0.057860151 0.38824508
-0.00073557976 0.057829194 0.38803709
-0.00039346243 0.057832241 0.38805717
-5.1278817e-05 0.057801731 0.38785201
0.00029075897 0.057813928 0.38793334
0.00063257117 0.057792295 0.38778761
0.00097404077 0.057765491 0.38760713
0.0013154362 0.057749346 0.38749808
0.0016564049 0.057724968 0.38733369
0.001997533 0.057713516 0.38725597
0.0023386413 0.057704918 0.38719735
0.0026801291 0.057706662 0.38720807
0.0030200006 0.057677139 0.38700888
0.0033600864 0.057657279 0.38687447
0.0037002105 0.057641674 0.38676852
0.0040402473 0.057627454 0.38667181
0.0043798853 0.057610184 0.38655457
0.0047203875 0.057605959 0.38652477
0.0050591785 0.057582822 0.38636801
0.0053998921 0.057583105 0.3863683
0.0057402765 0.057580031 0.38634607
0.0060762619 0.05753566 0.38604659
0.0064167152 0.057536058 0.38604745
0.0067541404 0.057510618 0.3858749
0.0070941318 0.05750842 0.38585821
0.0074311025 0.057483055 0.38568601
0.0077711432 0.057482615 0.38568097
0.0081065726 0.057449527 0.38545683
0.0084454082 0.057442274 0.3854059
0.0087835994 0.057431359 0.38533035
0.0091190701 0.057404138 0.38514537
0.0094583929 0.057402242 0.3851302
0.0097987475 0.057406515 0.38515633
0.010131625 0.057368159 0.38489646
0.01047066 0.05736604 0.38487956
0.010806561 0.057347406 0.3847518
0.011148065 0.057358745 0.38482508
0.011486584 0.057354502 0.38479373
0.011831341 0.057380747 0.38496688
0.012177699 0.057413079 0.38518074
-0.047282889 0.06038234 0.40218082
-0.046910949 0.060360644 0.40204543
-0.046565104 0.060372453 0.40213311
-0.046187542 0.060343001 0.40194595
-0.045827832 0.060336594 0.40191221
-0.045460802 0.060320385 0.40181306
-0.045083411 0.060290068 0.40161988
-0.044713203 0.060268939 0.40148786
-0.044354208 0.060262721 0.40145501
-0.043984655 0.060241945 0.40132517
-0.043620452 0.060228202 0.40124217
-0.043265168 0.060226664 0.40124032
-0.042881984 0.060185939 0.40097734
-0.042524979 0.060181592 0.40095666
-0.042155031 0.060158696 0.40081233
-0.041788649 0.060140546 0.40069956
-0.041423332 0.060123626 0.40059492
-0.041066643 0.060119055 0.40057245
-0.040685594 0.060078435 0.40030971
-0.040328588 0.06007291 0.40028077
-0.039953865 0.060040671 0.40007377
-0.039600935 0.060040899 0.40008298
-0.039231643 0.060016107 0.39992538
-0.038860586 0.05998813 0.39974654
-0.038501859 0.059978846 0.39969221
-0.038143389 0.059969805 0.3996394
-0.037771743 0.059939694 0.39944607
-0.037401162 0.059910707 0.39926019
-0.037045285 0.059904955 0.39922911
-0.036676195 0.059877519 0.39905336
-0.036313571 0.059860207 0.39894509
-0.035960134 0.059857849 0.39893639
-0.035593953 0.059834026 0.39878455
-0.035230815 0.059814904 0.39866394
-0.034870919 0.059800945 0.39857769
-0.034508515 0.05978236 0.39846054
-0.034168839 0.05980318 0.39860594
-0.033817578 0.059803937 0.3986176
-0.033460394 0.05979412 0.39855868
-0.033118296 0.059811365 0.39868003
-0.0021071965 0.058258407 0.38860452
-0.001763945 0.058238447 0.38847128
-0.0014219271 0.058259431 0.38861114
-0.0010788193 0.058234926 0.38844749
-0.00073591672 0.058203891 0.38824016
-0.00039352773 0.058194868 0.38817966
-5.1230876e-05 0.058170527 0.38801682
0.0002909833 0.058186837 0.38812509
0.00063281669 0.058150485 0.38788205
0.00097443553 0.058126811 0.38772351
0.0013161743 0.058120716 0.38768214
0.0016576678 0.058108531 0.38760003
0.0019994017 0.058107473 0.38759214
0.002339965 0.058077663 0.38739237
0.0026810409 0.058066547 0.38731721
0.0030215064 0.058046199 0.38718039
0.003362763 0.058043636 0.38716215
0.0037022983 0.058014568 0.386967
0.0040443917 0.058027096 0.38704932
0.0043829554 0.057990976 0.38680696
0.0047218064 0.057963587 0.38662291
0.0050617848 0.057952791 0.38654935
0.0054006362 0.057931263 0.38640419
0.0057405564 0.057923067 0.38634786
0.0060796505 0.057907924 0.38624513
0.0064178356 0.05788618 0.3860983
0.0067582289 0.057885543 0.38609216
0.0070967884 0.057870008 0.38598657
0.0074340063 0.057845447 0.38582078
0.0077732853 0.05783838 0.38577151
0.008112506 0.057831474 0.38572332
0.0084497677 0.057811726 0.38558939
0.008787916 0.057799332 0.38550442
0.0091248434 0.057780128 0.38537395
0.0094595607 0.057748809 0.38516262
0.0097971903 0.057736825 0.38508016
0.010133992 0.057720918 0.3849715
0.010476002 0.057734754 0.38506109
0.010813582 0.057724059 0.38498706
0.011152988 0.057723477 0.38498038
0.011492259 0.057722241 0.38496923
0.011838039 0.057752829 0.38517028
0.012182886 0.057777282 0.38533038
0.012530614 0.057813704 0.3855702
-0.046934113 0.060746003 0.4022322
-0.046589386 0.060759563 0.40233105
-0.046226084 0.060748931 0.40226963
-0.045832571 0.060698122 0.40194204
-0.045483552 0.060705904 0.40200242
-0.045112703 0.060684439 0.40186906
-0.044742256 0.060663182 0.401737
-0.044377044 0.060648743 0.40165001
-0.044017885 0.060642406 0.4016166
-0.043648154 0.060621291 0.40148526
-0.043263797 0.060579348 0.40121591
-0.042903069 0.060570069 0.4011628
-0.042547945 0.06056862 0.40116146
-0.04216386 0.060525578 0.40088457
-0.041798636 0.060509104 0.40078363
-0.041432414 0.060490895 0.40067109
-0.041081928 0.06049554 0.40070984
-0.040707719 0.060465027 0.40051568
-0.040348329 0.060456201 0.40046504
-0.039980151 0.060433928 0.4003253
-0.039616659 0.060418401 0.40023017
-0.039238244 0.060379628 0.39998096
-0.038891301 0.060389034 0.40005085
-0.038521323 0.060362514 0.39988267
-0.038153738 0.060339279 0.39973614
-0.037791554 0.060324237 0.3996439
-0.037433166 0.060315028 0.39959019
-0.037071597 0.060300477 0.39950097
-0.036702689 0.060273595 0.39933002
-0.036337052 0.060251612 0.39919144
-0.035974517 0.06023439 0.39908436
-0.035616882 0.060225118 0.39902985
-0.035254955 0.060208332 0.39892548
-0.03488357 0.060174897 0.39871073
-0.034534011 0.060178809 0.39874339
-0.034175441 0.060166936 0.39867136
-0.03384354 0.06020226 0.39891198
-0.033475231 0.060172886 0.39872384
-0.033136405 0.060196444 0.39888641
-0.03281815 0.060258277 0.39930248
-0.0021089031 0.058650788 0.3889201
-0.0017647279 0.058609627 0.38864714
-0.0014225374 0.058630466 0.38878515
-0.001078783 0.058579631 0.38844785
-0.00073617062 0.058572404 0.38839963
-0.00039360684 0.058559865 0.38831612
-5.1201005e-05 0.058560867 0.38832232
0.00029116019 0.058550462 0.38825282
0.00063303893 0.058506671 0.38796189
0.00097539835 0.058522422 0.38806567
0.0013168601 0.058490094 0.38785061
0.0016586806 0.058483742 0.38780767
0.0020006611 0.058484223 0.38780999
0.0023410756 0.058445454 0.38755199
0.0026827147 0.05844323 0.38753626
0.0030224675 0.058405057 0.38728201
0.0033635255 0.058397286 0.38722935
0.0037041372 0.058383897 0.38713935
0.004045439 0.058382723 0.38713029
0.0043858415 0.058369771 0.387043
0.004723974 0.058330644 0.38678214
0.005063755 0.058315769 0.38668197
0.0054044994 0.058313169 0.38666311
0.0057438011 0.058296219 0.38654912
0.0060833311 0.058283351 0.38646206
0.0064217784 0.058262024 0.38631886
0.0067612268 0.05825147 0.38624698
0.0070993686 0.058231212 0.38611072
0.0074394834 0.058228243 0.38608903
0.0077778669 0.058212571 0.38598299
0.0081179375 0.058210313 0.38596585
0.0084521119 0.058167655 0.38568082
0.0087904008 0.058155511 0.38559797
0.0091289505 0.058145933 0.38553208
0.0094675338 0.058137249 0.38547209
0.0098025389 0.058107946 0.38527527
0.010141638 0.058104064 0.38524696
0.010478909 0.058090307 0.38515306
0.010815571 0.058074128 0.38504305
0.01115099 0.058052458 0.38489661
0.01149579 0.058079474 0.38507286
0.011843851 0.058120932 0.38534477
0.012191727 0.058159195 0.38559547
-0.046956848 0.061131161 0.40241525
-0.046608068 0.061139714 0.4024806
-0.046234626 0.061115801 0.40233216
-0.045860365 0.061090428 0.40217403
-0.04551721 0.06110641 0.40228808
-0.045131348 0.061064869 0.40202335
-0.044764239 0.061048243 0.40192261
-0.044390563 0.061022323 0.40176058
-0.044024266 0.061006207 0.40166304
-0.04366722 0.061002769 0.40164888
-0.043296661 0.060980227 0.40150887
-0.042926826 0.060958352 0.40137321
-0.042563923 0.060946032 0.40130034
-0.042186983 0.060913246 0.40109265
-0.041825954 0.060903069 0.40103379
-0.041462906 0.060889747 0.40095413
-0.041104577 0.060883194 0.40091902
-0.040728919 0.060850639 0.40071252
-0.040353492 0.06081786 0.40050453
-0.040001884 0.060820717 0.40053111
-0.039630137 0.060792737 0.40035456
-0.039273378 0.060787443 0.40032735
-0.038903233 0.060761165 0.40016183
-0.038551796 0.060763873 0.40018719
-0.038177542 0.060730349 0.39997384
-0.037811279 0.060709026 0.39984077
-0.03744683 0.060690243 0.39972433
-0.037082713 0.060671646 0.39960906
-0.036725525 0.060664132 0.39956671
-0.036345538 0.060618453 0.39927292
-0.035997193 0.060625177 0.39932418
-0.035637859 0.060613334 0.39925313
-0.035275396 0.060595881 0.39914504
-0.034915384 0.06058234 0.39906263
-0.034551512 0.060561761 0.39893374
-0.034187883 0.060541172 0.39880478
-0.033840261 0.060548801 0.39886165
-0.033493239 0.060557693 0.39892671
-0.033149458 0.06057268 0.39903185
-0.032812513 0.060600623 0.39922231
-0.0017658975 0.058994092 0.38890821
-0.001422598 0.058979068 0.38880906
-0.001079599 0.058970947 0.38875529
-0.00073648023 0.058945704 0.38858864
-0.00039373559 0.058932625 0.388502
-5.1134924e-05 0.058910672 0.38835686
0.00029128004 0.0589027 0.38830382
0.00063375558 0.058908928 0.38834429
0.00097573816 0.058881018 0.38815966
0.0013173062 0.058849059 0.38794827
0.0016592796 0.058844648 0.38791835
0.00200111 0.058837529 0.38787058
0.0023427138 0.058826778 0.38779879
0.0026841476 0.058815036 0.38772038
0.0030242985 0.058781002 0.38749492
0.0033646955 0.058758177 0.38734329
0.0037054617 0.058745399 0.38725784
0.0040460452 0.058732122 0.387169
0.0043877005 0.058735248 0.38718826
0.0047275932 0.058716029 0.38706011
0.0050666099 0.058689252 0.38688207
0.0054081278 0.058692984 0.38690513
0.0057452912 0.05865182 0.38663211
0.0060864552 0.058653828 0.38664359
0.0064242939 0.058625262 0.38645348
0.0067640925 0.058616553 0.38639423
0.0071031651 0.058602691 0.38630086
0.0074427561 0.058594178 0.38624275
0.0077799065 0.058568023 0.38606825
0.0081181806 0.058552176 0.38596165
0.0084581152 0.058549095 0.38593909
0.0087962169 0.058534045 0.38583761
0.0091336472 0.058515813 0.38571504
0.0094702328 0.058493666 0.38556665
0.0098113474 0.05850007 0.38560629
0.010145294 0.058464728 0.38537079
0.010486706 0.0584733 0.38542461
0.010821749 0.058446936 0.38524812
0.011162716 0.058453195 0.38528657
0.011503895 0.058460154 0.3853296
0.011844654 0.058464646 0.38535622
0.012192097 0.058500957 0.38559252
-0.046977788 0.061514322 0.40258285
-0.046614829 0.06150442 0.40252712
-0.046257474 0.061501827 0.40251911
-0.04588601 0.061480287 0.40238702
-0.045516606 0.061461188 0.40227088
-0.045146655 0.061441053 0.40214786
-0.044783697 0.06143019 0.40208542
-0.04442516 0.061425265 0.40206182
-0.04405826 0.061408609 0.40196133
-0.043672066 0.061364565 0.40168154
-0.043317053 0.061363984 0.40168616
-0.042943601 0.061337043 0.40151817
-0.042580411 0.061324444 0.40144393
-0.042202644 0.061290462 0.40122971
-0.041855808 0.061301209 0.40130818
-0.041485284 0.061277147 0.40115872
-0.041114122 0.061251715 0.40100023
-0.040739279 0.061220329 0.40080264
-0.040379677 0.061211478 0.40075257
-0.040014178 0.061193466 0.40064242
-0.03965544 0.061185561 0.40059835
-0.039281961 0.061154556 0.40040302
-0.038911708 0.06112808 0.40023717
-0.038556453 0.061124884 0.40022376
-0.038198516 0.061117329 0.40018177
-0.037839312 0.061107595 0.40012535
-0.03746197 0.061068114 0.39987415
-0.037100721 0.061054353 0.39979127
-0.036732771 0.061029207 0.39963374
-0.036374506 0.061019827 0.39957935
-0.036001191 0.060984764 0.39935675
-0.035646107 0.060980201 0.3993338
-0.035287324 0.060969148 0.39926824
-0.034927588 0.060956217 0.39919037
-0.034567978 0.060943246 0.39911214
-0.034207843 0.060929067 0.39902592
-0.03385096 0.060920443 0.39897606
-0.033509005 0.060938798 0.39910272
-0.033165023 0.060953807 0.39920747
-0.001766582 0.059362732 0.3890624
-0.0014234706 0.059361607 0.38905486
-0.0010800066 0.05934041 0.38891572
-0.00073683413 0.059322979 0.38880122
-0.00039398056 0.059323315 0.38880304
-5.1080715e-05 0.059274867 0.3884851
0.00029151558 0.059278484 0.38850829
0.00063408597 0.059275728 0.38848966
0.00097610796 0.0592416 0.38826531
0.0013185861 0.059245676 0.3882913
0.0016604727 0.059226949 0.38816783
0.0020015535 0.059190784 0.38792995
0.0023432861 0.059181627 0.38786897
0.0026856882 0.059189551 0.3879199
0.0030265716 0.059165984 0.38776436
0.0033660582 0.059122667 0.38747928
0.0037075463 0.059119236 0.38745558
0.0040477645 0.059097841 0.38731405
0.0043887263 0.059089784 0.3872599
0.0047297194 0.059083272 0.38721576
0.0050700395 0.059069797 0.38712594
0.0054105306 0.059059881 0.38705936
0.0057483241 0.059023432 0.38681886
0.0060887211 0.05901631 0.38677046
0.0064291423 0.059010155 0.38672832
0.0067698248 0.059006892 0.38670504
0.0071046115 0.058955014 0.38636312
0.0074450229 0.058952436 0.38634416
0.0077833044 0.058933932 0.38622084
0.0081226304 0.05892456 0.38615727
0.008461724 0.05891433 0.38608801
0.0087994626 0.058895804 0.38596433
0.009136931 0.058876932 0.38583827
0.0094736023 0.058854442 0.38568845
0.0098121054 0.05884451 0.38562083
0.010151305 0.058839276 0.38558394
0.010489794 0.058830392 0.38552308
0.010826804 0.058814026 0.38541308
0.011166867 0.05881473 0.38541493
0.011507565 0.058818646 0.38543773
0.011845024 0.058806255 0.38535354
0.012192896 0.058844797 0.3856031
-0.047007568 0.061909433 0.40282613
-0.046640921 0.06189489 0.40274051
-0.046285983 0.061895777 0.40275526
-0.045925289 0.061888918 0.40271956
-0.045550387 0.061862666 0.40255755
-0.045162264 0.061817896 0.40227497
-0.044798847 0.061806511 0.40220955
-0.044438682 0.061799463 0.4021723
-0.044078555 0.061792348 0.4021346
-0.043703049 0.061763395 0.40195462
-0.043347109 0.061761841 0.40195295
-0.042965181 0.061722927 0.40170801
-0.042612255 0.061725382 0.40173227
-0.042238582 0.061697572 0.40155944
-0.04187062 0.061677705 0.4014383
-0.041498136 0.061650772 0.40127105
-0.041142382 0.061648466 0.40126401
-0.040752236 0.061594117 0.40091822
-0.040402468 0.061600387 0.40096688
-0.04004335 0.061592393 0.4009226
-0.039663203 0.061551616 0.4006649
-0.039302159 0.061540022 0.40059704
-0.038952108 0.061545592 0.40064088
-0.038563963 0.061490513 0.40028983
-0.03821085 0.0614908 0.4002991
-0.037854597 0.06148598 0.40027511
-0.037498254 0.061480939 0.40024954
-0.037125587 0.061448779 0.40004739
-0.036761198 0.061429836 0.39993122
-0.036390837 0.061400447 0.39974695
-0.036029361 0.061385628 0.39965743
-0.035667304 0.061369512 0.39955944
-0.035306949 0.061356023 0.3994785
-0.034938406 0.061327904 0.39930218
-0.034586184 0.061328147 0.3993105
-0.034226157 0.061314415 0.39922768
-0.033865452 0.061299171 0.39913502
-0.033515677 0.061303601 0.39917034
-0.033184834 0.061343122 0.39943412
-0.032830659 0.061339896 0.39941949
-0.032496579 0.06137456 0.3996515
-0.0017668583 0.059717909 0.38912681
-0.0014238737 0.059724934 0.38917246
-0.0010808387 0.059733666 0.38922912
-0.00073716562 0.059698883 0.3890022
-0.00039397925 0.059677329 0.38886142
-5.1042152e-05 0.059658166 0.38873607
0.00029164838 0.059633542 0.38857514
0.00063425716 0.05962779 0.38853708
0.00097665063 0.059612907 0.38843948
0.0013191206 0.059609193 0.38841456
0.0016607016 0.059575099 0.38819161
0.0020033384 0.059584048 0.38824904
0.0023453417 0.059574291 0.38818455
0.0026858984 0.059534945 0.38792714
0.0030277797 0.059530526 0.38789725
0.0033693032 0.059520669 0.38783184
0.0037085095 0.059475459 0.38753608
0.0040509924 0.059485998 0.38760343
0.0043901973 0.059450489 0.38737071
0.0047307028 0.059436448 0.38727778
0.0050696647 0.05940621 0.38707918
0.0054120608 0.059417479 0.38715106
0.0057522827 0.059404958 0.38706782
0.0060900822 0.059370216 0.38683972
0.0064322301 0.059379298 0.38689709
0.0067699794 0.059348904 0.38669717
0.0071092853 0.059334412 0.38660082
0.0074477145 0.059314258 0.38646749
0.0077866139 0.059299458 0.38636896
0.0081268456 0.059295602 0.38634169
0.0084640356 0.059270766 0.38617763
0.0088028368 0.059258681 0.38609663
0.0091422852 0.0592517 0.38604876
0.0094803395 0.0592365 0.38594726
0.0098169493 0.059213646 0.38579583
0.010157719 0.05921657 0.38581231
0.010496221 0.059206508 0.38574412
0.010829965 0.059171073 0.3855105
0.011171515 0.059179157 0.38556039
0.011513788 0.059190463 0.3856312
0.011850697 0.059174348 0.38552323
0.012195785 0.059198823 0.38567969
0.012543283 0.05923336 0.38590157
-0.046669554 0.062289141 0.40297577
-0.046309195 0.062283043 0.40294525
-0.045938291 0.06226255 0.40282157
-0.045584686 0.062265366 0.40284863
-0.045200922 0.06222672 0.40260732
-0.044847116 0.062229019 0.40263093
-0.044453513 0.062175702 0.40229455
-0.044080917 0.062151134 0.40214416
-0.043715563 0.062136468 0.40205771
-0.043364353 0.062141832 0.40210083
-0.04299181 0.062116455 0.40194499
-0.042625699 0.062100042 0.40184703
-0.042254005 0.062075142 0.40169412
-0.041880187 0.062046681 0.40151805
-0.041528683 0.062051069 0.40155447
-0.041152414 0.062018204 0.40134981
-0.040792797 0.062010106 0.40130529
-0.040434714 0.062004205 0.40127495
-0.040057573 0.061968714 0.40105307
-0.039697923 0.061959893 0.40100366
-0.039312176 0.06190981 0.40068719
-0.038959891 0.061912011 0.40070894
-0.038584501 0.061877187 0.40049106
-0.038230419 0.061876211 0.40049219
-0.037871417 0.061867177 0.40044108
-0.037511572 0.06185659 0.40037984
-0.037141107 0.06182811 0.40020269
-0.036781576 0.061817471 0.40014097
-0.036401205 0.061771259 0.39984891
-0.036059417 0.061790269 0.39997891
-0.035678461 0.061741859 0.39967251
-0.035315134 0.061723299 0.3995592
-0.034957912 0.061715156 0.39951324
-0.034593936 0.06169479 0.39938813
-0.034239892 0.061691903 0.39937603
-0.033870962 0.061661851 0.39918807
-0.033530999 0.061684471 0.39934102
-0.033189319 0.061704367 0.39947626
-0.032832779 0.061696775 0.39943343
-0.032519549 0.061771285 0.39992213
-0.0017678258 0.060096722 0.38934344
-0.0014241938 0.060085014 0.38926744
-0.0010811329 0.060097627 0.38934892
-0.00073751347 0.060076531 0.38921198
-0.00039413082 0.060054835 0.38907108
-5.1003106e-05 0.060041986 0.38898736
0.00029184317 0.060001384 0.38872385
0.00063467742 0.060003459 0.38873672
0.00097707217 0.059977081 0.38856515
0.0013195659 0.059968881 0.38851133
0.0016617781 0.059953887 0.3884134
0.0020037927 0.059938092 0.38831022
0.0023459999 0.059931822 0.38826865
0.0026872135 0.059904989 0.38809377
0.0030284717 0.059885088 0.3879638
0.0033705514 0.059883822 0.38795444
0.0037117598 0.059868727 0.38785541
0.0040523103 0.059846453 0.38770983
0.004393517 0.059836585 0.3876445
0.0047363695 0.059848923 0.38772303
0.0050737076 0.059794616 0.38736966
0.0054155379 0.059796751 0.38738191
0.0057543046 0.05976681 0.38718629
0.0060940702 0.059750009 0.38707572
0.0064352416 0.059748046 0.38706121
0.0067750085 0.059733897 0.38696769
0.0071129343 0.059705641 0.38678268
0.0074505168 0.059677221 0.38659656
0.0077941841 0.059697893 0.38672838
0.0081303529 0.059661802 0.3864924
0.0084697828 0.059651572 0.38642392
0.0088074328 0.059630085 0.38628244
0.0091449684 0.05960945 0.3861464
0.0094848126 0.059604809 0.38611385
0.0098208757 0.05957754 0.38593471
0.010159998 0.059570033 0.38588351
0.010500249 0.059569418 0.38587686
0.010839348 0.059562508 0.38582939
0.011173147 0.059527777 0.38560161
0.01151663 0.059545171 0.3857114
0.011854143 0.059531577 0.38562042
0.012199789 0.059558444 0.38579145
0.012545692 0.059585076 0.38596085
-0.046679303 0.062658489 0.40304789
