# .PCD v0.7 - Point Cloud Data file format
VERSION 0.7
FIELDS x y z
SIZE 4 4 4
TYPE F F F
COUNT 1 1 1
WIDTH 1334
HEIGHT 1
VIEWPOINT 0 0 0 1 0 0 0
POINTS 1334
DATA ascii
-0.0056204782 0.090293482 0.42012122
-0.0052471929 0.090261884 0.4199748
-0.0048765778 0.090274923 0.42003596
-0.0045033097 0.090236969 0.41985974
-0.0041307677 0.090208061 0.41972557
-0.0037595863 0.090206087 0.41971666
-0.0033879236 0.090190895 0.41964611
-0.060869049 0.094561256 0.43732324
-0.060503665 0.094595574 0.4374927
-0.060105313 0.094578467 0.43742427
-0.059685834 0.094527677 0.43720001
-0.05927908 0.094496503 0.43706641
-0.058862649 0.094449393 0.43685901
-0.058463752 0.09443 0.43677971
-0.058080032 0.094435006 0.43681324
-0.057685841 0.094422951 0.43676776
-0.05727509 0.094383433 0.43659517
-0.05686304 0.094341233 0.43641016
-0.056439765 0.094279706 0.43613562
-0.056034416 0.094247483 0.43599659
-0.055647019 0.094245225 0.43599606
-0.055246931 0.094221279 0.43589517
-0.054852176 0.094206154 0.43583506
-0.054426335 0.094137058 0.43552512
-0.054029215 0.094117001 0.43544203
-0.053636558 0.094104491 0.43539375
-0.053225886 0.094059974 0.43519729
-0.052831683 0.094044112 0.4351334
-0.052450132 0.094050698 0.43517327
-0.052025136 0.093978919 0.43485048
-0.051633209 0.093966238 0.43480113
-0.051218208 0.093911074 0.43455505
-0.050806552 0.093861252 0.43433362
-0.050413162 0.093844675 0.43426597
-0.050030757 0.093848452 0.43429241
-0.049638659 0.093833953 0.43423429
-0.049223527 0.093775354 0.43397194
-0.048823908 0.093745619 0.43384314
-0.048437398 0.093740784 0.43382946
-0.048022922 0.093681328 0.43356296
-0.047632497 0.093668193 0.43351075
-0.047248859 0.093668312 0.43351981
-0.046878323 0.09369462 0.43364999
-0.046512388 0.093730628 0.43382505
-0.046135858 0.093745716 0.43390316
-0.01691624 0.091490671 0.42387691
-0.016538456 0.091474265 0.42380372
-0.01616079 0.091457762 0.42372996
-0.015776344 0.091401182 0.42347047
-0.015399925 0.091389529 0.42341897
-0.015020605 0.09135963 0.42328289
-0.014644837 0.091350354 0.42324236
-0.014260648 0.091286696 0.42294973
-0.013886391 0.091284901 0.42294368
-0.013509091 0.091262452 0.42284182
-0.013132593 0.091244295 0.42275983
-0.012751621 0.091193095 0.42252463
-0.012376814 0.091184229 0.4224855
-0.012000804 0.091165662 0.42240137
-0.011621663 0.091121368 0.42219794
-0.011245119 0.091095179 0.42207831
-0.010868561 0.091067061 0.42194974
-0.010494676 0.091060169 0.42191935
-0.010114321 0.090994537 0.42161676
-0.0097447941 0.091025032 0.42175949
-0.009366774 0.090975478 0.42153126
-0.0089915833 0.090950437 0.42141652
-0.0086179022 0.090939172 0.42136553
-0.0082420288 0.090902716 0.42119777
-0.0078677461 0.090881176 0.42109907
-0.0074944049 0.090868942 0.42104334
-0.0071192966 0.090832859 0.4208771
-0.006746314 0.090821445 0.42082503
-0.0063690012 0.090746991 0.42048088
-0.0059961462 0.090730771 0.4204064
-0.0056243227 0.090729065 0.42039907
-0.0052509466 0.090700291 0.42026633
-0.0048766397 0.090649843 0.42003304
-0.0045051654 0.090648085 0.42002532
-0.0041328752 0.090628125 0.4199332
-0.0037607267 0.090607665 0.41983861
-0.0033905718 0.090636015 0.41997018
-0.0030196058 0.090647005 0.42002121
-0.0026502276 0.090715446 0.42033836
-0.060516067 0.095003098 0.43756562
-0.060131695 0.095008127 0.43759945
-0.059741661 0.095004223 0.43759212
-0.059312791 0.094938099 0.43729812
-0.058908284 0.094910376 0.43718088
-0.058516823 0.094903439 0.43715933
-0.058090761 0.094839931 0.4368771
-0.057699986 0.094833545 0.436858
-0.05729124 0.094797358 0.43670151
-0.056895871 0.094782941 0.4366453
-0.056479089 0.094732434 0.43642268
-0.056074843 0.094702393 0.43629432
-0.055671375 0.094673261 0.43617004
-0.055271909 0.094650574 0.43607539
-0.054868564 0.094620883 0.4359484
-0.054477185 0.094611548 0.43591514
-0.054042362 0.09452609 0.43553111
-0.053669591 0.094548739 0.43564501
-0.053242102 0.094474606 0.43531302
-0.05285082 0.094464116 0.43527415
-0.052468009 0.094468728 0.43530479
-0.052052125 0.094413415 0.43505925
-0.051657379 0.094395906 0.43498781
-0.051244251 0.094344288 0.43475917
-0.050851088 0.09432894 0.43469754
-0.050436836 0.094273925 0.43445307
-0.050041463 0.094253615 0.43436846
-0.049648546 0.094237678 0.43430394
-0.049235765 0.094183482 0.43406299
-0.04884332 0.094167642 0.43399879
-0.04843862 0.094127744 0.43382362
-0.048054606 0.094127722 0.43383214
-0.047652025 0.094091035 0.43367162
-0.047280118 0.094114825 0.43378973
-0.046898551 0.094119623 0.43382028
-0.046516385 0.094123259 0.43384546
-0.046142958 0.094144821 0.43395314
-0.045779008 0.094186224 0.43415222
-0.016918296 0.091877602 0.42391333
-0.016546698 0.091895737 0.42399976
-0.016166484 0.091865763 0.42386413
-0.01578767 0.091842525 0.42375952
-0.015402347 0.091779344 0.42347059
-0.015028571 0.091783553 0.42349249
-0.014650686 0.091762237 0.42339656
-0.014276906 0.091766223 0.42341724
-0.013894772 0.091715261 0.42318437
-0.013514454 0.091673791 0.42299518
-0.0131407 0.091675773 0.42300645
-0.012761646 0.091639817 0.42284256
-0.012381507 0.09159366 0.4226315
-0.012003762 0.09156289 0.42249143
-0.011629499 0.091557577 0.42246872
-0.011250415 0.09151268 0.42226329
-0.010873401 0.091482133 0.422124
-0.010502623 0.091503754 0.4222253
-0.010119522 0.091415636 0.42182025
-0.0097471792 0.091421694 0.42184961
-0.0093704155 0.091385126 0.42168224
-0.0089939041 0.091348082 0.42151263
-0.0086198756 0.091334149 0.42144957
-0.0082459627 0.091320269 0.42138663
-0.0078718122 0.091302291 0.42130476
-0.0074966974 0.091270804 0.42116046
-0.0071226005 0.091249079 0.42106113
-0.0067484942 0.091224834 0.42095008
-0.0063743014 0.091196515 0.42082021
-0.006000788 0.091175027 0.42072174
-0.0056254272 0.091120794 0.42047212
-0.0052522295 0.091096386 0.42036006
-0.0048805755 0.091097102 0.42036381
-0.0045084278 0.091087952 0.42032203
-0.0041355724 0.0910616 0.42020071
-0.0037626538 0.091028526 0.42004836
-0.0033914202 0.091033436 0.42007121
-0.0022813298 0.091202289 0.42085046
-0.060516465 0.095391847 0.43755162
-0.060147122 0.095420755 0.43769485
-0.059755169 0.095413923 0.43767416
-0.059349019 0.09538421 0.43754837
-0.058937863 0.095345981 0.4373835
-0.058531657 0.095315322 0.43725327
-0.058133867 0.095298044 0.43718436
-0.05772398 0.095260583 0.43702278
-0.057315778 0.095225401 0.43687162
-0.056935802 0.095236979 0.43693483
-0.056512639 0.095175959 0.43666494
-0.056112286 0.095152803 0.43656874
-0.055687718 0.09508796 0.43628114
-0.055302184 0.095089331 0.43629733
-0.054907989 0.095075734 0.43624476
-0.054484643 0.0950111 0.43595791
-0.054095913 0.095006347 0.43594578
-0.053683076 0.094958879 0.43573755
-0.053272553 0.094914854 0.43554509
-0.052871961 0.094888009 0.43543133
-0.052478991 0.094874561 0.435379
-0.052093275 0.094874106 0.43538627
-0.051663961 0.094793655 0.43502632
-0.051278535 0.094793133 0.43503311
-0.050864067 0.094738513 0.43479156
-0.050468881 0.094719239 0.43471217
-0.050085183 0.094721407 0.43473107
-0.049685653 0.094693445 0.43461162
-0.049279045 0.094651431 0.43442765
-0.04885824 0.094581291 0.43411449
-0.048468508 0.094570667 0.4340744
-0.048085164 0.094572425 0.43409112
-0.047685292 0.094541453 0.43395752
-0.047285851 0.094510831 0.43382546
-0.046908952 0.094525136 0.43389958
-0.046530042 0.094535597 0.43395594
-0.04615223 0.094548486 0.43402341
-0.04577262 0.094557866 0.4340747
-0.045402907 0.094588049 0.43422139
-0.016925273 0.092291452 0.42407286
-0.016551707 0.092299558 0.42411292
-0.016172759 0.092277348 0.42401358
-0.015794817 0.092259973 0.42393631
-0.015417252 0.092243977 0.42386538
-0.01503522 0.092199825 0.42366496
-0.014658842 0.092188969 0.42361745
-0.014276538 0.092139311 0.42339161
-0.013900878 0.092130996 0.42335564
-0.013521574 0.092097417 0.42320353
-0.013141211 0.092054509 0.42300844
-0.012770078 0.092075646 0.42310756
-0.012388431 0.092019945 0.42285362
-0.012012804 0.092006914 0.42279559
-0.011636469 0.091987431 0.42270789
-0.011256389 0.091936097 0.4224737
-0.010881091 0.091921613 0.42240882
-0.010504054 0.091890916 0.42226931
-0.010130771 0.091892004 0.42227584
-0.0097498829 0.091821544 0.42195347
-0.0093733752 0.091788381 0.42180246
-0.0090033477 0.091818564 0.42194244
-0.0086256936 0.091770232 0.42172152
-0.0082511362 0.091751955 0.42163867
-0.0078726262 0.091685928 0.42133632
-0.0074985549 0.0916676 0.42125311
-0.0071265674 0.091674179 0.42128423
-0.0067509473 0.09163218 0.42109209
-0.0063785273 0.091631263 0.42108867
-0.0060033556 0.091588244 0.42089167
-0.0056290948 0.091554374 0.42073664
-0.0052552237 0.091522492 0.4205907
-0.0048822579 0.091502748 0.42050043
-0.0045099477 0.09149304 0.42045623
-0.0041371002 0.091469742 0.42034948
-0.0037637667 0.091430023 0.42016724
-0.0033937905 0.091472112 0.42036083
-0.0030222023 0.091475785 0.42037782
-0.002651463 0.091509804 0.42053419
-0.0022812036 0.091574207 0.4208301
-0.060165316 0.095837981 0.43781033
-0.059776518 0.095836379 0.43781364
-0.059383694 0.09582825 0.43778703
-0.058970861 0.095787533 0.43761146
-0.05858219 0.095785774 0.43761384
-0.058169417 0.095744319 0.43743476
-0.05777058 0.09572541 0.43735865
-0.057347883 0.095666431 0.43709937
-0.056949925 0.095648207 0.43702623
-0.056544393 0.095616922 0.43689337
-0.056129191 0.095568754 0.4366833
-0.055723976 0.095537037 0.43654826
-0.055327758 0.095520407 0.43648216
-0.0549105 0.095466956 0.43624771
-0.054539952 0.095494546 0.43638352
-0.054112304 0.095421836 0.43606091
-0.053719997 0.095410854 0.43602028
-0.053317364 0.09538123 0.43589446
-0.052915044 0.095351748 0.43576917
-0.052506089 0.095309794 0.43558678
-0.05209687 0.095266737 0.43539935
-0.051704079 0.095253296 0.43534717
-0.051295895 0.095211081 0.43516341
-0.050905496 0.0952015 0.43512872
-0.050486941 0.095138721 0.43485081
-0.050095383 0.095126219 0.43480268
-0.049697235 0.095100932 0.43469596
-0.049317237 0.095110245 0.43474737
-0.048918042 0.095082402 0.43462887
-0.048498962 0.095015153 0.43433017
-0.048099473 0.094985522 0.43420333
-0.047696281 0.094948046 0.43404055
-0.04730079 0.094925411 0.4339456
-0.04690817 0.094908215 0.43387538
-0.046533193 0.09492673 0.43396839
-0.046156678 0.094942391 0.43404824
-0.045779001 0.094955906 0.4341183
-0.045407899 0.094983406 0.43425214
-0.045054708 0.095049158 0.43456084
-0.017328076 0.092816204 0.42473561
-0.016941471 0.092756085 0.42446339
-0.016556654 0.09270326 0.42422441
-0.016180022 0.092694893 0.42418879
-0.015801528 0.092675194 0.42410126
-0.015422402 0.092650756 0.42399198
-0.015044172 0.092630617 0.42390224
-0.014665684 0.092607811 0.42380029
-0.014286637 0.092580207 0.42367631
-0.013906234 0.092542082 0.42350405
-0.013524177 0.092490546 0.42327037
-0.01315164 0.092503041 0.42332968
-0.012773124 0.092472985 0.42319411
-0.012392745 0.092427224 0.42298663
-0.012020305 0.092439651 0.4230454
-0.011637722 0.092372395 0.42273945
-0.011260625 0.092345662 0.42261881
-0.010888114 0.092355996 0.42266774
-0.010513299 0.092346832 0.42262739
-0.010133503 0.092291623 0.42237628
-0.0097553488 0.092247732 0.42217681
-0.0093809441 0.092237219 0.42213008
-0.0090046087 0.092206068 0.42198876
-0.0086328266 0.092220865 0.42205772
-0.0082549164 0.092168577 0.42181954
-0.0078762742 0.092102796 0.42151955
-0.0075026485 0.092092045 0.42147136
-0.0071275029 0.092060558 0.42132819
-0.0067544044 0.092053503 0.42129672
-0.0063809934 0.09204112 0.42124084
-0.0060076336 0.092028007 0.4211815
-0.0056335158 0.092000768 0.42105746
-0.0052570626 0.091928862 0.42072892
-0.0048848228 0.091925286 0.42071304
-0.0045109149 0.091887161 0.42053893
-0.004139021 0.0918869 0.4205381
-0.003766356 0.091867797 0.4204509
-0.0033950007 0.091879956 0.42050678
-0.0030233681 0.091886699 0.42053771
-0.0026516393 0.091892019 0.42056209
-0.059812117 0.096282043 0.43805733
-0.059387442 0.096222661 0.4377977
-0.059004735 0.096230946 0.43784583
-0.058600988 0.096204787 0.43773723
-0.058196738 0.096177474 0.43762326
-0.057778515 0.096126527 0.43740171
-0.057396598 0.096135706 0.43745366
-0.056977618 0.096082516 0.43722177
-0.056566849 0.096042536 0.43704987
-0.056170408 0.096026503 0.43698689
-0.055762965 0.095991328 0.43683672
-0.055359069 0.095961779 0.43671212
-0.054956373 0.095933914 0.43659511
-0.054558448 0.095914058 0.43651447
-0.054141011 0.095859364 0.43627521
-0.053741634 0.095836096 0.43617889
-0.053332068 0.095794186 0.43599769
-0.052925911 0.095757842 0.43584168
-0.052550551 0.095777102 0.43593869
-0.052136943 0.095726401 0.43571725
-0.051714558 0.095658705 0.43541837
-0.051339608 0.095678411 0.43551725
-0.05093164 0.095636413 0.43533519
-0.050526455 0.095599048 0.43517411
-0.050142404 0.095601395 0.43519375
-0.049718991 0.095528163 0.43486926
-0.049327377 0.095515348 0.43481976
-0.048928961 0.095489062 0.43470886
-0.048534475 0.095470086 0.43463117
-0.048137557 0.095445998 0.43453011
-0.047705431 0.095351145 0.4341068
-0.047343381 0.095395952 0.43431932
-0.046926387 0.095329873 0.4340269
-0.046538968 0.095323287 0.43400526
-0.046154011 0.09532167 0.43400615
-0.045780249 0.095343359 0.43411309
-0.045399245 0.095350206 0.43415236
-0.045029983 0.095382027 0.43430537
-0.044675212 0.095445357 0.43460175
-0.017334213 0.093225777 0.42487064
-0.016949229 0.093175068 0.42464238
-0.016566539 0.093134977 0.42446244
-0.016188199 0.093118034 0.4243879
-0.015805945 0.093077265 0.42420468
-0.015428955 0.093066253 0.42415705
-0.015051073 0.093049176 0.42408168
-0.014670658 0.093015186 0.42392915
-0.014294856 0.093009412 0.42390519
-0.013909957 0.092942566 0.42360276
-0.013532982 0.09292642 0.42353135
-0.013156862 0.092915408 0.42348322
-0.012780513 0.092902087 0.42342451
-0.012402645 0.092876576 0.42331022
-0.012022153 0.09282925 0.42309636
-0.011645542 0.092809774 0.42300943
-0.011271225 0.092807919 0.42300272
-0.01089527 0.092792004 0.42293182
-0.010512969 0.092718974 0.42260054
-0.010136868 0.092697263 0.42250308
-0.0097615197 0.09268105 0.42243063
-0.0093850819 0.092652805 0.4223032
-0.0090090353 0.092626229 0.42218339
-0.0086344825 0.092613384 0.42212602
-0.0082612531 0.092614226 0.422131
-0.0078820167 0.092544615 0.42181483
-0.0075082905 0.092536002 0.42177656
-0.0071313647 0.092485018 0.42154509
-0.0067554326 0.092441998 0.42134982
-0.0063828803 0.092442922 0.4213548
-0.0060093296 0.092428602 0.42129025
-0.0056329626 0.092366226 0.42100653
-0.0052601323 0.092357114 0.42096558
-0.004887809 0.092356212 0.42096192
-0.0045137112 0.09231887 0.4207921
-0.0041415468 0.092317939 0.4207882
-0.0037674273 0.092268929 0.4205651
-0.0033956254 0.0922722 0.42058018
-0.059829485 0.096698709 0.43816748
-0.059428371 0.096677609 0.43808237
-0.059037771 0.096673436 0.4380739
-0.058619138 0.096622996 0.43785575
-0.058214761 0.096595548 0.4377417
-0.057822175 0.096587434 0.43771511
-0.057415109 0.096554853 0.43757766
-0.057030875 0.096560493 0.43761337
-0.056609713 0.096503243 0.43736395
-0.05618608 0.096440993 0.4370918
-0.055789948 0.096425392 0.437031
-0.055382878 0.096390538 0.43688288
-0.05498245 0.096366838 0.43678525
-0.054582763 0.096344113 0.43669197
-0.05417908 0.096313968 0.43656495
-0.053764895 0.096264564 0.43635061
-0.053362854 0.096236363 0.4362323
-0.052966136 0.096217424 0.43615586
-0.052563503 0.096187375 0.43602902
-0.052168831 0.096171565 0.43596664
-0.051751856 0.096114084 0.43571532
-0.051355157 0.096093707 0.43563208
-0.05095065 0.096058279 0.43548059
-0.050565816 0.096059695 0.43549603
-0.050140355 0.095983364 0.43515894
-0.049746133 0.095966101 0.43508956
-0.049331501 0.095908903 0.43483904
-0.0489434 0.095902793 0.43482009
-0.048551671 0.095889412 0.43476811
-0.048159327 0.095874608 0.43470961
-0.047760978 0.09584751 0.43459526
-0.047357142 0.095808864 0.43442848
-0.046962414 0.095788166 0.43434304
-0.046563622 0.095758773 0.43421811
-0.046169985 0.095739588 0.43413937
-0.045787793 0.095744006 0.43416756
-0.045406297 0.095749959 0.43420273
-0.045037284 0.095782578 0.43435872
-0.044664212 0.095807046 0.43447766
-0.04429692 0.095844463 0.43465525
-0.017336311 0.093613811 0.42490658
-0.016960779 0.093615338 0.42491639
-0.016581733 0.093597114 0.4248364
-0.016198937 0.093556374 0.42465419
-0.015819348 0.093532667 0.42454919
-0.015434097 0.093473524 0.42428327
-0.015055832 0.093454808 0.42420077
-0.014678899 0.093443602 0.42415231
-0.01430109 0.093426101 0.42407519
-0.013922053 0.093399428 0.42395636
-0.013543649 0.093375631 0.42385051
-0.01316288 0.093333714 0.42366233
-0.012785849 0.093316644 0.42358685
-0.0124076 0.093289375 0.42346498
-0.012028094 0.09325067 0.42329121
-0.011651515 0.093232892 0.42321232
-0.01127383 0.093204811 0.42308655
-0.010896282 0.09317597 0.42295727
-0.010521125 0.093166262 0.42291477
-0.010140202 0.09310288 0.42262861
-0.0097623756 0.093064196 0.42245442
-0.009390316 0.093079589 0.42252564
-0.0090141753 0.093054138 0.42241138
-0.0086375363 0.09302111 0.4222627
-0.0082647344 0.093028322 0.42229649
-0.0078879073 0.092988744 0.42211795
-0.0075105918 0.092939205 0.42189407
-0.0071348632 0.092905164 0.42174044
-0.0067623588 0.092911653 0.42177075
-0.0063879043 0.092890561 0.42167577
-0.0060102064 0.092816778 0.42134151
-0.00563792 0.092822343 0.42136741
-0.0052642231 0.092803836 0.42128393
-0.004889091 0.09275528 0.42106399
-0.0045158896 0.092738397 0.42098773
-0.0041427487 0.092719816 0.42090374
-0.0037686632 0.092674375 0.42069769
-0.0033977965 0.092706807 0.42084512
-0.003025885 0.092715211 0.42088336
-0.059457209 0.097113341 0.43827787
-0.059071574 0.097117633 0.43830764
-0.058638602 0.097043626 0.43798405
-0.058249597 0.09704189 0.43798652
-0.057842497 0.097009785 0.43785188
-0.057445064 0.09699358 0.43778887
-0.057054449 0.09698873 0.43777713
-0.056625132 0.09691757 0.43746597
-0.056230236 0.09690477 0.43741816
-0.055796493 0.09682437 0.43706512
-0.055421799 0.096846044 0.4371728
-0.055014275 0.096810237 0.43702093
-0.054609619 0.096779004 0.43688968
-0.054200508 0.096739389 0.43672046
-0.053804774 0.096723251 0.43665713
-0.053384487 0.096662417 0.43639201
-0.052995868 0.096658453 0.43638355
-0.052584045 0.096611805 0.43618232
-0.052177764 0.096574724 0.43602416
-0.051778976 0.096551061 0.43592659
-0.051384676 0.096535467 0.43586534
-0.050985694 0.09651079 0.435763
-0.050590701 0.096493348 0.43569323
-0.050170749 0.096427649 0.43540558
-0.04977899 0.09641555 0.43535984
-0.049373206 0.09637589 0.43518955
-0.048981648 0.096363597 0.43514276
-0.048567813 0.096306928 0.43489555
-0.048163697 0.096268781 0.43473187
-0.047795068 0.096301526 0.4348883
-0.047382995 0.09624657 0.43464857
-0.046978816 0.096206866 0.43447766
-0.046588957 0.096196078 0.43443725
-0.046176594 0.096138254 0.43418437
-0.045791756 0.096137263 0.43418807
-0.04541713 0.096157849 0.43428922
-0.045037664 0.096168488 0.43434528
-0.044664543 0.096192956 0.43446377
-0.04429727 0.096230559 0.43464154
-0.018536249 0.094359659 0.42655063
-0.017347513 0.094051294 0.42516562
-0.016965993 0.094020993 0.42503148
-0.016589986 0.094020598 0.42503244
-0.01620161 0.093948446 0.42470896
-0.015834065 0.093996517 0.4249289
-0.015450763 0.093951143 0.42472625
-0.015066134 0.093895219 0.42447591
-0.014688963 0.093884118 0.42442814
-0.014305954 0.093834147 0.4242045
-0.013927083 0.093809351 0.42409468
-0.0135487 0.093786575 0.42399386
-0.013174932 0.093795352 0.42403561
-0.012792382 0.093740299 0.42378876
-0.012413329 0.093708329 0.42364615
-0.012034969 0.093679756 0.42351887
-0.011658065 0.09366104 0.42343608
-0.011278567 0.093619585 0.42325035
-0.010906259 0.093636997 0.42333069
-0.010526958 0.093593471 0.42313552
-0.01014905 0.093559593 0.42298386
-0.0097724712 0.093535855 0.42287797
-0.0093925204 0.093476661 0.42261171
-0.0090156887 0.093444906 0.42246941
-0.0086410586 0.093434215 0.42242229
-0.0082676047 0.093435846 0.42243078
-0.0078926375 0.093419731 0.42235902
-0.0075143245 0.093360446 0.42209196
-0.0071409396 0.093359388 0.42208815
-0.0067645935 0.093317397 0.42189908
-0.0063875569 0.093260415 0.42164221
-0.0060141813 0.093253128 0.42161
-0.0056411941 0.093251325 0.42160246
-0.0052671726 0.093230955 0.42151093
-0.0048922012 0.093189411 0.42132351
-0.0045188279 0.093173958 0.4212541
-0.0041444553 0.093133308 0.42107061
-0.0037709039 0.093104899 0.42094246
-0.0034013069 0.093178622 0.42127591
-0.0030280245 0.093157105 0.42117873
-0.059091028 0.097538576 0.43843481
-0.05868889 0.097515732 0.43834251
-0.058278982 0.097479582 0.43819031
-0.057876997 0.097456299 0.43809587
-0.057459317 0.097406089 0.43788034
-0.057067361 0.097399108 0.43785903
-0.056674458 0.097390406 0.43782991
-0.05626142 0.097346731 0.43764359
-0.055873115 0.097345553 0.43764818
-0.055446047 0.097276345 0.43734688
-0.055036124 0.097236462 0.43717733
-0.054619461 0.097184032 0.43695125
-0.05421944 0.097160652 0.43685579
-0.053835001 0.097165085 0.43688527
-0.053433634 0.097138792 0.43677658
-0.053031486 0.097110704 0.43665966
-0.052613296 0.097052597 0.43640777
-0.052215856 0.097032197 0.43632528
-0.051816661 0.097008206 0.43622667
-0.051407389 0.096964858 0.43604085
-0.051015157 0.096953213 0.43599758
-0.050607789 0.096912436 0.4358232
-0.050211251 0.096891925 0.4357399
-0.049802881 0.096848078 0.43555158
-0.049395841 0.096806161 0.43537188
-0.049001388 0.096788451 0.43530098
-0.048607826 0.096772224 0.43523666
-0.048171874 0.09667068 0.43478855
-0.047792353 0.096681654 0.43484643
-0.047423229 0.096714012 0.43500042
-0.04699121 0.096617594 0.43457514
-0.046601564 0.096607417 0.43453765
-0.046193123 0.096557789 0.43432266
-0.045808312 0.096557125 0.4343279
-0.045413703 0.096535645 0.43423936
-0.045043316 0.096565694 0.43438259
-0.044664867 0.096578859 0.43444976
-0.044292387 0.096605256 0.43457642
-0.04391671 0.096625097 0.43467352
-0.018535633 0.094734706 0.42652065
-0.018135397 0.09461493 0.42598444
-0.017739171 0.094511434 0.42552146
-0.017357301 0.094481573 0.42538992
-0.01697376 0.094441123 0.4252106
-0.016596369 0.094433829 0.42518052
-0.016212471 0.094388314 0.42497829
-0.015840417 0.094411239 0.42508408
-0.015453953 0.094347298 0.42479873
-0.015072021 0.094308533 0.42462665
-0.01469384 0.094291873 0.42455399
-0.014314002 0.09426342 0.42442819
-0.013933965 0.094232097 0.42428941
-0.013557571 0.094224341 0.42425668
-0.01317949 0.09420412 0.42416769
-0.012800419 0.094175406 0.42404044
-0.012419816 0.09413337 0.4238531
-0.012041993 0.094110444 0.42375174
-0.011663248 0.094078608 0.42361018
-0.011284746 0.094046682 0.42346817
-0.010908905 0.094035514 0.42341954
-0.010529476 0.09399154 0.42322305
-0.010151668 0.093959302 0.42307943
-0.0097776251 0.093960807 0.42308763
-0.0094036479 0.093963079 0.42309922
-0.0090236887 0.093903303 0.42283133
-0.0086452477 0.093854852 0.42261434
-0.0082707191 0.093846411 0.42257747
-0.0078957491 0.093831927 0.42251331
-0.0075213281 0.093822852 0.42247349
-0.0071418094 0.093745932 0.42212802
-0.0067674001 0.093731306 0.42206299
-0.0063925916 0.093709111 0.42196384
-0.0060173734 0.093677811 0.42182356
-0.0056442143 0.093676545 0.42181849
-0.0052694567 0.093646705 0.42168465
-0.004894434 0.093607254 0.42150748
-0.0045209117 0.093592368 0.42144087
-0.0041475045 0.093577415 0.42137384
-0.0037730031 0.093532391 0.4211714
-0.0034012243 0.093552418 0.42126176
-0.0030279572 0.093531393 0.42116717
-0.059116241 0.097969338 0.43860471
-0.058710478 0.097940631 0.43848655
-0.058313008 0.097925462 0.43842894
-0.057904236 0.097890988 0.43828481
-0.057510383 0.097881436 0.43825224
-0.057098206 0.097840376 0.43807846
-0.056688637 0.097803243 0.43792221
-0.056282952 0.097772345 0.43779382
-0.055882107 0.097749487 0.43770137
-0.055499718 0.097758822 0.43775296
-0.055065628 0.097676575 0.43739444
-0.054675158 0.097671099 0.43737957
-0.054261565 0.097623922 0.43717799
-0.053860608 0.097598985 0.43707582
-0.053448498 0.097553328 0.43688086
-0.05306251 0.097555026 0.43689784
-0.05265329 0.097513728 0.43672225
-0.052243285 0.097470343 0.43653727
-0.05183259 0.097425036 0.43634355
-0.051445358 0.097423464 0.43634564
-0.051029243 0.097366773 0.43610081
-0.050606988 0.097297393 0.43579906
-0.05024014 0.09733431 0.43597335
-0.049818538 0.097264893 0.4356713
-0.049433898 0.097267136 0.4356901
-0.049038354 0.097247772 0.43561208
-0.048625972 0.097194456 0.43538192
-0.048227984 0.09716928 0.43527776
-0.047826294 0.097136192 0.43513802
-0.047421951 0.097097129 0.43497151
-0.047040768 0.097105242 0.43501621
-0.04662773 0.097047187 0.43476447
-0.046246294 0.097054474 0.43480536
-0.045822054 0.096971318 0.43444097
-0.045424532 0.096943773 0.4343257
-0.04504944 0.096964024 0.43442443
-0.044666447 0.096967489 0.43444794
-0.044287108 0.096979022 0.43450749
-0.043911818 0.09699969 0.43460792
-0.043536823 0.097021371 0.43471283
-0.043171842 0.09706597 0.43492034
-0.018537644 0.095123224 0.4265511
-0.018140977 0.095021904 0.42609981
-0.017750718 0.094950512 0.42578268
-0.01736532 0.094902635 0.42557088
-0.016986646 0.0948902 0.42551792
-0.016606763 0.094870277 0.42543134
-0.01622442 0.09483505 0.42527607
-0.015844883 0.094814971 0.4251886
-0.015463896 0.09478502 0.42505679
-0.015080723 0.094739839 0.42485666
-0.014699242 0.094703257 0.42469499
-0.014320894 0.094685473 0.42461753
-0.013939899 0.094648764 0.42445517
-0.013565956 0.094659232 0.42450428
-0.013181058 0.094591692 0.42420343
-0.01280886 0.094613992 0.42430544
-0.012424433 0.09454459 0.42399615
-0.012042198 0.094488077 0.42374459
-0.01167023 0.094511069 0.42384952
-0.011289023 0.094458304 0.42361459
-0.010913895 0.094454519 0.42359927
-0.010538655 0.094449483 0.42357823
-0.010163289 0.094442889 0.42355013
-0.009778006 0.094340116 0.4230907
-0.0094026504 0.094328783 0.42304119
-0.0090272371 0.094315879 0.42298463
-0.0086488975 0.094269998 0.42278004
-0.0082718115 0.094234243 0.42262083
-0.0078987498 0.094243117 0.42266172
-0.0075227567 0.094216168 0.42254183
-0.007148311 0.09420681 0.42250076
-0.0067699733 0.09414231 0.42221233
-0.0063957348 0.094130605 0.42216063
-0.0060221092 0.094127044 0.42214531
-0.005645866 0.09407939 0.42193222
-0.0052699251 0.094030395 0.42171305
-0.0048974468 0.094040446 0.42175853
-0.0045220461 0.093991406 0.42153907
-0.0041481741 0.093968213 0.42143536
-0.0037749903 0.093957566 0.42138785
-0.0034014392 0.093934447 0.42128438
-0.058729988 0.098362327 0.43861496
-0.058334585 0.098350815 0.43857393
-0.057927489 0.098319292 0.43844357
-0.057522628 0.098291166 0.43832827
-0.057125226 0.098275498 0.43826848
-0.056721065 0.098247901 0.43815541
-0.05632158 0.098228082 0.438077
-0.055904828 0.098177664 0.43786201
-0.05550193 0.098151036 0.43775311
-0.055106979 0.098138206 0.43770561
-0.054694247 0.098093301 0.43751502
-0.054292563 0.098067708 0.43741047
-0.053881668 0.098024979 0.43722942
-0.053488705 0.098014504 0.43719217
-0.053096291 0.098004885 0.4371587
-0.052682016 0.097954489 0.4369432
-0.052273519 0.097914159 0.43677258
-0.05187263 0.097887598 0.4366633
-0.051477369 0.097871333 0.43659985
-0.051056638 0.097806022 0.43631759
-0.050655875 0.097778268 0.43620279
-0.050266754 0.097772725 0.436187
-0.049855601 0.097723931 0.43597814
-0.049449865 0.097685054 0.43581352
-0.049052928 0.097663097 0.43572429
-0.048647184 0.097623125 0.43555456
-0.048245069 0.097589843 0.43541467
-0.04784596 0.097562164 0.43529969
-0.047440439 0.097520858 0.4351238
-0.047057971 0.09752664 0.43515801
-0.046653301 0.097486138 0.43498558
-0.046249639 0.097447082 0.43481955
-0.045851417 0.097418934 0.43470213
-0.045447703 0.097378545 0.43452996
-0.045062665 0.097377814 0.43453473
-0.044671349 0.097363405 0.43447837
-0.04429014 0.09737096 0.43451995
-0.043911759 0.097384907 0.43459007
-0.043540191 0.097414345 0.43472919
-0.043159466 0.09742365 0.43477842
-0.04280211 0.097486362 0.43506587
-0.018936448 0.095609933 0.42701656
-0.018534813 0.095486887 0.42647013
-0.018141873 0.095404446 0.42610499
-0.017752193 0.095336027 0.42580235
-0.01737614 0.095339417 0.42582038
-0.016991198 0.095293097 0.42561629
-0.016611347 0.095273882 0.42553324
-0.016224427 0.095212281 0.42526078
-0.015852934 0.095240459 0.42538923
-0.015472109 0.095212586 0.42526725
-0.015089176 0.095170014 0.42507955
-0.014708715 0.095141277 0.42495355
-0.014326815 0.095101461 0.42477807
-0.013949189 0.095088668 0.42472312
-0.013570428 0.095067196 0.42462936
-0.013191378 0.095042422 0.42452082
-0.012810316 0.09500128 0.42433909
-0.012433676 0.094991453 0.42429709
-0.012050256 0.094927602 0.42401376
-0.011673666 0.094915181 0.42396009
-0.011297518 0.09490566 0.42391929
-0.010917401 0.094860993 0.4237214
-0.010540696 0.094843864 0.42364645
-0.010163337 0.094819367 0.42353854
-0.0097902128 0.094834037 0.42360547
-0.0094094444 0.094772883 0.42333364
-0.0090316413 0.094737738 0.42317799
-0.0086561833 0.094725266 0.42312345
-0.0082773976 0.094673581 0.4228937
-0.0079018967 0.094656371 0.42281792
-0.0075275893 0.094652459 0.42280141
-0.0071513476 0.094622552 0.4226687
-0.0067732483 0.094563417 0.42240539
-0.0063978117 0.094536737 0.42228699
-0.0060260398 0.094564244 0.42241058
-0.005649758 0.094519958 0.42221335
-0.0052742618 0.094483495 0.42205101
-0.004898706 0.094440326 0.42185864
-0.0045248359 0.094425231 0.42179161
-0.0041503902 0.094394326 0.4216539
-0.0037762136 0.094364069 0.42151901
-0.0034058332 0.094432458 0.42182463
-0.003034587 0.094490714 0.42208499
-0.058381382 0.098819129 0.4389084
-0.057977132 0.098792881 0.43880197
-0.057579499 0.0987776 0.43874431
-0.057155643 0.098716855 0.43848452
-0.056749746 0.098686486 0.43835965
-0.056330215 0.098631844 0.43812683
-0.055924114 0.098600104 0.43799576
-0.055515796 0.098563999 0.43784514
-0.055137865 0.098581716 0.43793362
-0.054726742 0.098539911 0.43775758
-0.054339141 0.098540187 0.43776837
-0.053917732 0.09847869 0.43750474
-0.053523876 0.098467015 0.4374623
-0.053096175 0.098392442 0.43714041
-0.052713808 0.098401397 0.43718952
-0.052291919 0.098336175 0.43690899
-0.051897902 0.098322779 0.43685868
-0.051507626 0.098316319 0.43683913
-0.051077247 0.098232649 0.43647641
-0.050689541 0.098230392 0.43647534
-0.050298899 0.098222367 0.4364486
-0.049893867 0.098185897 0.43629542
-0.04950317 0.098177299 0.43626601
-0.049075879 0.098095402 0.43591079
-0.048681784 0.098079108 0.43584704
-0.048278611 0.098044105 0.43570003
-0.047857806 0.097972453 0.43539014
-0.047459316 0.097945698 0.43527964
-0.047084611 0.097967982 0.43538705
-0.046678841 0.097925462 0.43520638
-0.046288382 0.097914636 0.43516651
-0.045879491 0.097864293 0.43495092
-0.045464519 0.097800046 0.43467346
-0.045075346 0.097790644 0.43463969
-0.044671979 0.097750045 0.4344672
-0.044293232 0.097763076 0.434533
-0.043915886 0.09777946 0.43461359
-0.043533128 0.09778396 0.43464136
-0.043154862 0.09779875 0.43471476
-0.042783566 0.097829722 0.43486005
-0.042415909 0.097869664 0.43504512
-0.019330427 0.096069254 0.42735618
-0.018939402 0.096003585 0.42706722
-0.018535553 0.095868915 0.42647126
-0.018152291 0.09583734 0.42633384
-0.017765669 0.095786311 0.42610979
-0.017382601 0.095752671 0.42596301
-0.017001949 0.095731109 0.42586994
-0.016618209 0.095690824 0.42569348
-0.016238295 0.095671192 0.42560878
-0.015859822 0.095659323 0.4255586
-0.015477258 0.095621623 0.42539337
-0.015094246 0.095579192 0.42520708
-0.0147176 0.095575951 0.42519504
-0.014337577 0.09555003 0.42508203
-0.013955837 0.095510975 0.42491049
-0.013576915 0.095489576 0.42481747
-0.013199417 0.095477253 0.42476475
-0.012820422 0.095453069 0.42465916
-0.012439739 0.095414482 0.42448941
-0.012061284 0.095391132 0.42438737
-0.011680302 0.095345646 0.42418683
-0.011299944 0.095302396 0.42399612
-0.010925915 0.095311411 0.42403784
-0.010548575 0.095291138 0.42394924
-0.010168032 0.095239401 0.42372054
-0.0097913882 0.095221609 0.42364284
-0.0094127133 0.095181875 0.4234674
-0.009037598 0.095176339 0.42344403
-0.008658791 0.095129766 0.42323804
-0.0082828617 0.095112056 0.42316034
-0.0079055419 0.095075928 0.42300069
-0.0075285397 0.095040232 0.42284283
-0.0071540228 0.095033824 0.4228152
-0.0067771589 0.094993815 0.42263806
-0.0064009032 0.094958171 0.42248026
-0.0060277022 0.09496624 0.42251685
-0.005652193 0.094936609 0.42238563
-0.0052768867 0.094906442 0.42225194
-0.0049013174 0.094866604 0.42207515
-0.0045266906 0.094839945 0.42195693
-0.0041535711 0.094842926 0.42197055
-0.0037795177 0.09482307 0.42188245
-0.0034061561 0.094818138 0.42186069
-0.0030346767 0.094870843 0.4220953
-0.058407724 0.099253327 0.43908906
-0.058000874 0.099222824 0.43896431
-0.057619553 0.099235855 0.43903211
-0.057184894 0.099156603 0.43869153
-0.056765642 0.099103153 0.43846503
-0.056381222 0.099110201 0.43850616
-0.055969559 0.099069126 0.43833426
-0.055549331 0.099012211 0.43809229
-0.055158604 0.099007443 0.43808091
-0.054742817 0.098957315 0.43786877
-0.054341525 0.09893287 0.43777016
-0.053953629 0.098932624 0.43777862
-0.053535074 0.098875754 0.43753645
-0.053144604 0.098870307 0.4375217
-0.052719295 0.098799482 0.43721765
-0.052326042 0.098788142 0.4371767
-0.051928334 0.09876816 0.43709743
-0.051521558 0.09873049 0.4369399
-0.051107351 0.098677911 0.43671623
-0.050723899 0.098684378 0.43675381
-0.050323877 0.098658457 0.43664798
-0.049916569 0.098617718 0.43647653
-0.049501207 0.098560318 0.43623126
-0.049113642 0.098557808 0.43622887
-0.048715975 0.098534822 0.43613574
-0.04831063 0.098495811 0.43597165
-0.04790746 0.098460637 0.43582448
-0.04748641 0.098387845 0.43551072
-0.047102366 0.09839119 0.43553385
-0.046707682 0.098372176 0.43545794
-0.046302304 0.098330118 0.43528
-0.045881819 0.098255016 0.43495569
-0.045502115 0.098266691 0.43501547
-0.045095541 0.098220073 0.43481708
-0.04470123 0.098199576 0.43473431
-0.044300508 0.098164529 0.434587
-0.043915056 0.098162986 0.43458799
-0.043535039 0.0981737 0.43464312
-0.04316109 0.098198391 0.43476012
-0.042777501 0.098201402 0.43478104
-0.042403877 0.098227546 0.43490437
-0.042031936 0.098258115 0.43504715
-0.019329848 0.096445359 0.42732731
-0.018938718 0.096378855 0.42703584
-0.018542292 0.096282117 0.42661035
-0.018160788 0.096260488 0.42651752
-0.017775962 0.096219964 0.42634091
-0.017396076 0.096204989 0.42627746
-0.017013969 0.096176796 0.42615536
-0.016628327 0.096126899 0.42593697
-0.016247004 0.096100226 0.42582148
-0.015861314 0.096045852 0.42558315
-0.01548587 0.096052401 0.42561468
-0.015105175 0.096025892 0.42549968
-0.014724246 0.095996514 0.42537186
-0.01433978 0.095941916 0.42513224
-0.013964218 0.095945559 0.4251506
-0.013581882 0.095901586 0.42495793
-0.01320405 0.09588781 0.42489895
-0.012824718 0.095862031 0.42478672
-0.012445156 0.095832929 0.4246597
-0.012067285 0.095815443 0.42458409
-0.011689702 0.095799185 0.42451379
-0.011308394 0.095750324 0.42429903
-0.010931416 0.095736034 0.42423731
-0.010551596 0.095694944 0.42405683
-0.010175084 0.09568195 0.42400074
-0.0097933356 0.095616847 0.42371362
-0.0094170813 0.095602326 0.42365062
-0.009042141 0.095600508 0.42364386
-0.0086632632 0.095555104 0.42344388
-0.0082873693 0.095540017 0.42337811
-0.0079106987 0.095514089 0.42326432
-0.0075340401 0.095485777 0.42313981
-0.0071574096 0.095454887 0.42300382
-0.0067801839 0.09541221 0.42281553
-0.0064047785 0.095391661 0.42272526
-0.0060302438 0.095382355 0.42268467
-0.0056549911 0.09535972 0.42258495
-0.0052810907 0.09535829 0.42257923
-0.004905913 0.095331855 0.42246249
-0.0045287274 0.095258817 0.42213926
-0.0041549872 0.095251657 0.42210782
-0.0037817657 0.09525615 0.42212799
-0.0034066471 0.095208623 0.42191756
-0.058414996 0.099655353 0.43912631
-0.058030196 0.099662676 0.43916878
-0.057631429 0.099645942 0.43910518
-0.057223629 0.099613264 0.43897125
-0.056814689 0.09957815 0.43882647
-0.056403879 0.099539228 0.43866491
-0.056006886 0.099524349 0.43860915
-0.055586666 0.099467687 0.43836927
-0.055180475 0.099435508 0.43823719
-0.054773655 0.099401742 0.43809798
-0.054378234 0.099388324 0.43804842
-0.053980846 0.099371091 0.43798202
-0.053558283 0.099306934 0.43770865
-0.053158641 0.099284656 0.43761984
-0.052748665 0.099242598 0.43744379
-0.052343309 0.099208668 0.43730348
-0.051945772 0.099189177 0.43722674
-0.051538777 0.099151202 0.43706846
-0.051145222 0.099138699 0.43702239
-0.050749939 0.099122636 0.43696055
-0.050343674 0.099084713 0.43680227
-0.049954358 0.099079803 0.43678948
-0.049520999 0.098986812 0.43638828
-0.049130578 0.098978847 0.43636185
-0.04872714 0.098944314 0.43621823
-0.048322733 0.098907255 0.43606344
-0.04793261 0.098899074 0.43603584
-0.047528915 0.098862536 0.43588313
-0.047134604 0.098845072 0.4358145
-0.046740305 0.098827332 0.43574458
-0.046325717 0.098766074 0.43548271
-0.045942727 0.098771699 0.43551564
-0.045533288 0.098720081 0.43529612
-0.045133997 0.098689765 0.43517047
-0.044734966 0.098659515 0.43504497
-0.044330683 0.098617047 0.43486559
-0.043934215 0.098591387 0.43476021
-0.043541633 0.098574057 0.43469155
-0.043162975 0.098588236 0.4347617
-0.042778704 0.098589726 0.43477589
-0.042397641 0.098598711 0.43482301
-0.042022079 0.098620765 0.43492773
-0.041644324 0.098638035 0.4350113
-0.041267984 0.098659009 0.43511111
-0.019335652 0.096853405 0.42743951
-0.018940335 0.096765831 0.42705619
-0.018553864 0.096720815 0.42686063
-0.018163912 0.096655414 0.42657498
-0.017787265 0.096659526 0.42659611
-0.017400166 0.096605793 0.42636186
-0.017021677 0.096598543 0.42633268
-0.016639095 0.096567221 0.42619717
-0.016256662 0.096535325 0.42605904
-0.015870033 0.096476406 0.4258016
-0.015493427 0.096477054 0.42580697
-0.015115936 0.096472085 0.42578748
-0.014731422 0.096420884 0.42556387
-0.014349601 0.096385084 0.42540821
-0.013966214 0.096336581 0.42519632
-0.013588748 0.09632735 0.42515776
-0.013211227 0.096317217 0.42511508
-0.012828252 0.096265532 0.424889
-0.012450788 0.096253365 0.42483723
-0.012073251 0.096239857 0.42477944
-0.011690772 0.09618482 0.42453831
-0.01131608 0.09619233 0.42457315
-0.010936352 0.096156083 0.42441478
-0.010557245 0.096122906 0.42426991
-0.010179147 0.096096814 0.42415631
-0.0097987782 0.096046485 0.42393559
-0.0094215795 0.096024446 0.42383963
-0.0090434253 0.095990472 0.42369092
-0.008667117 0.095973983 0.42361936
-0.0082907323 0.095955133 0.42353725
-0.007914233 0.095933102 0.42344111
-0.0075380253 0.095912613 0.42335162
-0.0071631153 0.095907375 0.42332938
-0.0067835222 0.09583538 0.42301247
-0.0064070802 0.095802099 0.42286634
-0.0060312385 0.095774248 0.42274404
-0.0056568007 0.095766477 0.42271039
-0.0052823545 0.09575747 0.42267117
-0.0049082497 0.095753767 0.42265531
-0.0045322627 0.095709711 0.42246121
-0.0041578119 0.095693089 0.4223882
-0.0037836372 0.0956802 0.42233151
-0.0034120507 0.0957371 0.42258286
-0.057647679 0.10006376 0.43921149
-0.057240631 0.10003247 0.43908417
-0.056828413 0.099991664 0.43891501
-0.056440108 0.09999264 0.4389292
-0.056031231 0.099956937 0.43878233
-0.055607568 0.099894166 0.43851656
-0.055212881 0.099882945 0.43847701
-0.05480228 0.099842578 0.43830946
-0.054403681 0.099823646 0.43823594
-0.053990528 0.099777542 0.43804306
-0.053582147 0.099739671 0.43788621
-0.05318879 0.099729404 0.43785051
-0.052800823 0.099729173 0.43785879
-0.052388672 0.09968292 0.43766499
-0.051962566 0.099609248 0.43735066
-0.051570974 0.099601097 0.43732399
-0.051158164 0.099551558 0.43711552
-0.050769117 0.099547841 0.43710816
-0.050370313 0.099524796 0.43701586
-0.049965657 0.099489748 0.43687078
-0.049550001 0.099432081 0.43662634
-0.049148872 0.09940289 0.43650684
-0.048763938 0.09940625 0.43653017
-0.048357867 0.099366225 0.43636301
-0.047950614 0.099323101 0.43618214
-0.04755231 0.099297985 0.43608019
-0.047162019 0.099289313 0.43605047
-0.046744812 0.099223375 0.43576917
-0.046352729 0.099210121 0.43571913
-0.045959748 0.099194691 0.43565953
-0.045541875 0.099124826 0.43536073
-0.045165669 0.099145234 0.43545836
-0.044760015 0.099100791 0.43527111
-0.044354163 0.099055156 0.4350785
-0.043945089 0.099001445 0.43485036
-0.043553151 0.098985739 0.43478909
-0.043160077 0.098967142 0.43471506
-0.042777553 0.098972633 0.43474677
-0.042395744 0.098979883 0.43478611
-0.042017989 0.098996818 0.43486795
-0.041642055 0.099018402 0.43497011
-0.041253492 0.099010073 0.43494084
-0.040886175 0.09905307 0.43513697
-0.020514436 0.097442709 0.42833737
-0.020131299 0.097422667 0.4282527
-0.019725526 0.097290203 0.4276737
-0.019329393 0.097201034 0.42728502
-0.018947581 0.097181775 0.42720348
-0.018557305 0.097117431 0.42692372
-0.018176414 0.097100563 0.42685264
-0.017794015 0.09707474 0.42674205
-0.017412474 0.097052604 0.4266476
-0.017026823 0.097006038 0.42644575
-0.016645247 0.096981138 0.42633903
-0.016261015 0.096939236 0.42615747
-0.015884098 0.096940003 0.42616343
-0.015497941 0.096883044 0.42591554
-0.015118994 0.096869446 0.4258582
-0.014736027 0.096828744 0.42568162
-0.014355837 0.096804619 0.42557788
-0.013973754 0.096766099 0.42541075
-0.013594694 0.096746959 0.42532873
-0.013219737 0.096756764 0.42537397
-0.012843207 0.096755318 0.42536956
-0.012469245 0.096773699 0.42545229
-0.010561679 0.096540175 0.42443421
-0.010184084 0.096520282 0.42434824
-0.0098042469 0.096476823 0.42415857
-0.0094263013 0.096449248 0.42403871
-0.0090448316 0.096381851 0.42374367
-0.0086704632 0.09638758 0.42377004
-0.0082929172 0.096356906 0.42363626
-0.0079166237 0.096338563 0.42355672
-0.0075411433 0.096328795 0.42351475
-0.0071648052 0.096306495 0.4234176
-0.0067884387 0.09628132 0.42330775
-0.0064100013 0.09622214 0.42304829
-0.0060344506 0.096201636 0.42295885
-0.0056590014 0.096180171 0.42286509
-0.0052834474 0.096153758 0.42274949
-0.0049109021 0.096182249 0.42287526
-0.0045343526 0.09613058 0.42264846
-0.0041590454 0.096098319 0.42250693
-0.0037863036 0.096124835 0.42262375
-0.057280902 0.10049275 0.43937555
-0.05686488 0.10044552 0.43917903
-0.056476884 0.10044751 0.43919763
-0.056053989 0.10038701 0.438943
-0.055643409 0.10034789 0.43878168
-0.055237647 0.10031696 0.43865615
-0.05483707 0.10029509 0.43857017
-0.054430608 0.10026205 0.43843526
-0.054022454 0.10022541 0.43828452
-0.053623728 0.10020586 0.43820846
-0.053233203 0.10020147 0.43819857
-0.052814893 0.10014431 0.43795794
-0.052393463 0.10008036 0.43768746
-0.051973924 0.10001908 0.43742865
-0.051605366 0.10005574 0.43759808
-0.051193353 0.10000806 0.43739858
-0.050778184 0.099953443 0.43716866
-0.050376844 0.099925421 0.43705499
-0.049981982 0.099909917 0.43699601
-0.04959479 0.099909633 0.43700349
-0.049182221 0.099857792 0.43678546
-0.048780937 0.099828258 0.43666482
-0.048386194 0.099811718 0.43660101
-0.047964048 0.099737942 0.43628681
-0.047573719 0.099729665 0.436259
-0.04717255 0.09969835 0.43613034
-0.046775471 0.099675223 0.43603748
-0.046376023 0.099646628 0.43592057
-0.045975149 0.099614456 0.43578795
-0.045567296 0.099566504 0.43558621
-0.045183327 0.099570364 0.43561107
-0.044784591 0.099541478 0.43549263
-0.044356611 0.099446513 0.435085
-0.043986615 0.099481024 0.43524379
-0.043586418 0.099447243 0.43510368
-0.04317721 0.099392116 0.43487012
-0.042783279 0.099371493 0.43478745
-0.042398725 0.099372461 0.43479919
-0.042019177 0.099385284 0.43486276
-0.041635413 0.099388301 0.43488327
-0.041251253 0.099390402 0.43489981
-0.040873475 0.099408068 0.43498433
-0.040495213 0.099424884 0.43506506
-0.040122326 0.099455364 0.43520552
-0.02091358 0.097916938 0.42873058
-0.020528577 0.097890027 0.42861629
-0.020135025 0.097820595 0.42831561
-0.019723611 0.09766005 0.42761597
-0.019344054 0.097654037 0.4275929
-0.018948283 0.097564317 0.42720321
-0.018569555 0.097560488 0.42718953
-0.018185927 0.097530201 0.42705998
-0.01779896 0.097480372 0.42684472
-0.01741433 0.09744145 0.42667717
-0.017038535 0.097451352 0.42672333
-0.016652826 0.097403698 0.42651737
-0.016267771 0.097357757 0.42631888
-0.015888512 0.097345136 0.42626619
-0.01551171 0.097347349 0.42627841
-0.015126479 0.097295448 0.42605355
-0.014744068 0.097259507 0.42589852
-0.014363177 0.097231954 0.42578018
-0.01398449 0.097218253 0.42572242
-0.013605501 0.09720163 0.42565176
-0.013236441 0.09725704 0.4258965
-0.0098122405 0.09693253 0.42449078
-0.0094324769 0.096889384 0.42430314
-0.0090526948 0.096842438 0.42409885
-0.0086741438 0.0968052 0.42393696
-0.0082955025 0.096763551 0.42375568
-0.0079199923 0.096756198 0.42372453
-0.0075463164 0.09677165 0.4237932
-0.0071709426 0.096765824 0.42376858
-0.0067931064 0.096724287 0.42358753
-0.0064159124 0.0966876 0.42342758
-0.0060389061 0.096649356 0.42326078
-0.0056605209 0.096582539 0.4229688
-0.0052863085 0.096582517 0.42296925
-0.0049116788 0.096574292 0.42293373
-0.0045363354 0.096549541 0.42282566
-0.0041606124 0.096511543 0.42265958
-0.0037859888 0.096494049 0.42258322
-0.056895107 0.10088883 0.43939489
-0.056487277 0.10085579 0.43926087
-0.056089487 0.10084032 0.43920338
-0.055662472 0.10077174 0.43891442
-0.055265497 0.10075697 0.43885973
-0.054859191 0.10072485 0.43872947
-0.054454517 0.10069527 0.43861023
-0.054042447 0.10065152 0.43842915
-0.053649481 0.10064296 0.43840131
-0.053244837 0.10061222 0.43827671
-0.052846722 0.10059346 0.43820426
-0.052432112 0.10054278 0.43799275
-0.05204137 0.10053747 0.43797871
-0.051632732 0.10049723 0.43781257
-0.051229123 0.10046624 0.43768659
-0.050805591 0.10039544 0.43738705
-0.050401665 0.10036256 0.43725273
-0.050011855 0.10035754 0.43723959
-0.049603123 0.10031414 0.43705925
-0.049197447 0.10027629 0.43690306
-0.04881335 0.10028218 0.43693736
-0.048416965 0.10026272 0.43686113
-0.047995854 0.10019134 0.43655851
-0.047600526 0.10017306 0.43648726
-0.04719485 0.10013252 0.43631893
-0.046793472 0.10010049 0.43618765
-0.046399999 0.100085 0.43612832
-0.046008669 0.1000739 0.43608809
-0.045608718 0.10004371 0.43596461
-0.045212112 0.10002042 0.43587106
-0.044824265 0.10001625 0.43586081
-0.044391245 0.099910356 0.43540713
-0.044011597 0.099923775 0.43547341
-0.04361172 0.099891096 0.43533871
-0.043201979 0.099835053 0.43510208
-0.042800669 0.099797636 0.4349466
-0.042407896 0.099779658 0.4348757
-0.0420168 0.099765316 0.43482062
-0.041633371 0.099769086 0.43484443
-0.041252404 0.099778883 0.43489438
-0.040868048 0.099780589 0.43490902
-0.040486693 0.099789731 0.43495604
-0.040105235 0.099798791 0.43500262
-0.039729048 0.09982127 0.43510762
-0.039340999 0.099814102 0.43508327
-0.021307742 0.098365515 0.42900857
-0.020923469 0.098343678 0.42891687
-0.020521786 0.098237686 0.42845806
-0.020131763 0.098184593 0.4282299
-0.019734398 0.098092958 0.42783353
-0.019341771 0.098021761 0.42752621
-0.018961919 0.098013759 0.42749447
-0.018581461 0.09800221 0.42744726
-0.018194878 0.097957239 0.42725411
-0.01781776 0.097962394 0.42727953
-0.017430941 0.097913295 0.42706823
-0.017044993 0.097867005 0.42686915
-0.016663752 0.097846255 0.42678139
-0.016281253 0.097817004 0.42665642
-0.015896482 0.097772375 0.42646438
-0.015513759 0.097738504 0.42631912
-0.015134546 0.0977256 0.4262653
-0.014751789 0.097688578 0.42610615
-0.014375903 0.097696297 0.42614213
-0.013998534 0.097694084 0.42613471
-0.0086749792 0.097191282 0.42396486
-0.0083013261 0.097208358 0.42404041
-0.0079217404 0.097154312 0.42380568
-0.0075461287 0.097146034 0.42377061
-0.0071701175 0.097131491 0.42370805
-0.0067951321 0.09713003 0.42370248
-0.0064192335 0.097114578 0.42363584
-0.0060433419 0.097097337 0.4235613
-0.0056657456 0.097048618 0.42334941
-0.0052897227 0.097021863 0.42323324
-0.0049130674 0.09697856 0.4230448
-0.0045373146 0.096947409 0.42290929
-0.0041638217 0.096963309 0.42297897
-0.0037904538 0.096985541 0.42307621
-0.056514885 0.10129507 0.43945792
-0.056122202 0.10128911 0.43944189
-0.055699863 0.10122917 0.43919161
-0.055312268 0.10123198 0.43921351
-0.054886561 0.10116459 0.43893072
-0.0544861 0.10114309 0.43884698
-0.054100577 0.10114922 0.43888307
-0.053684123 0.10109717 0.4386667
-0.053275116 0.10105853 0.4385083
-0.052872024 0.1010306 0.43839642
-0.05245091 0.10096756 0.43813208
-0.052060816 0.10096376 0.43812472
-0.051680651 0.10097928 0.43820116
-0.051266104 0.10092738 0.43798491
-0.050858542 0.10088852 0.43782526
-0.050439339 0.1008258 0.43756193
-0.050027024 0.10077598 0.43735453
-0.049630102 0.10075665 0.43727931
-0.049236365 0.10074352 0.43723103
-0.048843347 0.10073166 0.43718818
-0.048433378 0.10068439 0.43699154
-0.048030697 0.10065162 0.43685779
-0.04761989 0.10060116 0.43664715
-0.047219794 0.10057268 0.4365319
-0.046814512 0.10053261 0.43636617
-0.046428747 0.10053413 0.43638095
-0.046030331 0.10050803 0.43627581
-0.045615103 0.1004445 0.43600807
-0.045222051 0.10042911 0.43594921
-0.044827327 0.10040972 0.43587297
-0.04442485 0.10037249 0.43571919
-0.044026598 0.10034423 0.43560424
