# .PCD v0.7 - Point Cloud Data file format
VERSION 0.7
FIELDS x y z
SIZE 4 4 4
TYPE F F F
COUNT 1 1 1
WIDTH 1350
HEIGHT 1
VIEWPOINT 0 0 0 1 0 0 0
POINTS 1350
DATA ascii
-0.06495548 0.054981966 0.40130946
-0.064595111 0.054977052 0.40128598
-0.064230651 0.054968599 0.40123659
-0.063855678 0.054950994 0.40112039
-0.063494772 0.054945372 0.40109158
-0.063143402 0.054947987 0.40112281
-0.062793545 0.054951955 0.40116385
-0.062443703 0.054955978 0.40120527
-0.062096808 0.054962657 0.40126598
-0.061755411 0.054974306 0.40136299
-0.11141247 0.057538662 0.41535586
-0.11108022 0.057557512 0.41551051
-0.11074963 0.05757736 0.4156723
-0.1102775 0.057523511 0.41530198
-0.10985506 0.057495296 0.41511673
-0.10958261 0.057545669 0.41549885
-0.10913444 0.057503786 0.41521478
-0.10872925 0.05748434 0.41509274
-0.10456153 0.057219084 0.41335797
-0.10421363 0.057229355 0.41345003
-0.10379098 0.057198517 0.41324505
-0.10339323 0.057181221 0.41313788
-0.10304188 0.05718955 0.41321579
-0.10261276 0.057154622 0.41298118
-0.10221446 0.057136673 0.41286916
-0.10182244 0.057122119 0.41278163
-0.10139612 0.057088159 0.41255373
-0.10101707 0.057080645 0.41251704
-0.10064188 0.057075284 0.41249576
-0.10023034 0.057049178 0.41232455
-0.099807017 0.05701616 0.4121033
-0.099457733 0.057025351 0.4121871
-0.09901984 0.05698362 0.41190273
-0.098630317 0.056969516 0.41181806
-0.098199673 0.056931466 0.41156024
-0.097819999 0.056922793 0.4115147
-0.0974328 0.056909662 0.41143689
-0.097033329 0.056889236 0.41130632
-0.096609026 0.056854047 0.41106892
-0.096262552 0.05686456 0.41116193
-0.09582749 0.056822624 0.41087568
-0.095417209 0.05679512 0.41069368
-0.095032454 0.056782663 0.41062042
-0.094675094 0.056786545 0.41066527
-0.09425088 0.056750193 0.41041917
-0.093865432 0.056736998 0.41034046
-0.093452342 0.056706928 0.41013959
-0.093087398 0.056705948 0.4101491
-0.092641324 0.056655347 0.4097997
-0.092243358 0.056633886 0.40966091
-0.09189783 0.056644578 0.40975472
-0.091519654 0.056635156 0.40970296
-0.091082826 0.056589212 0.40938696
-0.09067864 0.056563269 0.40921557
-0.090299591 0.056552857 0.40915647
-0.089902215 0.05653083 0.40901333
-0.089505278 0.05650891 0.40887088
-0.089126356 0.056498237 0.40880975
-0.088766702 0.056499735 0.4088366
-0.088357322 0.056469467 0.40863362
-0.087956861 0.056444675 0.40847015
-0.087559961 0.056421962 0.40832168
-0.087183326 0.056412198 0.40826681
-0.086794198 0.056394219 0.40815249
-0.086409763 0.056379154 0.40805918
-0.086028412 0.056365978 0.40797952
-0.08564534 0.056351569 0.40789083
-0.085224122 0.056311827 0.40761873
-0.084813878 0.056279041 0.40739694
-0.084442258 0.056271706 0.40735927
-0.084078968 0.056269873 0.40736145
-0.083683006 0.05624608 0.40720454
-0.08328066 0.056217771 0.40701488
-0.082897142 0.056201965 0.40691572
-0.082514293 0.056186493 0.40681887
-0.082149126 0.056182969 0.4068085
-0.081751391 0.056157056 0.40663594
-0.081386663 0.056153677 0.40662652
-0.080970392 0.056114554 0.40635815
-0.080554292 0.056075204 0.40608808
-0.080203943 0.056081463 0.40614828
-0.079819754 0.056064021 0.40603676
-0.079445951 0.05605375 0.4059771
-0.079070956 0.056042533 0.40591058
-0.078659266 0.056005094 0.40565401
-0.078256808 0.05597391 0.40544274
-0.077874057 0.05595661 0.40533191
-0.077500306 0.055945639 0.40526691
-0.077148832 0.055950735 0.4053182
-0.076753855 0.055924162 0.40514007
-0.076393105 0.055922411 0.40514165
-0.075938985 0.055851966 0.40464553
-0.075587891 0.055856984 0.40469605
-0.075232185 0.055858627 0.40472206
-0.074878402 0.055861726 0.40475857
-0.074505374 0.055850424 0.40469071
-0.074164473 0.05586322 0.40479735
-0.073791139 0.055851586 0.40472692
-0.073423766 0.055844374 0.40468851
-0.073008455 0.055800449 0.40438393
-0.072614416 0.055772435 0.40419462
-0.072236329 0.05575645 0.40409243
-0.071816221 0.055707727 0.40375286
-0.071404204 0.055664815 0.40345535
-0.071022563 0.055645265 0.40332711
-0.070681192 0.055657241 0.4034273
-0.07027185 0.055615537 0.40313837
-0.069891661 0.055596597 0.4030143
-0.069515824 0.055580944 0.40291411
-0.069115415 0.05554539 0.40266949
-0.068739027 0.055528868 0.40256277
-0.068357371 0.055507887 0.40242371
-0.067997649 0.055504601 0.40241283
-0.067621857 0.055488098 0.40230608
-0.067245543 0.055470981 0.40219483
-0.066856965 0.055443518 0.40200847
-0.066501051 0.055442996 0.40201738
-0.066107288 0.055410739 0.40179613
-0.065720908 0.055384364 0.4016175
-0.065352976 0.05537333 0.40154997
-0.065000325 0.0553752 0.40157595
-0.064617991 0.055351645 0.40141758
-0.06424512 0.055335999 0.4013164
-0.063882187 0.055328783 0.40127635
-0.063512512 0.05531561 0.40119302
-0.063155785 0.055313636 0.40119085
-0.062806986 0.055318616 0.40123907
-0.062450018 0.05531643 0.40123522
-0.06210218 0.055322342 0.40129009
-0.061760142 0.055333525 0.40138313
-0.061429776 0.055355355 0.40155327
-0.11150518 0.057955965 0.41569182
-0.11116798 0.057972521 0.41582912
-0.11074975 0.05794679 0.41566306
-0.1103294 0.057919782 0.4154878
-0.10998633 0.057933286 0.4156031
-0.10968321 0.057967994 0.41587052
-0.10304352 0.057557352 0.41321251
-0.10265015 0.057542242 0.41312176
-0.1022643 0.057531253 0.41306055
-0.10184965 0.057503935 0.412882
-0.1014635 0.057492565 0.41281793
-0.10106371 0.057473358 0.41269755
-0.10066628 0.057455361 0.41258579
-0.10027688 0.057441827 0.41250604
-0.09984725 0.057405069 0.41225946
-0.099465221 0.057395503 0.41220814
-0.099082075 0.057385232 0.41215163
-0.098685861 0.05736728 0.41203994
-0.098284438 0.057346158 0.4119055
-0.097829685 0.057293639 0.4115454
-0.097466886 0.05729479 0.41157079
-0.097051769 0.057265077 0.41137445
-0.096661516 0.057249866 0.41128215
-0.096286409 0.057243545 0.41125375
-0.095884822 0.057221372 0.41111138
-0.095487542 0.057201609 0.41098633
-0.095084973 0.057178527 0.41083729
-0.094671533 0.057148691 0.4106397
-0.094293848 0.057140298 0.41059613
-0.093903877 0.057124365 0.41049835
-0.093518771 0.057111286 0.41042095
-0.093110256 0.057083748 0.4102397
-0.092703506 0.057057083 0.41006461
-0.092291474 0.057026949 0.40986449
-0.091904789 0.05701229 0.40977561
-0.091539614 0.057010915 0.40978211
-0.091153987 0.056996748 0.40969661
-0.090753518 0.056973141 0.40954325
-0.09037894 0.056965668 0.40950575
-0.0899527 0.05692545 0.40923283
-0.089549817 0.056899738 0.40906414
-0.089183874 0.056897383 0.40906331
-0.088784918 0.056873865 0.40891027
-0.08838708 0.056850877 0.40876096
-0.088010028 0.05684112 0.40870675
-0.087600291 0.056810088 0.40849951
-0.087187342 0.05677671 0.40827531
-0.086808302 0.056765236 0.40820855
-0.086434916 0.056757368 0.40816769
-0.086049072 0.056741215 0.40806723
-0.085646026 0.056713544 0.40788382
-0.084462307 0.056646153 0.40744564
-0.084078304 0.056630433 0.40734792
-0.083713114 0.056627285 0.40734068
-0.08333011 0.056612022 0.40724614
-0.082937464 0.056590047 0.4071033
-0.08256039 0.056578547 0.40703577
-0.08218091 0.056565296 0.40695557
-0.081791416 0.056544997 0.40682465
-0.081423774 0.056539703 0.40680155
-0.081022277 0.056510746 0.40660816
-0.080651335 0.056502935 0.40656689
-0.080253109 0.056475859 0.40638691
-0.079882354 0.05646795 0.4063448
-0.079481147 0.056438349 0.40614653
-0.079105027 0.05642638 0.40607506
-0.078709744 0.056400567 0.40590394
-0.078320652 0.056378976 0.40576309
-0.077911898 0.056342963 0.40551844
-0.077533312 0.056328543 0.40542907
-0.077168174 0.0563238 0.40540934
-0.076799817 0.056316655 0.40537226
-0.076440819 0.056316335 0.40538421
-0.076015197 0.056266692 0.40504113
-0.075614423 0.056235068 0.40482762
-0.075224362 0.056211151 0.40466952
-0.074865811 0.056210656 0.40468001
-0.074509121 0.056211568 0.40470055
-0.074126095 0.056192517 0.40457734
-0.073753178 0.056180988 0.40450817
-0.073385 0.056172971 0.4044643
-0.072997779 0.056150228 0.40431428
-0.072596133 0.056116115 0.4040823
-0.072221205 0.056102417 0.4039973
-0.071841627 0.056084957 0.40388516
-0.071437426 0.056047998 0.40363252
-0.071048953 0.056023072 0.40346643
-0.070683159 0.056015868 0.40342796
-0.070302352 0.055996634 0.40330276
-0.069956392 0.056005098 0.403377
-0.069554299 0.055968489 0.40312654
-0.069161057 0.055938661 0.40292478
-0.068760335 0.055902444 0.402677
-0.068423986 0.055918451 0.40280533
-0.068037994 0.055893846 0.40264103
-0.067653321 0.055870071 0.40248263
-0.067256704 0.055836137 0.40225101
-0.066886984 0.055824284 0.40217841
-0.066534624 0.055826869 0.40220973
-0.066144697 0.0557978 0.40201294
-0.065778859 0.055788849 0.401961
-0.065411642 0.055778615 0.40189978
-0.065007679 0.055736769 0.40161076
-0.064627618 0.055715065 0.40146676
-0.064266518 0.055709563 0.40143946
-0.063905098 0.055703726 0.4014096
-0.063537672 0.055692557 0.40134135
-0.063178726 0.055688731 0.40132594
-0.062816121 0.055681624 0.40128678
-0.062452625 0.055673648 0.4012413
-0.062112369 0.055686414 0.40134528
-0.061762605 0.055690747 0.40138841
-0.061414041 0.055696227 0.40143973
-0.061081193 0.055716101 0.40159476
-0.060748417 0.055736277 0.40175194
-0.11159676 0.058373302 0.41602358
-0.11123028 0.058374759 0.41605249
-0.11080799 0.058346838 0.41587198
-0.11041987 0.058336768 0.41581869
-0.11007355 0.058348808 0.41592294
-0.10974338 0.05836951 0.41608894
-0.10935352 0.058358502 0.41602883
-0.10270627 0.057940699 0.41333768
-0.10229912 0.057917699 0.41319126
-0.10190618 0.057902612 0.41310123
-0.10150816 0.057884514 0.41298968
-0.10109891 0.05785986 0.41283131
-0.10072555 0.057855647 0.4128187
-0.10034101 0.057844955 0.41275984
-0.099896342 0.057799391 0.41245213
-0.099494711 0.057778493 0.41232032
-0.099139452 0.057784464 0.41238025
-0.098713763 0.057749283 0.41214639
-0.098346174 0.057747953 0.41215411
-0.097948506 0.057728883 0.4120352
-0.097521588 0.057692375 0.41179171
-0.097105063 0.057661757 0.41159025
-0.096730463 0.057655897 0.41156542
-0.096336871 0.05763863 0.41145918
-0.095921539 0.05760818 0.41125873
-0.095560662 0.057610329 0.41129088
-0.095146507 0.057580248 0.411093
-0.094728783 0.05754777 0.41087791
-0.094352141 0.057540093 0.41083983
-0.09395767 0.05752144 0.41072333
-0.093593694 0.057521388 0.41073963
-0.093187213 0.057495106 0.41056854
-0.092738166 0.057442263 0.41020769
-0.092352986 0.057428714 0.41012743
-0.091943204 0.057399698 0.40993664
-0.091554865 0.057383891 0.40984014
-0.091189668 0.057382524 0.40984672
-0.090782061 0.05735435 0.4096618
-0.090384826 0.057332538 0.40952221
-0.089987315 0.057310365 0.40938002
-0.089573614 0.057277665 0.40916258
-0.089202918 0.057272308 0.40914038
-0.088886283 0.057301763 0.40936682
-0.08846356 0.057262786 0.40910438
-0.088114977 0.057271678 0.40918383
-0.08774516 0.057266779 0.40916476
-0.087238885 0.057172414 0.40850633
-0.086854704 0.057157621 0.40841639
-0.086487174 0.057153694 0.40840408
-0.084445901 0.056996178 0.40735614
-0.084070131 0.056985874 0.40729791
-0.083712995 0.056988183 0.40732971
-0.0833342 0.056975696 0.40725574
-0.082949504 0.056959044 0.40715197
-0.082567804 0.056944326 0.40706187
-0.0822073 0.05694415 0.40707576
-0.081817634 0.056923691 0.4069446
-0.081439532 0.056911126 0.40686977
-0.081053086 0.0568926 0.40675229
-0.080694318 0.056893423 0.40677306
-0.080288678 0.056861058 0.40655652
-0.079873443 0.056821577 0.40628901
-0.079538435 0.05683906 0.40642878
-0.079169177 0.05683212 0.40639383
-0.07874874 0.056788225 0.40609455
-0.078360744 0.056767412 0.40596026
-0.077960469 0.056737483 0.40576077
-0.077577658 0.056720041 0.40565044
-0.077218376 0.056719717 0.40566254
-0.076823249 0.056692939 0.40548536
-0.076466903 0.056694672 0.40551203
-0.076064788 0.056662317 0.40529484
-0.075628549 0.056604117 0.40489271
-0.075261332 0.056597278 0.40485784
-0.074913226 0.05660481 0.40492573
-0.07454408 0.056596439 0.40487984
-0.074172758 0.056586325 0.40482146
-0.073767245 0.056549903 0.40457469
-0.073380098 0.056527276 0.40442666
-0.073001921 0.056511384 0.40432665
-0.072625071 0.056496345 0.4042328
-0.072273389 0.056500852 0.40427864
-0.07187634 0.05646975 0.40406966
-0.071490951 0.056447551 0.40392432
-0.071114741 0.056432411 0.4038294
-0.070700362 0.056386676 0.40351552
-0.070334159 0.056379098 0.4034746
-0.069982387 0.056383062 0.40351623
-0.069601186 0.056363244 0.40338761
-0.069203921 0.056330148 0.40316385
-0.068827718 0.056313939 0.40306094
-0.068449371 0.056295797 0.40294409
-0.068071336 0.056277722 0.40282771
-0.067700438 0.056265391 0.40275231
-0.067317575 0.056242935 0.40260437
-0.066925578 0.056212559 0.40239972
-0.066537753 0.056185391 0.40221792
-0.06616915 0.05617426 0.40215084
-0.065811202 0.056172092 0.40214792
-0.065456577 0.056172755 0.4021652
-0.065051794 0.056130152 0.40187261
-0.064672597 0.056109268 0.40173548
-0.064314425 0.056106497 0.40172797
-0.063922644 0.056074213 0.40150911
-0.063567668 0.056074042 0.40152007
-0.063188754 0.056052636 0.4013789
-0.062837653 0.056055803 0.40141365
-0.062470246 0.056044366 0.40134379
-0.062116843 0.056045439 0.40136343
-0.0617611 0.056044411 0.40136793
-0.061419189 0.056055985 0.40146264
-0.061068669 0.056059793 0.40150169
-0.060744531 0.056088004 0.40171546
-0.11197078 0.058745537 0.41601303
-0.11164772 0.058769859 0.4162038
-0.11126382 0.058762208 0.41616815
-0.11084434 0.058735661 0.41599864
-0.1104607 0.058727987 0.4159627
-0.11015791 0.058763389 0.4162319
-0.10974444 0.058739789 0.41608313
-0.10948555 0.058799047 0.41652128
-0.10918276 0.058835052 0.41679469
-0.10275352 0.058334514 0.4135178
-0.1023653 0.058322258 0.41344854
-0.1019576 0.058298763 0.41329959
-0.10154763 0.058273803 0.41314021
-0.10116059 0.058261875 0.41307312
-0.10077345 0.05824979 0.41300493
-0.10038287 0.058235638 0.41292199
-0.099982016 0.058215383 0.41279578
-0.099571981 0.058189627 0.41263047
-0.0991631 0.058164347 0.41246849
-0.09876661 0.058146175 0.41235691
-0.098387696 0.058138262 0.41231799
-0.097978331 0.058112238 0.4121505
-0.097569101 0.058086082 0.41198215
-0.097149722 0.058053672 0.41176936
-0.096766695 0.058042824 0.4117094
-0.096366666 0.058021665 0.41157627
-0.095997028 0.058018696 0.41157216
-0.095569447 0.057980563 0.41131851
-0.09519501 0.057974502 0.41129231
-0.094773434 0.057939578 0.41106135
-0.094401322 0.057934739 0.41104373
-0.094019055 0.057923608 0.41098145
-0.093627378 0.057906572 0.4108772
-0.093275793 0.057914291 0.41094857
-0.092800692 0.057845078 0.410474
-0.092403442 0.057824045 0.4103412
-0.091999196 0.057798453 0.41017604
-0.091605067 0.057779033 0.41005459
-0.091275811 0.057800543 0.4102236
-0.090916201 0.05780293 0.4102568
-0.08927051 0.057678744 0.40944004
-0.088904299 0.057676405 0.40943941
-0.082195528 0.057296641 0.40700701
-0.081833258 0.057295199 0.40701181
-0.081459716 0.057285815 0.40696013
-0.08107689 0.057269778 0.40686122
-0.080698512 0.057256781 0.4067837
-0.080308102 0.057235073 0.40664434
-0.079935037 0.057225589 0.40659174
-0.079572439 0.057223544 0.40659198
-0.079164997 0.057189092 0.40636185
-0.078789733 0.057177681 0.40629536
-0.078364566 0.057129774 0.4059695
-0.078008488 0.057132043 0.40600008
-0.077618137 0.057109099 0.40585151
-0.07723932 0.057094473 0.40576196
-0.076886594 0.057099093 0.4058091
-0.076485969 0.057068024 0.40560254
-0.076091602 0.057041336 0.4054271
-0.07569997 0.057016462 0.40526444
-0.075306751 0.056990154 0.40509152
-0.074922442 0.056970373 0.40496492
-0.074584201 0.056985591 0.40508711
-0.074214377 0.05697671 0.40503794
-0.073796302 0.056930523 0.40472344
-0.073430546 0.056924447 0.40469402
-0.073030405 0.056891531 0.40447372
-0.072647154 0.056871511 0.40434507
-0.072287232 0.056869637 0.40434536
-0.071909346 0.056853551 0.40424457
-0.07153856 0.056842938 0.40418261
-0.071151488 0.056819219 0.4040274
-0.070723146 0.056762137 0.40363488
-0.070347421 0.056746919 0.40353999
-0.069987059 0.056744002 0.40353251
-0.069625519 0.056740105 0.40351793
-0.069259994 0.056732889 0.40347978
-0.068876922 0.056711167 0.40333834
-0.068495229 0.056690346 0.40320331
-0.068099894 0.056657966 0.40298593
-0.067731276 0.056647591 0.40292504
-0.06736882 0.056642283 0.40290013
-0.066987291 0.056620806 0.40276009
-0.066579156 0.056576476 0.40245748
-0.066199049 0.056555633 0.40232185
-0.065834165 0.056547638 0.40227753
-0.065450117 0.056522999 0.40211475
-0.065107279 0.056533877 0.4022046
-0.064712942 0.056499913 0.40197533
-0.064327575 0.056473449 0.40179938
-0.063948885 0.056452591 0.40166321
-0.06358128 0.056441329 0.40159529
-0.063201137 0.056418754 0.40144682
-0.06285923 0.056430254 0.40154067
-0.062487923 0.056415342 0.40144655
-0.062125195 0.056408044 0.40140659
-0.061777782 0.056414653 0.40146551
-0.061428174 0.056419317 0.40151054
-0.061075468 0.056421179 0.40153554
-0.060735635 0.056435023 0.40164578
-0.06039146 0.05644498 0.40172827
-0.1120884 0.059177384 0.41644025
-0.11176877 0.059203878 0.41664523
-0.11128841 0.059145134 0.41625038
-0.11089367 0.059131652 0.41617396
-0.11052896 0.059134141 0.41620991
-0.11020897 0.059160665 0.41641498
-0.10984018 0.059161071 0.41643625
-0.10949173 0.059172478 0.4165349
-0.10246661 0.058747437 0.41384766
-0.1019924 0.058685735 0.4134306
-0.10159428 0.058667529 0.41331989
-0.10122137 0.058663808 0.41331115
-0.1008364 0.058653042 0.41325277
-0.10040051 0.058612473 0.41298437
-0.1000362 0.05861355 0.41300932
-0.099649318 0.058601357 0.41294074
-0.0992155 0.058561374 0.4126763
-0.098819837 0.058543701 0.41256899
-0.098406918 0.058515631 0.41238835
-0.098040208 0.058514934 0.4124006
-0.097639486 0.05849386 0.41226918
-0.097196862 0.058447424 0.41195896
-0.096849009 0.05845784 0.41204938
-0.096417323 0.058417547 0.41178232
-0.096035421 0.058407236 0.41172653
-0.095656678 0.058398765 0.41168368
-0.0951906 0.058336709 0.41126302
-0.09478993 0.058314417 0.41112262
-0.094426855 0.058315158 0.41114461
-0.094039328 0.05830076 0.41105977
-0.093658015 0.058290109 0.41100129
-0.093297601 0.058292437 0.41103432
-0.092921034 0.058284655 0.41099596
-0.092406668 0.05819004 0.41034523
-0.092102967 0.058227852 0.41062829
-0.080699712 0.057618029 0.40677917
-0.080335081 0.057614688 0.40677038
-0.079954214 0.057599604 0.40667871
-0.079580925 0.057589877 0.40662476
-0.07920187 0.057575863 0.40654045
-0.07882002 0.057559699 0.40644091
-0.078445271 0.057548583 0.40637702
-0.078023002 0.057502352 0.40606502
-0.077633291 0.057479791 0.40592015
-0.077293962 0.057494503 0.4060384
-0.076918826 0.057482585 0.40596855
-0.076524898 0.057456456 0.40579826
-0.076127879 0.057427742 0.40560967
-0.075738497 0.057404548 0.40546003
-0.075351879 0.057383239 0.40532359
-0.074983783 0.057375897 0.40528578
-0.074612394 0.057365965 0.4052296
-0.074228495 0.057346258 0.40510428
-0.073841177 0.05732372 0.4049589
-0.073428676 0.0572813 0.40467304
-0.073069319 0.057280138 0.40467855
-0.072678573 0.057254232 0.40450919
-0.072310805 0.057246264 0.40446651
-0.071955547 0.057248164 0.40449351
-0.071551241 0.057210878 0.4042435
-0.071155496 0.057180092 0.40403944
-0.070779353 0.057164822 0.40394488
-0.070385866 0.057135317 0.40374973
-0.070013285 0.057122581 0.40367296
-0.069614813 0.057088479 0.40344512
-0.069272086 0.057099972 0.40353948
-0.068896197 0.057084102 0.40344042
-0.068515122 0.057063755 0.40330964
-0.06812866 0.057038687 0.4031454
-0.06776128 0.057029407 0.40309268
-0.06738431 0.057011928 0.40298197
-0.066995911 0.05698454 0.40280113
-0.066631518 0.056977384 0.40276322
-0.066242665 0.056949131 0.40257615
-0.065894872 0.05695606 0.40263766
-0.065509327 0.05693024 0.40246767
-0.065110467 0.056892522 0.40221348
-0.064750329 0.056888402 0.40219671
-0.064381525 0.056876589 0.40212551
-0.063998356 0.056851882 0.40196311
-0.063611321 0.05682344 0.4017742
-0.063220054 0.056790885 0.40155613
-0.062866986 0.056792475 0.40157941
-0.06251251 0.056792792 0.40159366
-0.06214194 0.05677842 0.40150398
-0.061784457 0.056775898 0.40149802
-0.061436765 0.056782402 0.40155581
-0.061088033 0.056788012 0.40160728
-0.060736794 0.056791354 0.40164259
-0.060404308 0.056812368 0.40180284
-0.060066134 0.056828242 0.40192673
-0.11217198 0.059591919 0.41674086
-0.11178443 0.059582528 0.41669375
-0.11137448 0.0595611 0.41656238
-0.11099309 0.059554845 0.41653714
-0.11057572 0.059529178 0.41637605
-0.11024708 0.059551273 0.416549
-0.10987344 0.059549134 0.41655239
-0.10954665 0.059572455 0.41673389
-0.10926173 0.059618771 0.41707623
-0.10250005 0.059134178 0.41397256
-0.10204383 0.059082583 0.41362894
-0.10161991 0.059049383 0.41341403
-0.10126449 0.059055891 0.41347709
-0.10083152 0.059017051 0.41322261
-0.10049848 0.059036635 0.41337717
-0.10005225 0.058989633 0.4130654
-0.099653497 0.058970377 0.41294786
-0.099241041 0.058942836 0.4127723
-0.0988665 0.058937695 0.41275355
-0.098522507 0.058950797 0.41286248
-0.098104499 0.058919549 0.41266078
-0.097659081 0.058871541 0.41234162
-0.097314239 0.058884032 0.41244617
-0.09685988 0.058830094 0.41208535
-0.096474424 0.058817755 0.41201594
-0.096069992 0.058793716 0.4118644
-0.09571749 0.058801398 0.41193509
-0.095308535 0.058774322 0.41176221
-0.094895385 0.058744445 0.41156965
-0.094451308 0.058695108 0.41124073
-0.094070338 0.058684763 0.41118491
-0.093717739 0.058692113 0.41125304
-0.09338896 0.058714494 0.41142642
-0.079591312 0.057957668 0.40666711
-0.079223029 0.057951491 0.40663844
-0.078850575 0.057942189 0.40658781
-0.078461863 0.057920799 0.40645224
-0.07811369 0.057929285 0.40652627
-0.077668861 0.057865832 0.40609539
-0.077320114 0.057873704 0.406165
-0.076951258 0.057866532 0.406129
-0.076578967 0.057856694 0.40607423
-0.07618352 0.057829197 0.40589541
-0.075788431 0.057801701 0.4057166
-0.075380325 0.057763979 0.40546587
-0.075016826 0.057760235 0.40545362
-0.074631989 0.057739951 0.40532523
-0.074271388 0.057738304 0.40532759
-0.073910773 0.05773665 0.40532976
-0.073491774 0.057689134 0.40501001
-0.073077433 0.057644825 0.40471265
-0.072732687 0.057655264 0.40479961
-0.072346389 0.057632692 0.40465471
-0.071993582 0.057636715 0.40469652
-0.071589969 0.057599895 0.40445152
-0.071193486 0.057568483 0.40424433
-0.070814632 0.057551067 0.40413541
-0.070427112 0.057526402 0.40397552
-0.070059083 0.057517488 0.40392613
-0.069698766 0.057514854 0.40392083
-0.069312058 0.057490297 0.40376151
-0.06893646 0.057474747 0.40366536
-0.068543442 0.057444435 0.40346548
-0.068187729 0.057445239 0.40348408
-0.067801841 0.0574205 0.40332314
-0.067412391 0.057392459 0.40313902
-0.067036442 0.057375688 0.40303397
-0.066644177 0.057344694 0.40282893
-0.066269323 0.057328418 0.40272728
-0.065920524 0.057334632 0.40278348
-0.065526679 0.057301529 0.40256339
-0.065151609 0.057284571 0.40245673
-0.064766705 0.05725874 0.4022876
-0.064404272 0.057252586 0.4022567
-0.064036094 0.057241235 0.40218917
-0.063633814 0.057199109 0.40190536
-0.06327454 0.05719538 0.40189129
-0.062890097 0.057168737 0.40171611
-0.062529489 0.05716357 0.40169182
-0.062162884 0.057152834 0.40162832
-0.061804362 0.057149451 0.40161642
-0.061436463 0.057137314 0.40154293
-0.061091296 0.057146296 0.4016178
-0.060744926 0.057154253 0.40168542
-0.060391594 0.057155717 0.40170729
-0.060061239 0.057179067 0.40188301
-0.059730008 0.057201855 0.4020547
-0.11258543 0.059985518 0.41687357
-0.11222148 0.059988797 0.41691491
-0.11185912 0.059992947 0.41696227
-0.1114365 0.05996469 0.41678444
-0.11104606 0.059953634 0.41672599
-0.11061429 0.059920114 0.41651142
-0.1103016 0.059951074 0.41674507
-0.10989362 0.059930295 0.41661894
-0.10960266 0.059973393 0.41693693
-0.10928676 0.060003102 0.41716176
-0.10253921 0.059524488 0.41412053
-0.10213707 0.059504163 0.41399667
-0.10168794 0.059456203 0.41368055
-0.10128931 0.059437539 0.41356817
-0.10091969 0.059435826 0.41357371
-0.10051034 0.059410617 0.4134157
-0.10014445 0.059411004 0.41343576
-0.099775337 0.059409481 0.41344246
-0.099287741 0.059337135 0.41295627
-0.09891855 0.059335273 0.41296053
-0.098494463 0.059300352 0.41273466
-0.098131552 0.05930214 0.41276425
-0.097721756 0.0592755 0.41259593
-0.097331136 0.059260346 0.41250744
-0.096920289 0.059232693 0.412332
-0.096531548 0.05921841 0.41224951
-0.096112989 0.059185661 0.41203839
-0.095743254 0.059182838 0.41203558
-0.095370188 0.05917792 0.41201818
-0.094956681 0.059147779 0.41182506
-0.094492584 0.059085771 0.41141003
-0.094058603 0.059042189 0.41112322
-0.078852266 0.058303621 0.40658575
-0.078492679 0.058303736 0.4066011
-0.078133121 0.058303881 0.4066166
-0.077703856 0.058251772 0.40626764
-0.077328429 0.058239728 0.40619797
-0.07697951 0.058247618 0.40626734
-0.076603897 0.058235306 0.40619567
-0.076235034 0.05822802 0.4061591
-0.075840376 0.058200873 0.40598387
-0.075431019 0.058162145 0.40572777
-0.075028718 0.058128498 0.40550709
-0.07466992 0.058128405 0.40552038
-0.07428652 0.058109071 0.40539938
-0.073910296 0.058095168 0.40531629
-0.07353539 0.058082201 0.40523955
-0.07311143 0.058030143 0.40489012
-0.072749957 0.058027431 0.40488482
-0.072374217 0.058013257 0.40479949
-0.072017908 0.058014598 0.40482241
-0.071642317 0.058000341 0.40473643
-0.07125809 0.057978902 0.40460026
-0.070837401 0.057927441 0.40425453
-0.070478797 0.057926487 0.40426114
-0.070099153 0.05790814 0.40414634
-0.069723099 0.057892583 0.40405095
-0.069355026 0.057883531 0.40400088
-0.068966113 0.057856899 0.40382805
-0.068592101 0.057842571 0.40374103
-0.068233795 0.057841394 0.40374577
-0.067801721 0.057777341 0.40331152
-0.067449711 0.057781205 0.40335128
-0.067084022 0.057773326 0.40330905
-0.066703215 0.057752274 0.40317482
-0.066312693 0.057722539 0.40297982
-0.065939337 0.057707515 0.40288752
-0.065564364 0.0576909 0.40278399
-0.065167896 0.057655085 0.40254641
-0.064788081 0.057633694 0.4024094
-0.064423293 0.057625506 0.40236452
-0.064055897 0.057614893 0.40230265
-0.063666716 0.057584438 0.4021022
-0.06330508 0.057578713 0.40207431
-0.062931649 0.057562128 0.40197057
-0.062562339 0.057549141 0.40189189
-0.062185928 0.057529446 0.40176624
-0.061820216 0.057519477 0.40170848
-0.061457962 0.057512626 0.40167245
-0.061115429 0.057524264 0.40176547
-0.060755998 0.057520032 0.40174761
-0.060400367 0.05751938 0.40175468
-0.060063202 0.057536405 0.40188512
-0.059729755 0.057557214 0.402042
-0.059396561 0.057578519 0.40220225
-0.11263969 0.060385171 0.41706455
-0.11232864 0.060417011 0.41730306
-0.11195855 0.060417209 0.41732293
-0.1114817 0.060359597 0.41694349
-0.11110078 0.060353722 0.41692135
-0.11066908 0.060320117 0.41670763
-0.11029322 0.060316838 0.41670337
-0.10995217 0.060332637 0.41683084
-0.10962229 0.060354687 0.41700152
-0.10928676 0.060373764 0.41715166
-0.10899897 0.060419444 0.41748556
-0.10258351 0.059918076 0.41428912
-0.10218162 0.059897862 0.41416696
-0.10175093 0.059860554 0.41392651
-0.10135108 0.059841193 0.41381013
-0.1009467 0.059819005 0.41367412
-0.10058913 0.059824489 0.41372943
-0.10018714 0.059803508 0.4136017
-0.099774376 0.059775911 0.41342816
-0.099394992 0.059768181 0.41339198
-0.098939642 0.059714559 0.41303828
-0.098556943 0.059704531 0.4129861
-0.098176062 0.059695546 0.41294107
-0.097760245 0.059665173 0.41274801
-0.097371779 0.059651326 0.41266927
-0.097003676 0.059649896 0.41267636
-0.096560694 0.059602231 0.41236356
-0.096145779 0.059571605 0.41216856
-0.0957698 0.059564952 0.41213936
-0.095417991 0.059573341 0.41221422
-0.078095816 0.058636066 0.40641168
-0.077747688 0.058644708 0.40648597
-0.07736519 0.058627378 0.40638018
-0.077012315 0.058632437 0.40642959
-0.076630041 0.058615074 0.40632346
-0.076259851 0.058606811 0.40628043
-0.07585226 0.05856961 0.40603662
-0.075470604 0.058552165 0.40592977
-0.075078323 0.058526281 0.40576431
-0.074715428 0.058523163 0.40575665
-0.074347034 0.058515675 0.40571865
-0.073982961 0.058511551 0.4057039
-0.073575974 0.058473274 0.40545228
-0.073204979 0.058463365 0.4053973
-0.072819829 0.058441997 0.4052628
-0.072389267 0.058383796 0.4048728
-0.072036825 0.058388337 0.40491778
-0.071661063 0.058373924 0.40483135
-0.071282394 0.058356993 0.40472734
-0.070900112 0.058336906 0.4046014
-0.070481561 0.058286637 0.40426603
-0.070130363 0.058291826 0.40431526
-0.06975051 0.05827314 0.40419883
-0.069378033 0.058260452 0.40412393
-0.068986721 0.05823173 0.40393779
-0.068626083 0.058228746 0.40393007
-0.068258487 0.058219783 0.40388083
-0.067873865 0.058196142 0.40372968
-0.067486234 0.058169652 0.4035587
-0.067108385 0.058151364 0.40344456
-0.066737697 0.058139101 0.4033722
-0.066354126 0.058115445 0.40322065
-0.065947793 0.058071472 0.40292814
-0.065605596 0.058083825 0.40302631
-0.065239698 0.058075201 0.40297893
-0.064820915 0.058019143 0.40260229
-0.064452894 0.058008168 0.40253842
-0.064073801 0.057987031 0.40240398
-0.063713081 0.057982396 0.40238401
-0.063332565 0.057959586 0.40223783
-0.062948525 0.057933282 0.40206733
-0.062587813 0.057928257 0.40204445
-0.062213365 0.057910405 0.40193248
-0.06183764 0.057891145 0.40181065
-0.061485935 0.057894282 0.4018442
-0.061121307 0.057885218 0.40179306
-0.060761686 0.057880815 0.40177417
-0.060410935 0.057884861 0.40181383
-0.060069207 0.057897657 0.40191421
-0.05972435 0.057907566 0.4019945
-0.059394851 0.057932582 0.4021796
-0.11271007 0.060793877 0.41731519
-0.11236506 0.06080766 0.41742837
-0.11197997 0.06079977 0.41739273
-0.1115381 0.060760904 0.41714439
-0.11115391 0.060753305 0.41711065
-0.11073238 0.060725175 0.41693595
-0.11032809 0.060706347 0.41682506
-0.10995232 0.060703136 0.41682133
-0.10964154 0.060735907 0.41706467
-0.10931291 0.060758974 0.41724136
-0.10899112 0.060786005 0.41744527
-0.10864708 0.060800787 0.41756499
-0.1026338 0.060315497 0.41448191
-0.10223223 0.060295459 0.41436175
-0.10181459 0.060265757 0.41417518
-0.10142627 0.060253263 0.41410676
-0.1009654 0.060197413 0.41374034
-0.1006555 0.060231511 0.41399208
-0.10025561 0.060211796 0.41387394
-0.09982188 0.060171556 0.41361463
-0.099447615 0.060166981 0.41360044
-0.099006332 0.060121682 0.41330624
-0.098626912 0.06011375 0.41326889
-0.098227859 0.060093746 0.41314849
-0.097803839 0.06005827 0.41292164
-0.097424775 0.060050227 0.4128834
-0.097024083 0.060028754 0.41275272
-0.09657748 0.059978601 0.4124248
-0.096258506 0.060007632 0.41264129
-0.09585081 0.05998135 0.41247743
-0.095541008 0.060016382 0.41273513
-0.09519358 0.06002795 0.41283149
-0.077388272 0.05900494 0.40649053
-0.077062853 0.059031151 0.40668538
-0.076674871 0.059009459 0.40655023
-0.076298408 0.058996469 0.40647492
-0.075898871 0.05896543 0.40627518
-0.075518996 0.058949448 0.40617913
-0.075104505 0.058906164 0.40589491
-0.074734882 0.058897819 0.4058513
-0.074369609 0.058892839 0.40583089
-0.074003257 0.05888696 0.40580422
-0.073595896 0.058848225 0.40555105
-0.073243581 0.058853347 0.4056001
-0.072843306 0.058819793 0.40538251
-0.072429657 0.058775052 0.40508771
-0.072082296 0.058783915 0.40516239
-0.071688488 0.058754813 0.4049753
-0.071307793 0.05873622 0.4048605
-0.070934057 0.058723204 0.40478414
-0.070549116 0.058700729 0.40464252
-0.070178278 0.058689807 0.40458047
-0.069790706 0.058664724 0.4044207
-0.069419637 0.058653329 0.40435526
-0.069027267 0.058623709 0.40416417
-0.068682291 0.058634255 0.40424979
-0.06828016 0.058595855 0.40399802
-0.067885831 0.058563791 0.40378979
-0.067499556 0.058538374 0.40362731
-0.067128383 0.058525842 0.40355369
-0.066780068 0.058533221 0.4036172
-0.066394024 0.058507428 0.40345201
-0.065997913 0.058472447 0.40322334
-0.065621354 0.058454495 0.40311199
-0.065253377 0.058444031 0.40305227
-0.064892069 0.05843946 0.40303314
-0.064498775 0.058405876 0.40281382
-0.064092174 0.058359805 0.40250832
-0.063728534 0.05835256 0.4024705
-0.063371457 0.058351275 0.40247372
-0.06299118 0.058328491 0.40232864
-0.06261491 0.058309183 0.40220743
-0.062258299 0.058308069 0.40221167
-0.061860312 0.058267955 0.40194684
-0.061506413 0.058269162 0.40196693
-0.0611373 0.058255877 0.40188703
-0.060773306 0.058247354 0.40183985
-0.060420021 0.058249045 0.40186316
-0.060075443 0.058259204 0.40194479
-0.059718855 0.058257762 0.40194634
-0.059383895 0.058277544 0.40209422
-0.059065856 0.05831426 0.40235892
-0.11280795 0.061217964 0.41766754
-0.11244468 0.061222069 0.41771409
-0.11205484 0.061211679 0.41766173
-0.1116145 0.061173555 0.41742003
-0.11119898 0.061148811 0.41726965
-0.11079173 0.061128467 0.41714928
-0.11037947 0.061105225 0.417009
-0.11002759 0.061115358 0.41709647
-0.10964614 0.061109085 0.41707197
-0.109344 0.06114712 0.41734985
-0.10898647 0.061154328 0.41741726
-0.10864601 0.061171204 0.41755068
-0.10828029 0.061173923 0.41758743
-0.10789225 0.061163999 0.41753781
-0.10327811 0.060846593 0.41556746
-0.10272058 0.060734872 0.41482201
-0.10232659 0.060719382 0.4147338
-0.10185032 0.060654797 0.41431016
-0.10145875 0.060640354 0.41422895
-0.10107759 0.060632054 0.4141897
-0.10066263 0.060603347 0.41401094
-0.10027187 0.060589056 0.41393065
-0.099886537 0.060577936 0.413872
-0.099486329 0.060557701 0.41375098
-0.099063903 0.060523726 0.41353607
-0.098643161 0.060490541 0.41332647
-0.098279685 0.060492355 0.41335598
-0.097851604 0.060454264 0.41311279
-0.097484939 0.060453989 0.41312787
-0.097079724 0.0604297 0.41297889
-0.096685506 0.060412098 0.41287556
-0.096258566 0.060373846 0.41263098
-0.095914811 0.060387675 0.41274235
-0.095595613 0.060417131 0.41296044
-0.077048384 0.059380241 0.40659812
-0.076716691 0.059401948 0.40676099
-0.076327585 0.059379194 0.40661934
-0.075960852 0.059373718 0.40659598
-0.075540133 0.059325788 0.4062818
-0.075149715 0.059301317 0.4061282
-0.074780881 0.059293713 0.40609011
-0.074401028 0.059277266 0.40599138
-0.074014142 0.05925503 0.40585291
-0.073631756 0.059236202 0.4057377
-0.073264249 0.059229214 0.40570351
-0.072865725 0.059196945 0.40549615
-0.07249175 0.059184421 0.40542394
-0.072106175 0.059162252 0.4052856
-0.071753919 0.059167329 0.40533388
-0.071353078 0.0591322 0.4051066
-0.070970401 0.05911183 0.40498045
-0.070563421 0.059070922 0.40471348
-0.07020878 0.059073631 0.40474525
-0.069814928 0.059043217 0.40454999
-0.069463745 0.059048753 0.40460104
-0.069074444 0.059021786 0.40442932
-0.068702437 0.059009381 0.40435731
-0.068314478 0.058983076 0.40418997
-0.067901447 0.058934741 0.40387163
-0.067565374 0.058953036 0.40400976
-0.067163929 0.058914185 0.40375626
-0.066801742 0.058909543 0.4037371
-0.066427752 0.058894381 0.40364581
-0.066034786 0.058862153 0.40343747
-0.065654933 0.058841314 0.40330714
-0.065269038 0.058814805 0.40313789
-0.064922504 0.058823671 0.403211
-0.064554892 0.058813438 0.40315315
-0.064165473 0.05878311 0.40295753
-0.063748106 0.058726698 0.40258294
-0.063393675 0.058727954 0.40260366
-0.062999733 0.058692418 0.40237209
-0.062647149 0.058695231 0.40240335
-0.062270943 0.058675811 0.40228215
-0.061900478 0.058661617 0.40219665
-0.061532635 0.058649756 0.40212715
-0.061178859 0.058651242 0.40214905
-0.060791798 0.05862065 0.40195093
-0.060438383 0.058622338 0.40197411
-0.060077637 0.058616884 0.40194824
-0.059734896 0.058629047 0.40204313
-0.059383646 0.058632948 0.40208131
-0.059060059 0.058664378 0.4023082
-0.11319731 0.061599355 0.41770735
-0.11286834 0.061622228 0.41788101
-0.11248274 0.061614234 0.41784534
-0.11209828 0.061606813 0.41781351
-0.11168009 0.06158074 0.41765514
-0.11128658 0.061568156 0.41758826
-0.11085884 0.061536476 0.41739178
-0.11042462 0.061500978 0.41716933
-0.11005697 0.06150246 0.4171977
-0.10965145 0.061482694 0.41708192
-0.10934457 0.061518308 0.41734177
-0.1089686 0.061515152 0.41733858
-0.10861207 0.061522987 0.41740996
-0.10828084 0.06154526 0.41757923
-0.1078876 0.061532319 0.41750956
-0.10752697 0.061537948 0.41756585
-0.10427649 0.061369393 0.41656527
-0.1038122 0.061313402 0.41620293
-0.10334435 0.061254911 0.41582358
-0.10273471 0.061111651 0.41486865
-0.10234044 0.061095927 0.41477951
-0.10194459 0.061079159 0.41468313
-0.10154165 0.061058003 0.41455695
-0.10110599 0.061016932 0.41429555
-0.10071941 0.061005313 0.41423401
-0.10032674 0.06098989 0.41414663
-0.099906646 0.060957633 0.41394484
-0.099502251 0.060934745 0.41380668
-0.099084355 0.060903389 0.41361094
-0.098726831 0.060909051 0.41366652
-0.098370507 0.060915496 0.4137274
-0.097908951 0.060856577 0.41334432
-0.097528338 0.060847722 0.41330117
-0.097096577 0.060806774 0.41303998
-0.096731335 0.060807325 0.41306064
-0.096351378 0.060798593 0.41301823
-0.095991664 0.06080262 0.41306239
-0.075970829 0.059741691 0.40663829
-0.075563535 0.059704121 0.40639663
-0.075184122 0.059688311 0.40630305
-0.074801818 0.059670068 0.40619275
-0.07442864 0.059658952 0.40613097
-0.074053913 0.059646476 0.40605992
-0.073667549 0.059624467 0.40592378
-0.073283762 0.059604328 0.4058004
-0.072910011 0.05959221 0.40573153
-0.072527394 0.059572682 0.40561214
-0.072136097 0.059545793 0.4054426
-0.071776167 0.059544668 0.40544841
-0.071389526 0.059521247 0.40530235
-0.071003877 0.059498433 0.40516034
-0.070595212 0.059456006 0.4048847
-0.070218168 0.059439905 0.40478826
-0.069853738 0.059434373 0.40476376
-0.069482096 0.059422616 0.40469676
-0.069122106 0.059420757 0.40469721
-0.06872616 0.059387803 0.40448573
-0.06833712 0.059360512 0.40431279
-0.067970961 0.059352912 0.40427387
-0.067584328 0.059327263 0.40411195
-0.067191876 0.059296202 0.40391308
-0.066807747 0.059272192 0.40376222
-0.066456407 0.059277169 0.40380871
-0.066076942 0.059256993 0.40368381
-0.065703735 0.059242226 0.40359572
-0.065292194 0.059192553 0.40326971
-0.064937964 0.059194569 0.40329581
-0.06458272 0.059195686 0.40331569
-0.064172886 0.059146501 0.40299281
-0.063821435 0.059150875 0.40303478
-0.063436776 0.059124358 0.40286621
-0.063038394 0.059084672 0.40260783
-0.062683441 0.05908547 0.4026252
-0.062303934 0.059062999 0.40248403
-0.061930723 0.05904628 0.40238196
-0.06156157 0.059033249 0.40230492
-0.06119271 0.059020363 0.40222883
-0.060830314 0.05901359 0.40219432
-0.060465023 0.059003923 0.40214002
-0.060091376 0.058985926 0.40202892
-0.059743948 0.058993611 0.40209278
-0.059385765 0.058990706 0.40208438
-0.059050415 0.05901058 0.40223119
-0.058723304 0.059038986 0.40243611
-0.11325527 0.062002439 0.41791108
-0.11295816 0.062043048 0.41820338
-0.11250906 0.062000174 0.4179329
-0.11214986 0.062006731 0.41799554
-0.11177277 0.062003396 0.41799155
-0.11132307 0.061959632 0.41771492
-0.11090299 0.061932113 0.41754779
-0.11050943 0.061919264 0.41747952
-0.11009206 0.061892953 0.4173204
-0.10969038 0.061875321 0.41721979
-0.10931551 0.061872724 0.41722053
-0.10897919 0.061892014 0.4173688
-0.10862225 0.061899688 0.41743875
-0.10826319 0.061906207 0.41750085
-0.10790674 0.061914261 0.41757327
-0.1075211 0.061905563 0.41753271
-0.10716777 0.061915468 0.41761759
-0.10471787 0.061781771 0.41682315
-0.10426535 0.061732765 0.41651028
-0.10384134 0.061700352 0.4163093
-0.10337578 0.061642934 0.41593951
-0.10275088 0.061489753 0.41492349
-0.10241027 0.061506201 0.41505203
-0.10200678 0.061484866 0.41492558
-0.10160027 0.061461564 0.41478577
-0.10117424 0.06142623 0.41456473
-0.10076258 0.061399397 0.41440096
-0.10034567 0.061369158 0.41421422
-0.099985227 0.061373368 0.41425988
-0.099588536 0.061355263 0.41415495
-0.099152043 0.061312415 0.41388291
-0.098755613 0.061294116 0.41377652
-0.098386846 0.061292913 0.41378549
-0.097996257 0.06127806 0.41370228
-0.097613454 0.061267987 0.41365129
-0.09717948 0.061225589 0.41338199
-0.096886784 0.061272219 0.41371378
-0.096478336 0.061245728 0.41355175
-0.075592868 0.060087383 0.40654323
-0.075204954 0.060064815 0.40640455
-0.074812219 0.060038157 0.40623811
-0.074462682 0.060046073 0.40630555
-0.074091539 0.060036566 0.40625504
-0.073717073 0.060024261 0.40618551
-0.07335674 0.060023405 0.40619338
-0.072936997 0.059973672 0.40587053
-0.072550349 0.05995081 0.40572935
-0.072174333 0.05993655 0.40564635
-0.071813405 0.059934743 0.40564758
-0.071410894 0.059898026 0.4054125
-0.071029745 0.059878957 0.40529674
-0.070694871 0.059898894 0.40544501
-0.070247084 0.059822895 0.40494376
-0.069900513 0.059832741 0.40502355
-0.069501497 0.059797566 0.40479857
-0.069140613 0.059795011 0.40479428
-0.068752348 0.059768628 0.40462866
-0.068352647 0.059731971 0.4043934
-0.068006881 0.059742309 0.40447626
-0.067640007 0.059734117 0.40443361
-0.067259826 0.059714027 0.40431032
-0.066861391 0.059677426 0.40407518
-0.066473745 0.059650119 0.40390286
-0.066095673 0.059631158 0.40378696
-0.065739162 0.059631538 0.40380207
-0.065366022 0.059616756 0.40371439
-0.064992048 0.059601061 0.40362045
-0.064602144 0.059570491 0.40342572
-0.064200915 0.059529088 0.40315753
-0.063843146 0.059527744 0.40316057
-0.063459501 0.059502132 0.40299919
-0.063091807 0.059491262 0.40293762
-0.062724188 0.059480339 0.40287563
-0.062350363 0.059463374 0.40277264
-0.061949428 0.059420224 0.4024922
-0.061573856 0.059401032 0.40237397
-0.061210368 0.059393339 0.40233359
-0.060836665 0.059375595 0.40222502
-0.060486928 0.059381165 0.40227434
-0.060115475 0.059365366 0.40217882
-0.059746154 0.059351489 0.40209627
-0.059407108 0.059367701 0.40221754
-0.059053704 0.05936968 0.40224224
-0.058720406 0.059392013 0.40240487
-0.058417864 0.059445925 0.40278137
-0.11331428 0.06240648 0.4181186
-0.11299963 0.062437754 0.41834667
-0.1125956 0.06241969 0.41824418
-0.11221458 0.062414296 0.41822648
-0.11180307 0.062391862 0.41809461
-0.11142261 0.062386658 0.41807815
-0.11098526 0.062349454 0.41784722
-0.11053593 0.06230526 0.41756937
-0.11015746 0.062300835 0.41755801
-0.1097345 0.062271133 0.4173772
-0.10931253 0.062241804 0.41719884
-0.1089558 0.062249538 0.4172689
-0.10859963 0.062257655 0.41734144
-0.10825399 0.062271886 0.41745496
-0.10788596 0.062273279 0.41748241
-0.10752304 0.062277652 0.41752979
-0.10716031 0.062282171 0.4175781
-0.10678948 0.062281981 0.41759485
-0.10641447 0.062279362 0.41759521
-0.10559614 0.062233787 0.41732547
-0.10472158 0.0621542 0.41682738
-0.10429764 0.062121931 0.41662872
-0.10384197 0.062070474 0.41630128
-0.10336342 0.062004913 0.41587925
-0.10281838 0.061898857 0.41518545
-0.10243042 0.061886948 0.41512311
-0.10206249 0.0618871 0.41514161
-0.10163097 0.061848551 0.41490048
-0.10120232 0.061811477 0.41466919
-0.10083241 0.061810147 0.41467759
-0.10041934 0.061782241 0.41450769
-0.10002701 0.061766941 0.41442233
-0.099632017 0.061749883 0.41432512
-0.099191628 0.061704457 0.41403747
-0.098796897 0.061687198 0.41393882
-0.09841083 0.061675251 0.4138757
-0.098056205 0.061682988 0.41394466
-0.097670749 0.061671313 0.41388333
-0.097295664 0.061666127 0.41386548
-0.096945226 0.061676577 0.41395259
-0.07486207 0.060438201 0.4064976
-0.074502505 0.060438227 0.40651163
-0.074130781 0.060428347 0.40645897
-0.073752314 0.060412847 0.40636846
-0.073371895 0.060395591 0.40626609
-0.072982147 0.060370445 0.40611055
-0.072576255 0.060331628 0.40586305
-0.072218195 0.060332384 0.40588161
-0.071832374 0.060309842 0.40574345
-0.071465261 0.060302868 0.40570989
-0.071071938 0.060273584 0.40552622
-0.070696242 0.06025904 0.40544161
-0.070311822 0.060236864 0.40530565
-0.069926158 0.060213394 0.40516084
-0.069537364 0.060186971 0.40499619
-0.069168799 0.060177878 0.40494806
-0.068798102 0.060166832 0.40488666
-0.068407767 0.060138397 0.40470821
-0.068014711 0.060107257 0.40451151
-0.067644238 0.060095869 0.40444764
-0.067279138 0.060089137 0.40441504
-0.066887662 0.060058661 0.40422264
-0.066529997 0.060058381 0.40423334
-0.066143349 0.06003179 0.40406689
-0.065740682 0.059990291 0.40380004
-0.065386832 0.059993133 0.40383157
-0.065024324 0.059988026 0.40380955
-0.064626254 0.059949867 0.40356493
-0.06427218 0.059952326 0.40359372
-0.063866787 0.059906669 0.40329853
-0.063488424 0.059886009 0.40317154
-0.063112855 0.059867766 0.40306073
-0.06275592 0.059867077 0.40306807
-0.062361643 0.059830561 0.40283415
-0.061991133 0.059816569 0.40275177
-0.061623685 0.059805382 0.40268821
-0.061252933 0.059790835 0.40260196
-0.06087001 0.059764177 0.40243408
-0.06050279 0.05975271 0.40236843
-0.060143791 0.059749275 0.40235686
-0.059761245 0.059722271 0.40218645
-0.059415426 0.059731856 0.40226242
-0.059077665 0.059749722 0.40239406
-0.058723077 0.059750676 0.40241176
-0.058388643 0.059772275 0.40256843
-0.058061842 0.059802003 0.40277982
-0.11337566 0.062812231 0.41833484
-0.11305162 0.062838592 0.41852894
-0.11269088 0.062844649 0.4185878
-0.11223603 0.06279809 0.41829616
-0.11184701 0.062788181 0.41824859
-0.11142858 0.062761642 0.41809022
-0.11106526 0.062766068 0.41813809
-0.11060009 0.062712781 0.41780135
-0.11023118 0.062713891 0.41782707
-0.10983242 0.062697969 0.4177393
-0.10937163 0.062646419 0.41741401
-0.10897196 0.062629633 0.41732037
-0.10857832 0.062616222 0.41724908
-0.10823625 0.062632568 0.4173761
-0.10788143 0.062641598 0.41745442
-0.10752041 0.062647097 0.41750911
-0.1071581 0.06265188 0.417559
-0.10676944 0.062641226 0.41750598
-0.10639354 0.062638022 0.41750252
-0.10601221 0.062631577 0.41747752
-0.1055491 0.062576622 0.41712904
-0.10510477 0.062532432 0.41685227
-0.10469323 0.062507518 0.41670394
-0.10429531 0.06249059 0.41660884
-0.10380168 0.062415987 0.41612914
-0.10338489 0.062387217 0.41595498
-0.10284636 0.062284529 0.41528788
-0.10248242 0.062287204 0.41532323
-0.10211151 0.062285651 0.41533038
-0.10170726 0.062263682 0.41520134
-0.10128265 0.062229037 0.41498768
-0.10086732 0.062199865 0.41481045
-0.10048364 0.062190067 0.41476244
-0.10008331 0.06216985 0.41464487
-0.099711046 0.062166989 0.41464302
-0.099260993 0.062115435 0.41431633
-0.098835222 0.062078737 0.41408867
-0.098483875 0.062088694 0.41417217
-0.098063216 0.062054858 0.4139635
-0.097703554 0.062059518 0.41401157
-0.097416222 0.062110327 0.41436753
-0.074504495 0.060799893 0.40651122
-0.074152306 0.06080598 0.40656573
-0.073780969 0.06079635 0.40651506
-0.073411271 0.060787976 0.40647277
-0.073027924 0.060768168 0.40635398
-0.072632752 0.060738277 0.40616766
-0.072220698 0.060693901 0.40588439
-0.071869738 0.060700681 0.40594319
-0.071485102 0.06067894 0.40581116
-0.071142145 0.060692541 0.4059155
-0.070727721 0.060645003 0.4056108
-0.070337147 0.060617529 0.40544024
-0.069957808 0.060599521 0.40533295
-0.069582075 0.060584452 0.40524524
-0.069191538 0.060556274 0.4050698
-0.068815082 0.060540192 0.40497518
-0.068449326 0.060533408 0.40494272
-0.06805598 0.060502026 0.40474561
-0.067685068 0.060490355 0.40468034
-0.067312539 0.060477115 0.40460446
-0.066928886 0.060453683 0.40446037
-0.066570237 0.060452707 0.40446639
-0.066187918 0.06043011 0.40432775
-0.065813296 0.060414329 0.40423465
-0.065424502 0.060385302 0.40405285
-0.065024599 0.060345646 0.4037998
-0.064648226 0.060327511 0.40369073
-0.064297311 0.060333055 0.40374008
-0.06391295 0.060307115 0.40357864
-0.063529201 0.060281463 0.40341908
-0.063134149 0.060244732 0.40318528
-0.062771462 0.060238644 0.40315649
-0.062403321 0.060227219 0.40309191
-0.062013131 0.060194273 0.40288323
-0.061634049 0.060171779 0.40274447
-0.061281715 0.060175296 0.4027797
-0.060882509 0.060132559 0.40250528
-0.060510524 0.060116358 0.40240845
-0.060156729 0.060118161 0.40243196
-0.059790902 0.060107872 0.40237457
-0.059438258 0.060110804 0.40240559
-0.059079859 0.060107909 0.40239754
-0.058740664 0.060124647 0.40252084
-0.058389235 0.060128976 0.40256104
-0.058056142 0.060152359 0.40272877
-0.11345069 0.063225992 0.41860139
-0.11308855 0.063231334 0.41865528
-0.11272512 0.063235983 0.4187046
-0.11235186 0.063235149 0.41871753
-0.1119307 0.063207239 0.41855115
-0.11154298 0.063198105 0.41850901
-0.11106667 0.063138545 0.41813296
-0.11064528 0.063109905 0.41796163
-0.11027197 0.063108593 0.41797122
-0.10986939 0.063090466 0.41786945
-0.10950941 0.063096769 0.41792935
-0.10900267 0.063018255 0.41742748
-0.10856849 0.062981308 0.41720083
-0.10819274 0.062978119 0.41719782
-0.10784711 0.062992483 0.41731107
-0.10750146 0.06300696 0.41742498
-0.10714744 0.063016601 0.41750687
-0.10677407 0.063014902 0.41751352
-0.10636888 0.062994331 0.41739514
-0.10596227 0.062972784 0.4172703
-0.10550432 0.062920466 0.41694143
-0.10509046 0.062894158 0.41678494
-0.10469104 0.062876336 0.41668457
-0.10427616 0.062849097 0.41652173
-0.10379281 0.062780224 0.41608295
-0.10334183 0.062730514 0.41577113
-0.10292327 0.062700205 0.41558772
-0.10253869 0.062690444 0.41554058
-0.10212556 0.062663101 0.41537681
-0.10173298 0.062648222 0.4152956
-0.10133175 0.062627874 0.41517812
-0.10093252 0.062608629 0.41506788
-0.10053106 0.062587857 0.41494742
-0.1001018 0.062549546 0.41471073
-0.099750027 0.062559567 0.41479442
-0.09931609 0.062517934 0.41453552
-0.098938532 0.062511615 0.4145107
-0.098540373 0.062492188 0.41439897
-0.098162033 0.062485225 0.41436985
-0.097783908 0.062478352 0.41434124
