# .PCD v0.7 - Point Cloud Data file format
VERSION 0.7
FIELDS x y z
SIZE 4 4 4
TYPE F F F
COUNT 1 1 1
WIDTH 1341
HEIGHT 1
VIEWPOINT 0 0 0 1 0 0 0
POINTS 1341
DATA ascii
-0.083361223 0.079482622 0.39618611
-0.082988478 0.07946226 0.3960987
-0.082602009 0.079428531 0.39594457
-0.082245559 0.07942348 0.39593342
-0.08189033 0.079419583 0.39592794
-0.081502326 0.079383746 0.39576313
-0.081128255 0.079361208 0.3956646
-0.080784939 0.079368703 0.3957158
-0.080357112 0.079292864 0.39535138
-0.079936013 0.079223029 0.39501691
-0.079566255 0.079203688 0.39493412
-0.079217419 0.079205103 0.39495474
-0.078844853 0.079182692 0.39485654
-0.078482695 0.079170577 0.39480963
-0.078093618 0.079131089 0.39462617
-0.07772278 0.079109795 0.39453337
-0.077360786 0.079097368 0.39448473
-0.076969415 0.079054646 0.39428493
-0.076672725 0.079109222 0.39457041
-0.07629244 0.079077661 0.3944262
-0.075993128 0.079130121 0.39470103
-0.07568416 0.079172976 0.39492789
-0.075323254 0.079161637 0.39488444
-0.044904325 0.076831736 0.38413736
-0.044553909 0.076813444 0.38405409
-0.044206213 0.076799601 0.38399297
-0.043860115 0.076788329 0.38394469
-0.043519232 0.076786093 0.38394153
-0.043154247 0.076740958 0.3837238
-0.042800467 0.076715186 0.38360283
-0.042446092 0.076687932 0.38347438
-0.04210294 0.07668069 0.38344586
-0.041759927 0.076673575 0.38341796
-0.041393366 0.076622754 0.38317147
-0.04104751 0.076609738 0.38311395
-0.040692136 0.07657861 0.38296577
-0.040346168 0.076564796 0.38290411
-0.039990246 0.076531701 0.38274598
-0.039632902 0.076495297 0.38257122
-0.039291028 0.076488398 0.38254392
-0.038947906 0.076478913 0.38250366
-0.038604442 0.076468579 0.38245913
-0.03824079 0.076417737 0.38221189
-0.037899159 0.076410376 0.38218203
-0.037532642 0.076352268 0.38189831
-0.037182085 0.076325864 0.38177311
-0.036858402 0.076354638 0.38192382
-0.036500718 0.07631287 0.38172162
-0.036155399 0.076296419 0.38164601
-0.035811063 0.076281741 0.38157919
-0.035467021 0.076267421 0.3815141
-0.035099313 0.076201454 0.38119054
-0.034755703 0.076187029 0.38112482
-0.034411531 0.076171063 0.3810513
-0.034063481 0.076146141 0.3809329
-0.033719737 0.076130442 0.38086054
-0.033375621 0.076113567 0.38078225
-0.033027995 0.076088265 0.38066179
-0.03267175 0.076042384 0.38043824
-0.032336038 0.076043822 0.38045141
-0.032005057 0.076056555 0.380521
-0.031668216 0.076055475 0.38052142
-0.031321846 0.076031245 0.38040593
-0.031011842 0.076095723 0.38073426
-0.030683745 0.076116741 0.38084501
-0.089841031 0.080285728 0.39816484
-0.089480795 0.080279633 0.39814943
-0.089126125 0.080278516 0.39815867
-0.088764504 0.080271102 0.39813662
-0.088407017 0.080267377 0.39813286
-0.087988876 0.080208339 0.39785469
-0.087604217 0.08017946 0.39772609
-0.087239966 0.080169111 0.39768931
-0.086857133 0.080141529 0.39756697
-0.086503252 0.080140546 0.3975766
-0.086103573 0.080096953 0.39737478
-0.08567512 0.08002612 0.39703774
-0.085298017 0.080002882 0.39693677
-0.084978305 0.080033481 0.39710289
-0.084555849 0.079967178 0.39678818
-0.084176026 0.079940803 0.39667153
-0.083814219 0.079931401 0.39663902
-0.083419561 0.079890452 0.39644992
-0.083068505 0.079891086 0.39646712
-0.0826644 0.079840489 0.3962301
-0.082283147 0.07981164 0.39610085
-0.08190386 0.079784453 0.39597985
-0.081525922 0.079758346 0.39586416
-0.081149586 0.079733588 0.39575508
-0.080771215 0.079706609 0.39563498
-0.080412261 0.079698637 0.39560917
-0.080014557 0.079652034 0.39539143
-0.079630852 0.079619005 0.39524117
-0.079244122 0.079582654 0.39507431
-0.078914866 0.07960394 0.39519352
-0.078515857 0.079554759 0.39496282
-0.078171022 0.079560265 0.39500359
-0.077765934 0.079504237 0.39473879
-0.077390842 0.079478487 0.39462429
-0.077021264 0.079458199 0.39453685
-0.076680794 0.079467893 0.39459828
-0.076343924 0.07948143 0.39467868
-0.076024026 0.079512842 0.39484778
-0.075707287 0.07954786 0.39503479
-0.075384133 0.07957644 0.39518979
-0.04458832 0.077213258 0.38433665
-0.044263672 0.077240013 0.38447797
-0.04390689 0.077210687 0.38434005
-0.043525469 0.077137239 0.38398242
-0.043181837 0.077130131 0.38395497
-0.04283176 0.077111311 0.3838692
-0.042472057 0.077074721 0.38369483
-0.042109326 0.077032007 0.38348994
-0.041761503 0.077016085 0.38341832
-0.041419864 0.077011414 0.38340271
-0.041067481 0.076986521 0.38328633
-0.040712669 0.076956615 0.38314492
-0.040354632 0.07692007 0.38297039
-0.04000067 0.076890729 0.38283169
-0.039658811 0.076884352 0.38280725
-0.039300602 0.076845899 0.38262305
-0.038961928 0.076845318 0.38262731
-0.038621593 0.076841407 0.38261497
-0.038271401 0.076817662 0.38250375
-0.03792863 0.07680852 0.38246518
-0.037581127 0.076789536 0.38237759
-0.037208252 0.076717891 0.38202769
-0.036860995 0.076698251 0.38193667
-0.036525439 0.076702818 0.38196611
-0.036171254 0.076667972 0.38179928
-0.035815049 0.076628163 0.38160762
-0.035471238 0.076614365 0.38154545
-0.035124071 0.076592982 0.38144541
-0.034767609 0.076550722 0.38124132
-0.034424804 0.076538004 0.38118434
-0.034078293 0.076516703 0.38108453
-0.03374571 0.076526575 0.3811399
-0.033385053 0.07647232 0.38087586
-0.033049438 0.076474927 0.3808949
-0.032696635 0.076437406 0.38071403
-0.032341331 0.076393194 0.38049975
-0.032012239 0.076410607 0.38059238
-0.031678308 0.076416738 0.38062876
-0.031340733 0.076414116 0.38062143
-0.031018967 0.076450385 0.38080776
-0.030698197 0.076489955 0.38101047
-0.089553721 0.080699265 0.3984606
-0.089159831 0.080662914 0.39829591
-0.088783175 0.080641933 0.39820701
-0.088479675 0.080687501 0.39844671
-0.088039182 0.080608003 0.39806879
-0.087659858 0.080584094 0.39796531
-0.087300703 0.080578595 0.39795277
-0.086894482 0.080529459 0.39772457
-0.086532399 0.08052098 0.39769718
-0.086184055 0.080525264 0.39773276
-0.085780784 0.080478057 0.39751399
-0.085344858 0.080399707 0.39714128
-0.085000873 0.080407664 0.39719489
-0.084612221 0.080373272 0.39703923
-0.08422403 0.080339022 0.39688423
-0.083866343 0.08033371 0.39687216
-0.083454542 0.080276296 0.39660263
-0.08309561 0.080269478 0.39658299
-0.08273761 0.080263495 0.39656743
-0.082316868 0.080196351 0.39624962
-0.081947662 0.080179043 0.39617804
-0.081558213 0.080141701 0.39600736
-0.081180558 0.080115661 0.39589253
-0.080839671 0.080125846 0.39595664
-0.080440082 0.0800777 0.3957324
-0.080075845 0.080064461 0.39568067
-0.079716101 0.080055624 0.39565063
-0.079310015 0.079999961 0.39538911
-0.07891199 0.079951979 0.39516547
-0.078527108 0.079916939 0.39500576
-0.078188583 0.079928979 0.39507869
-0.07780797 0.079897903 0.39493844
-0.077426121 0.079865262 0.39479047
-0.077048995 0.07983724 0.39466521
-0.076737352 0.079877123 0.39487559
-0.076383226 0.079872936 0.39486808
-0.076031096 0.079870813 0.39487073
-0.075704865 0.07989601 0.39500839
-0.044608127 0.077588178 0.3844932
-0.044266965 0.077586383 0.3844924
-0.043904349 0.077546671 0.38430369
-0.043553356 0.077527031 0.38421431
-0.043191046 0.077486761 0.38402271
-0.042851042 0.077486224 0.38402787
-0.042484898 0.077437997 0.38379669
-0.042133007 0.077415198 0.38369143
-0.041779228 0.077388532 0.38356695
-0.041434556 0.077378452 0.38352454
-0.04108132 0.077352069 0.38340133
-0.040730305 0.077329449 0.38329676
-0.040377527 0.077303104 0.38317353
-0.040029716 0.077285878 0.38309553
-0.039679814 0.077264294 0.38299584
-0.039321579 0.077225976 0.38281316
-0.03897281 0.077205747 0.38272002
-0.038629003 0.077195086 0.38267428
-0.038282666 0.077179126 0.38260221
-0.037930071 0.077150166 0.38246563
-0.037584815 0.077135749 0.38240102
-0.037235077 0.077111773 0.38228902
-0.036877751 0.077071503 0.38209617
-0.036540717 0.077073298 0.38211179
-0.036186878 0.077039346 0.38195014
-0.035830684 0.076999702 0.38176012
-0.035479616 0.076970421 0.38162151
-0.035139833 0.076965287 0.3816025
-0.034795456 0.076949902 0.38153264
-0.034451999 0.076936275 0.38147137
-0.034086332 0.076872282 0.38116038
-0.033744778 0.076861948 0.38111532
-0.033402428 0.076849565 0.38106006
-0.033062145 0.076841742 0.38102734
-0.032721885 0.076833807 0.38099402
-0.03238127 0.076824874 0.38095564
-0.032030631 0.076791711 0.38079706
-0.031692114 0.076787218 0.38078061
-0.031363934 0.076807953 0.38088918
-0.031015538 0.076779082 0.3807517
-0.030708412 0.076852873 0.38112327
-0.089580119 0.08107736 0.3985647
-0.089218274 0.081070065 0.3985436
-0.088876791 0.081081294 0.39861351
-0.088516824 0.081075676 0.39860058
-0.088087425 0.081006162 0.39827347
-0.087690629 0.08096619 0.39809152
-0.087314337 0.080944918 0.39800146
-0.086958483 0.080942482 0.398004
-0.086574495 0.080913737 0.39787713
-0.086188912 0.080883265 0.39774168
-0.085797794 0.080847323 0.39757928
-0.085413538 0.080817573 0.39744732
-0.085056208 0.080813162 0.3974399
-0.084633879 0.080746703 0.39712733
-0.084272452 0.080738045 0.39709887
-0.083894789 0.080713674 0.39699319
-0.083524778 0.080696516 0.39692286
-0.083121121 0.080646552 0.39669114
-0.082745321 0.080623306 0.39659083
-0.082376242 0.080606438 0.39652178
-0.08203125 0.080613114 0.39656851
-0.081615351 0.080549844 0.39627111
-0.081206694 0.080493227 0.39600638
-0.080864064 0.080501832 0.39606246
-0.080482058 0.080471151 0.39592522
-0.080133475 0.080473766 0.39595175
-0.079758935 0.080450222 0.39584953
-0.079364762 0.080406569 0.39564836
-0.078959912 0.080351688 0.39539176
-0.078594074 0.080336176 0.39532888
-0.07822749 0.080319755 0.39526153
-0.077859424 0.080301665 0.39518586
-0.077485837 0.080277696 0.39508125
-0.077094324 0.080234855 0.39488363
-0.076744542 0.080235243 0.3948988
-0.076410972 0.080252677 0.39499775
-0.076062873 0.080254927 0.39502198
-0.07572829 0.080271527 0.39511675
-0.075421356 0.080317743 0.39535728
-0.044632152 0.07797078 0.38468602
-0.044287115 0.077962488 0.38465327
-0.043941516 0.077953056 0.38461477
-0.043583311 0.077920943 0.38446435
-0.043218929 0.077877194 0.38425642
-0.042870965 0.077862591 0.38419217
-0.042521574 0.077845126 0.38411379
-0.042172093 0.077827215 0.38403317
-0.04180871 0.07778316 0.38382342
-0.041452538 0.077751882 0.38367677
-0.041102111 0.077730991 0.38358113
-0.040753864 0.077713892 0.38350427
-0.040391997 0.077670313 0.38329667
-0.040040031 0.077645205 0.38318005
-0.039695013 0.077633254 0.38312837
-0.03935213 0.077625304 0.3830964
-0.038996734 0.077592328 0.38294083
-0.038655475 0.07758715 0.38292235
-0.03831939 0.077592351 0.38295507
-0.037942879 0.077515058 0.38258058
-0.037608851 0.077523962 0.38263142
-0.037256997 0.077495933 0.3824999
-0.036902383 0.077461608 0.38233724
-0.036557514 0.077447288 0.38227329
-0.036208604 0.077424064 0.38216531
-0.035852131 0.077384077 0.38197452
-0.035502598 0.077358462 0.38185459
-0.035157114 0.077341251 0.38177609
-0.03481051 0.077321216 0.38168359
-0.034455724 0.077282444 0.38149852
-0.034109738 0.077262841 0.38140801
-0.033773508 0.077265166 0.38142568
-0.033414263 0.077214353 0.381181
-0.03307648 0.077212617 0.38117847
-0.032722216 0.077171974 0.38098383
-0.032388456 0.07717932 0.38102606
-0.032042701 0.077157982 0.38092655
-0.031703554 0.07715223 0.38090399
-0.031378154 0.077180199 0.38104782
-0.031032845 0.077159263 0.38095012
-0.030707581 0.077188253 0.38109887
-0.030393155 0.077245444 0.38138682
-0.0896153 0.081463642 0.39870784
-0.089280315 0.081480965 0.39880732
-0.088904038 0.08146058 0.39872226
-0.08852791 0.081440181 0.39863706
-0.088141896 0.081410475 0.39850628
-0.08778289 0.08140558 0.39849693
-0.08739417 0.081372984 0.39835188
-0.087017268 0.081351168 0.39825955
-0.086592421 0.081284158 0.39794597
-0.086223103 0.081268951 0.39788592
-0.085876651 0.081275262 0.39793116
-0.085463487 0.08121822 0.39766619
-0.085092783 0.081201218 0.39759722
-0.084712133 0.081174567 0.39748093
-0.084324889 0.081141338 0.39733237
-0.0839279 0.081098393 0.39713627
-0.083572522 0.081095479 0.39713609
-0.083183706 0.081059977 0.3969762
-0.082786046 0.081015497 0.39677235
-0.082398728 0.0809808 0.39661637
-0.082041457 0.08097548 0.39660418
-0.081630774 0.08091715 0.39633232
-0.081298664 0.080936544 0.39644116
-0.080884382 0.080873944 0.39614829
-0.08056765 0.080908775 0.39633259
-0.080149323 0.080841422 0.3960163
-0.0797901 0.080833368 0.39599046
-0.079393648 0.080787353 0.39577857
-0.079015389 0.080759518 0.39565572
-0.078654461 0.080749236 0.39561883
-0.078268357 0.080712907 0.39545423
-0.077884987 0.080679074 0.39530185
-0.077523857 0.080668092 0.39526129
-0.077128552 0.08062128 0.39504516
-0.076770447 0.080613092 0.39501828
-0.076425359 0.080618575 0.39505827
-0.076086558 0.080630749 0.39513111
-0.075737134 0.080631755 0.39514905
-0.075417705 0.080664836 0.3953242
-0.044638135 0.07832209 0.38472337
-0.044285044 0.078299604 0.38462099
-0.043945555 0.07830099 0.38463587
-0.043606743 0.078303628 0.38465676
-0.043252062 0.078277573 0.38453674
-0.042903088 0.078261524 0.38446575
-0.042548928 0.078235693 0.38434666
-0.042201176 0.078221314 0.38428372
-0.041829653 0.07816229 0.38400143
-0.041496471 0.078174531 0.38406914
-0.04112149 0.078107581 0.38374779
-0.040765904 0.078076653 0.3836033
-0.040419355 0.078062668 0.383542
-0.040079072 0.078060649 0.38353944
-0.03971165 0.078005299 0.38327476
-0.039370395 0.078000814 0.38325998
-0.039025202 0.077988409 0.38320616
-0.038661662 0.077938788 0.38296941
-0.038320087 0.077932961 0.3829478
-0.037974797 0.077919409 0.38288823
-0.037606072 0.077857099 0.38258889
-0.037263375 0.077848032 0.38255116
-0.036909189 0.077814572 0.38239357
-0.036567979 0.077808112 0.38236853
-0.036228839 0.077805981 0.38236469
-0.03587798 0.077778414 0.38223574
-0.035514053 0.077721693 0.38196355
-0.035176426 0.077722013 0.3819716
-0.034833487 0.077710509 0.38192141
-0.03447935 0.077673532 0.38174599
-0.034138799 0.077666715 0.38171878
-0.033789687 0.077640139 0.3815943
-0.033432279 0.077593729 0.38137233
-0.033096321 0.077596687 0.38139299
-0.032744687 0.077562571 0.38123128
-0.032398991 0.07754197 0.38113591
-0.032054383 0.077523559 0.3810513
-0.031719517 0.077528566 0.38108173
-0.03137527 0.077510506 0.3809987
-0.031043405 0.077522978 0.3810657
-0.030717796 0.077551521 0.38121161
-0.030394144 0.07758569 0.38138512
-0.089288257 0.081842758 0.39882928
-0.088921614 0.081831194 0.39878759
-0.088583075 0.081845492 0.39887196
-0.088199213 0.081817858 0.39875188
-0.087827414 0.081801243 0.39868549
-0.087416872 0.081748255 0.39844173
-0.087052949 0.081738621 0.39840928
-0.086652152 0.081694141 0.39820689
-0.086268939 0.081665941 0.39808384
-0.085873663 0.08162605 0.39790371
-0.085532628 0.081637606 0.39797431
-0.08512371 0.081584178 0.39772812
-0.084772028 0.081585392 0.39774829
-0.084368497 0.081536524 0.39752418
-0.084010035 0.081530966 0.39751124
-0.083604753 0.081479751 0.39727557
-0.083219416 0.081447616 0.3971329
-0.082874492 0.081454925 0.39718252
-0.082437083 0.081371009 0.39678726
-0.082075715 0.081361763 0.39675605
-0.081707552 0.081345662 0.39669138
-0.081359945 0.081349984 0.39672622
-0.080942012 0.081283711 0.39641678
-0.080564752 0.081257895 0.39630455
-0.080176748 0.081220962 0.39613807
-0.07981801 0.081213489 0.39611518
-0.079406083 0.081151582 0.39582679
-0.079071745 0.081168778 0.39592415
-0.07866814 0.081114694 0.39567381
-0.078301311 0.081098221 0.39560685
-0.077887148 0.081032373 0.39529896
-0.077547349 0.081043631 0.39536718
-0.077168345 0.081013843 0.39523509
-0.07680916 0.081004679 0.39520359
-0.07646165 0.081007794 0.39523193
-0.076100521 0.080996461 0.3951897
-0.075764574 0.081011936 0.39527828
-0.075434096 0.081033424 0.39539617
-0.075124182 0.081077315 0.39562333
-0.044657402 0.078696907 0.38487509
-0.044299737 0.078666449 0.38473424
-0.043962337 0.078671798 0.38476843
-0.043633889 0.078693368 0.38488188
-0.04325854 0.07863003 0.38458005
-0.042931948 0.078655019 0.3847101
-0.04256757 0.078610621 0.38450074
-0.042220756 0.078598209 0.38444775
-0.041868355 0.078575104 0.3843424
-0.041500799 0.078522965 0.38409495
-0.041143965 0.078490391 0.3839432
-0.040802933 0.078487694 0.38393748
-0.04044186 0.078446075 0.38374126
-0.040088803 0.078419432 0.3836183
-0.039745923 0.078412406 0.38359118
-0.039385691 0.078370742 0.3833946
-0.039036613 0.078350745 0.38330388
-0.038684115 0.078323469 0.38317755
-0.038341627 0.078316152 0.38314879
-0.03797989 0.078269042 0.3829253
-0.037641428 0.078269497 0.38293436
-0.037297238 0.078257918 0.38288459
-0.03692691 0.078190796 0.38256294
-0.036583174 0.078179255 0.3825132
-0.036248092 0.078186169 0.38255364
-0.035900649 0.078166291 0.38246298
-0.035550896 0.078140974 0.38234562
-0.035190549 0.078091651 0.38211071
-0.034840196 0.078063779 0.38198072
-0.034495208 0.078047499 0.38190734
-0.034148004 0.078025818 0.38180754
-0.033810783 0.078026757 0.38181829
-0.033454962 0.07798437 0.38161698
-0.033098307 0.077939123 0.38140163
-0.032753982 0.0779223 0.38132533
-0.032420635 0.077931516 0.38137639
-0.032072097 0.077904038 0.38124773
-0.031729911 0.077891551 0.38119242
-0.031394258 0.077895001 0.3812151
-0.0310612 0.077905066 0.38126999
-0.030722521 0.077901088 0.3812561
-0.030397389 0.077931739 0.38141167
-0.088970505 0.082230881 0.39899331
-0.08859209 0.082208417 0.39889896
-0.088227578 0.082198739 0.39886653
-0.08785826 0.082184479 0.39881191
-0.087473929 0.082155995 0.39868823
-0.087121442 0.082157329 0.39870915
-0.086722761 0.082114913 0.39851776
-0.086303934 0.082052998 0.39823166
-0.0859534 0.082055792 0.39825952
-0.085576817 0.082033627 0.39816627
-0.085174248 0.081986263 0.39795059
-0.084790535 0.081956737 0.39782146
-0.084415473 0.081935354 0.39773181
-0.084030867 0.081904486 0.39759609
-0.083656594 0.081883483 0.39750817
-0.083269753 0.081849948 0.39735937
-0.082907721 0.081840612 0.39732802
-0.082484104 0.081770152 0.39699984
-0.082136117 0.081774376 0.39703423
-0.081752688 0.081743203 0.39689669
-0.081380181 0.081722729 0.3968111
-0.081020482 0.081715003 0.39678729
-0.080566987 0.081612185 0.39630169
-0.080233507 0.081630588 0.39640465
-0.079867072 0.081615455 0.39634478
-0.079482965 0.081582069 0.39619616
-0.079079092 0.081527993 0.39594704
-0.07874652 0.081547283 0.39605418
-0.0783609 0.081511565 0.39589408
-0.077980727 0.081481211 0.39575997
-0.077590019 0.08143954 0.39557084
-0.077203542 0.081401937 0.39540145
-0.076821908 0.081369117 0.39525521
-0.076480374 0.081378669 0.39531478
-0.076133542 0.081382662 0.39534724
-0.075790256 0.08139047 0.39539826
-0.075448722 0.081400275 0.39545888
-0.07512664 0.081431255 0.39562228
-0.04468786 0.079091825 0.38512322
-0.04434368 0.079085708 0.38510153
-0.04398771 0.079058304 0.38497615
-0.043636754 0.079039559 0.38489279
-0.04328613 0.079021119 0.38481095
-0.042939629 0.079009987 0.38476452
-0.042580198 0.078974694 0.38460046
-0.042256415 0.079005472 0.38475806
-0.041894242 0.078964397 0.38456568
-0.041527968 0.078914858 0.38433203
-0.041167889 0.078876369 0.38415211
-0.040810075 0.078841612 0.38399029
-0.040460676 0.078822672 0.38390547
-0.040111981 0.078804791 0.38382572
-0.039777 0.078813791 0.3838768
-0.039419159 0.078777254 0.38370606
-0.03906022 0.078737862 0.38352132
-0.038693093 0.078681141 0.38325217
-0.038369741 0.078713216 0.3834154
-0.038013812 0.078678444 0.38325295
-0.037656959 0.078641117 0.38307804
-0.037292108 0.078586243 0.38281757
-0.036951061 0.078581005 0.38279882
-0.036596484 0.078546628 0.38263807
-0.036254693 0.078539304 0.38260901
-0.035912942 0.078531928 0.38257965
-0.035571627 0.078525394 0.38255429
-0.03521391 0.078482166 0.38235012
-0.034867588 0.078463741 0.38226676
-0.034506768 0.078412004 0.38202104
-0.03416127 0.07839442 0.38194162
-0.033822175 0.078391321 0.38193271
-0.033478763 0.078378059 0.3818742
-0.033131056 0.078354374 0.38176483
-0.032765623 0.07828784 0.38144669
-0.032432877 0.078298837 0.38150617
-0.032092568 0.07829161 0.38147685
-0.031734791 0.078241169 0.38123685
-0.031406377 0.078262828 0.3813481
-0.031059641 0.078238785 0.38123664
-0.030744843 0.078295574 0.38151893
-0.0304281 0.078348592 0.38178286
-0.089011081 0.082623243 0.3991617
-0.088645153 0.08261247 0.39912426
-0.088256128 0.082580008 0.39898199
-0.087881342 0.082560658 0.39890304
-0.087509684 0.082544096 0.39883754
-0.087147608 0.082536489 0.39881521
-0.086787611 0.082530789 0.3988021
-0.086398184 0.082496949 0.39865291
-0.08599367 0.082448348 0.39843237
-0.085600086 0.082409874 0.39826074
-0.085214525 0.082378849 0.39812502
-0.084829345 0.082347929 0.39798981
-0.084482975 0.08235459 0.39803609
-0.084079526 0.082305424 0.3978126
-0.083709925 0.082289115 0.39774781
-0.083322451 0.082255036 0.39759704
-0.082943939 0.082229547 0.39748782
-0.082551181 0.082189657 0.39730889
-0.082174681 0.082165681 0.39720684
-0.081792206 0.082135499 0.39707473
-0.081412263 0.082107611 0.3969537
-0.081030741 0.082077876 0.39682364
-0.080620036 0.082018204 0.39654881
-0.080300331 0.082050979 0.39672092
-0.079905003 0.082006447 0.39651912
-0.079516135 0.081968173 0.39634758
-0.079130121 0.081932515 0.39618865
-0.078762233 0.081915393 0.39611927
-0.07837756 0.081880584 0.39596432
-0.078020491 0.081874423 0.39594784
-0.077649191 0.081853211 0.39585853
-0.077282295 0.081836469 0.39579082
-0.07684835 0.081748247 0.39537728
-0.076509073 0.081760384 0.39544913
-0.076146998 0.081748158 0.39540309
-0.075793788 0.081745386 0.39540267
-0.075465463 0.081769556 0.39553255
-0.075159848 0.081818663 0.39578307
-0.074850425 0.081864074 0.39601564
-0.044725642 0.079500236 0.38543442
-0.044374611 0.079482339 0.38535574
-0.044018179 0.079454415 0.3852284
-0.043668419 0.079438187 0.38515767
-0.043319888 0.079423957 0.38509661
-0.04294524 0.079361245 0.38480037
-0.042592965 0.079339221 0.38470131
-0.042274501 0.079380319 0.38490832
-0.041924614 0.079362601 0.38483009
-0.041550603 0.079298548 0.38452706
-0.041189846 0.079258949 0.38434258
-0.040827759 0.079216108 0.38414231
-0.040494431 0.079228818 0.38421133
-0.040137604 0.079195388 0.38405651
-0.039787326 0.079174407 0.38396206
-0.039425921 0.079130746 0.3837575
-0.039081596 0.079120889 0.38371688
-0.038722467 0.079080634 0.38352871
-0.038385138 0.07908459 0.38355491
-0.038023677 0.079038434 0.38333803
-0.037668452 0.079004548 0.38318056
-0.037330169 0.079005904 0.38319397
-0.036978375 0.078978427 0.3830674
-0.036622599 0.078941859 0.38289675
-0.036263265 0.07889685 0.3826851
-0.035923392 0.078893766 0.38267669
-0.035581525 0.078886166 0.38264635
-0.035239961 0.078879125 0.38261867
-0.034898169 0.078871444 0.38258773
-0.034512438 0.078763314 0.38206956
-0.034175307 0.078765064 0.38208428
-0.033826552 0.0787398 0.38196787
-0.033489957 0.078742608 0.3819876
-0.033142809 0.078720406 0.38188595
-0.032799318 0.078706533 0.38182467
-0.032449547 0.07867714 0.38168797
-0.032109573 0.078671135 0.38166469
-0.031754445 0.07862749 0.38145873
-0.031432077 0.078664884 0.38164592
-0.031098818 0.078675546 0.38170329
-0.088691264 0.08301045 0.39931825
-0.088340595 0.083014071 0.3993502
-0.087928519 0.082959771 0.39910352
-0.08758156 0.082966723 0.39915141
-0.087182447 0.082924128 0.39896095
-0.086789198 0.08288677 0.39879566
-0.08643496 0.082886532 0.39880887
-0.086041018 0.082848057 0.39863804
-0.085657172 0.082819022 0.3985126
-0.085235342 0.082752891 0.39820856
-0.0848689 0.08274018 0.39816159
-0.08450532 0.082730189 0.39812759
-0.084105797 0.082684755 0.39792305
-0.083725624 0.082658067 0.39780861
-0.083372265 0.082657717 0.39782095
-0.082974546 0.082613215 0.39762068
-0.082591131 0.082582608 0.39748731
-0.082205452 0.08254949 0.3973417
-0.081828788 0.082525164 0.39723843
-0.081427135 0.082475334 0.39701229
-0.081078216 0.08247871 0.39704224
-0.08069019 0.082442164 0.39687997
-0.080319092 0.082422651 0.39679968
-0.079931632 0.082386121 0.39663735
-0.07952223 0.082326546 0.39636403
-0.079180524 0.082336843 0.39642707
-0.078786552 0.082292631 0.39622763
-0.078416578 0.082273208 0.39614746
-0.078041613 0.082248345 0.39604101
-0.077691004 0.082249045 0.39605767
-0.077321731 0.082229905 0.39597872
-0.076910846 0.082166135 0.39568481
-0.076529182 0.082133144 0.39553905
-0.076161698 0.082115136 0.3954654
-0.075819828 0.082124703 0.39552447
-0.075475529 0.082131721 0.39557126
-0.075159177 0.082169361 0.39576548
-0.074832484 0.082195982 0.3959066
-0.074531563 0.082251318 0.39618593
-0.04473047 0.079850391 0.38546154
-0.044387929 0.079847753 0.38545692
-0.044024557 0.079807319 0.3852697
-0.043678906 0.079798631 0.38523573
-0.04332567 0.079775825 0.38513353
-0.042966779 0.079742171 0.38497892
-0.042611923 0.079715535 0.3848581
-0.042272866 0.079718269 0.38487896
-0.041926004 0.079706199 0.38482833
-0.041577913 0.079691574 0.38476533
-0.041225858 0.079669051 0.38466412
-0.040858854 0.079617038 0.38442042
-0.040497959 0.07957615 0.38423038
-0.04014479 0.079549864 0.38411081
-0.039804306 0.0795485 0.38411149
-0.039454907 0.079529136 0.38402519
-0.039117757 0.079534337 0.38405746
-0.038741518 0.079459466 0.38370296
-0.03840182 0.079458877 0.38370717
-0.03804614 0.079424925 0.38355011
-0.037702039 0.079414733 0.38350782
-0.037353016 0.079393916 0.38341406
-0.037000783 0.07936582 0.38328516
-0.036638606 0.079315685 0.3830497
-0.036296323 0.07930807 0.38301957
-0.035943415 0.079276904 0.38287559
-0.035594396 0.079253778 0.38277042
-0.035251547 0.079244085 0.38273004
-0.034911182 0.07923986 0.382716
-0.034564514 0.079221092 0.38263166
-0.034200888 0.079162709 0.38235593
-0.033843763 0.079118356 0.38214785
-0.033505972 0.079118766 0.38215595
-0.033161957 0.079104334 0.38209227
-0.03280225 0.079051793 0.38184449
-0.032469187 0.079063043 0.38190472
-0.032123219 0.079042763 0.38181263
-0.031773992 0.079013944 0.38167924
-0.031439651 0.079021946 0.38172358
-0.031112399 0.079048119 0.3818557
-0.030764157 0.079020955 0.38173008
-0.088723846 0.083396092 0.39945126
-0.088368535 0.083395459 0.39946279
-0.087973073 0.083356775 0.39929202
-0.087631658 0.083369203 0.39936602
-0.087200001 0.083295532 0.39902753
-0.086868346 0.083317168 0.39914557
-0.086455688 0.083260976 0.3988907
-0.086074829 0.08323507 0.39878088
-0.085703075 0.0832178 0.39871237
-0.085286379 0.083156556 0.39843318
-0.084917635 0.083141744 0.39837638
-0.084551029 0.083128922 0.39832905
-0.0841754 0.083107099 0.39823854
-0.083763741 0.083049349 0.39797583
-0.083423845 0.083062567 0.39805314
-0.083017558 0.083009519 0.39781287
-0.082665898 0.083010882 0.39783326
-0.082253434 0.082950912 0.3975597
-0.081880182 0.082930163 0.39747402
-0.081512429 0.082914814 0.39741421
-0.081135891 0.082890376 0.39731076
-0.080762863 0.082869306 0.39722344
-0.080375992 0.082833797 0.39706677
-0.080020607 0.082830556 0.39706486
-0.079619154 0.082779415 0.39683315
-0.079232141 0.082742877 0.39667144
-0.078860477 0.08272212 0.39658535
-0.078450941 0.082661279 0.39630702
-0.078078337 0.082638979 0.39621338
-0.077724047 0.082635947 0.3962121
-0.077347502 0.082609117 0.39609668
-0.076953031 0.082562804 0.39588779
-0.076588213 0.082548037 0.39583004
-0.07621181 0.082520582 0.39571148
-0.075827204 0.082483955 0.39554882
-0.075498946 0.082508586 0.39567986
-0.075181872 0.082545698 0.39587077
-0.074842639 0.082558729 0.39594615
-0.074531294 0.082602791 0.39617032
-0.074195094 0.0826196 0.39626369
-0.044432323 0.080269516 0.38582787
-0.044068426 0.080228575 0.3856391
-0.043708585 0.080194436 0.38548294
-0.043345626 0.080153994 0.38529643
-0.042990781 0.080128036 0.38517946
-0.042632744 0.080095656 0.38503161
-0.042291112 0.080093838 0.38503057
-0.041938428 0.08007089 0.3849279
-0.041580204 0.080036893 0.38477203
-0.041247997 0.080052838 0.38485619
-0.040889759 0.080018118 0.38469669
-0.040528405 0.079976641 0.38450471
-0.040174942 0.079950191 0.38438484
-0.039818954 0.079918213 0.38423833
-0.039467521 0.0798949 0.38413346
-0.039118789 0.079876706 0.38405314
-0.038769361 0.079856746 0.38396424
-0.038410943 0.079817772 0.38378382
-0.038064953 0.079804152 0.38372532
-0.037705682 0.079762198 0.38353044
-0.0373624 0.0797536 0.3834959
-0.037018333 0.079743162 0.38345248
-0.036664844 0.079712048 0.38330954
-0.036307622 0.079672165 0.38312435
-0.03597109 0.079677358 0.38315591
-0.035619989 0.079650089 0.38303122
-0.035264287 0.079611875 0.38285396
-0.034922708 0.07960514 0.38282791
-0.034570087 0.079572864 0.38267896
-0.034229174 0.079567157 0.38265774
-0.033875816 0.079532102 0.38249537
-0.033523425 0.079498656 0.38234061
-0.033173446 0.079470307 0.38221025
-0.032821372 0.079436295 0.38205269
-0.032473352 0.079411484 0.38193926
-0.032134138 0.079407938 0.38192803
-0.031799402 0.07941547 0.38197011
-0.031448241 0.079381734 0.38181353
-0.031115886 0.079395235 0.38188413
-0.030776596 0.079391159 0.38187009
-0.030465648 0.079460897 0.38221109
-0.08841639 0.08379595 0.39966539
-0.08803831 0.083773829 0.39957434
-0.087641649 0.083733775 0.39939776
-0.087282151 0.083729044 0.39938962
-0.086932085 0.083733365 0.39942461
-0.086517341 0.083675161 0.39916131
-0.086094305 0.083608441 0.3988573
-0.085722752 0.083591372 0.39879009
-0.085364588 0.083587252 0.39878464
-0.08496578 0.083543152 0.39858839
-0.084565483 0.083497211 0.39838329
-0.08422707 0.083512247 0.39846909
-0.083828591 0.083467588 0.39827001
-0.083444819 0.083437264 0.39813927
-0.083048657 0.083394252 0.39794797
-0.082691997 0.08339069 0.39794487
-0.082271181 0.083322138 0.39763153
-0.081924014 0.083327904 0.39767283
-0.081551358 0.083307683 0.39759007
-0.081144936 0.083252646 0.39734104
-0.080811284 0.083272114 0.39744762
-0.080411062 0.083222851 0.39722604
-0.080019988 0.083182663 0.39704776
-0.079660073 0.083174653 0.39702302
-0.079261616 0.083126165 0.39680499
-0.07888604 0.083101325 0.39669982
-0.078506507 0.083072089 0.3965736
-0.07811439 0.083029211 0.39638221
-0.077752843 0.083018608 0.39634478
-0.077346884 0.082960248 0.39607936
-0.07701014 0.082975946 0.39616746
-0.076633461 0.082948558 0.39604977
-0.076260895 0.082925394 0.39595219
-0.075876072 0.082888618 0.39578965
-0.075541094 0.082906209 0.3958866
-0.075168878 0.082882911 0.39578822
-0.074852012 0.082920708 0.39598158
-0.074538819 0.082962953 0.3961961
-0.07421606 0.082994886 0.39636138
-0.04444506 0.080634542 0.38592392
-0.044083491 0.080597863 0.38575637
-0.043735828 0.080586232 0.38570866
-0.043377064 0.0805538 0.38556132
-0.043018956 0.08052209 0.38541734
-0.042675164 0.080516875 0.38540015
-0.042328354 0.08050584 0.38535506
-0.041955829 0.080445334 0.38507307
-0.041602988 0.080421887 0.38496834
-0.041250262 0.080398262 0.38486278
-0.040907841 0.080394499 0.38485223
-0.040558454 0.080376878 0.38477525
-0.04020622 0.080353253 0.38466948
-0.039846942 0.080315053 0.38449386
-0.039499469 0.08030019 0.38442987
-0.039139334 0.080259092 0.38424027
-0.038790349 0.080240339 0.38415757
-0.038428649 0.080194741 0.38394624
-0.03809797 0.080213621 0.38404357
-0.037732262 0.080158442 0.38378626
-0.037399922 0.08017379 0.38386655
-0.037027083 0.080101803 0.38352862
-0.036682371 0.080089889 0.38347828
-0.036333568 0.08006876 0.38338369
-0.035984404 0.080046415 0.38328326
-0.0356474 0.080050953 0.38331145
-0.035284575 0.07999704 0.38305974
-0.034946647 0.079999074 0.38307586
-0.03458913 0.079955868 0.38287526
-0.034240972 0.079933658 0.38277513
-0.033890001 0.07990437 0.38264108
-0.033532098 0.079858005 0.38242507
-0.033196755 0.079864934 0.38246435
-0.032847986 0.079839401 0.38234803
-0.032506213 0.07983052 0.3823114
-0.03215031 0.079786375 0.38210583
-0.031809725 0.079779714 0.38207972
-0.03147221 0.07978069 0.38209012
-0.031120425 0.079745129 0.38192543
-0.030791514 0.079768047 0.38204077
-0.030474819 0.079823472 0.38231176
-0.088425756 0.084160186 0.39969391
-0.088050157 0.084140375 0.39961427
-0.087682411 0.084127948 0.39956966
-0.087319918 0.084120467 0.39954859
-0.086930826 0.084087208 0.39940497
-0.086556107 0.084067635 0.39932629
-0.086197644 0.084063761 0.39932215
-0.085810684 0.084031932 0.39918521
-0.085378774 0.08395566 0.39883703
-0.085020214 0.083951168 0.39882985
-0.084644556 0.08392968 0.39874184
-0.084237777 0.083877027 0.39850578
-0.083843149 0.083836094 0.39832523
-0.083489776 0.083836228 0.39833984
-0.083112352 0.083812103 0.39823914
-0.082717031 0.083769672 0.39805135
-0.082362197 0.08376804 0.39805743
-0.081968665 0.083726868 0.39787555
-0.081580803 0.083691157 0.39771953
-0.081204057 0.083666585 0.39761648
-0.080851726 0.083667077 0.39763239
-0.080428705 0.083594084 0.39729911
-0.08004722 0.083563827 0.39716879
-0.079673059 0.083540976 0.39707366
-0.079316385 0.083536342 0.39706504
-0.07892625 0.083496258 0.3968879
-0.078578644 0.083501026 0.3969239
-0.07819806 0.08347062 0.39679265
-0.077808395 0.083430223 0.39661384
-0.077426709 0.083398037 0.396474
-0.077043518 0.08336392 0.39632496
-0.076644711 0.083312549 0.39609379
-0.076301344 0.083321214 0.39614803
-0.075909622 0.08327692 0.39595041
-0.075581886 0.083302736 0.39608613
-0.075201564 0.08327058 0.39594609
-0.074887201 0.083311483 0.39615345
-0.074530259 0.083305195 0.39613631
-0.074211352 0.083341546 0.39632195
-0.0444576 0.080999404 0.38601819
-0.04412983 0.081024796 0.38614723
-0.043765642 0.080983207 0.38595694
-0.043413647 0.080963701 0.38587186
-0.0430528 0.080927238 0.38570589
-0.042710301 0.080924973 0.38570285
-0.042335592 0.080861136 0.38540632
-0.041989904 0.080852166 0.38537112
-0.041625105 0.08080592 0.38515833
-0.041273594 0.080784947 0.38506582
-0.040925439 0.080770239 0.38500318
-0.040572148 0.080745064 0.38489053
-0.040233493 0.080748849 0.38491586
-0.03988206 0.080726817 0.38481811
-0.039526969 0.08069694 0.38468289
-0.039156374 0.080634631 0.38439295
-0.038817395 0.080636896 0.38441083
-0.038470734 0.080623105 0.38435209
-0.038121425 0.08060348 0.38426545
-0.037751041 0.080538526 0.38396269
-0.037413847 0.080543846 0.38399485
-0.037061498 0.080516353 0.38387048
-0.036714982 0.080501139 0.38380462
-0.036367737 0.080484025 0.38372964
-0.035989404 0.080397144 0.38332197
-0.035658162 0.080414802 0.38341266
-0.035302885 0.080378078 0.38324395
-0.034970857 0.080394089 0.38332668
-0.034597762 0.080315091 0.38295633
-0.034248699 0.080290876 0.38284704
-0.033904541 0.080277778 0.38279077
-0.033553123 0.080247052 0.38265035
-0.033212356 0.080241449 0.38262963
-0.032849092 0.080180801 0.38234642
-0.032518506 0.080199502 0.38244149
-0.032169875 0.080173619 0.38232395
-0.031818174 0.080139458 0.38216677
-0.031487536 0.080158181 0.38226178
-0.031162852 0.080192626 0.38243172
-0.030823549 0.080189802 0.38242382
-0.030503603 0.080237836 0.38265842
-0.088117942 0.084560722 0.39990813
-0.087726772 0.08452592 0.39975795
-0.08735951 0.084513985 0.39971587
-0.086962104 0.084472649 0.39953476
-0.086594068 0.08445964 0.39948753
-0.086214557 0.084435277 0.39938653
-0.085839473 0.084415071 0.39930516
-0.085438415 0.084369056 0.39910167
-0.085070878 0.084355883 0.39905348
-0.08469893 0.084338225 0.39898401
-0.084294736 0.084288172 0.39876124
-0.083918177 0.084265426 0.39866763
-0.083544284 0.08424519 0.39858589
-0.083159834 0.084214106 0.39845267
-0.082785882 0.084193408 0.3983686
-0.082378134 0.084138028 0.39812037
-0.081990167 0.084102467 0.39796585
-0.081614047 0.084078796 0.39786753
-0.081259727 0.084077485 0.39787498
-0.080887862 0.084057927 0.39779603
-0.080511838 0.084033854 0.39769566
-0.080090255 0.083961807 0.39736819
-0.07972113 0.08394435 0.39729908
-0.0793247 0.083897881 0.39709252
-0.078951269 0.083875418 0.3969996
-0.078594245 0.083870269 0.39698851
-0.078207664 0.083833389 0.39682722
-0.077814683 0.083789274 0.39663163
-0.077451527 0.083777048 0.39658689
-0.077066243 0.083740644 0.39642769
-0.076706663 0.083731964 0.39639968
-0.076341026 0.083716571 0.39633977
-0.075952716 0.083676048 0.39616096
-0.075599536 0.083674036 0.39616433
-0.075238548 0.083663329 0.39612654
-0.074897528 0.083674833 0.3961938
-0.07455501 0.08368475 0.39625356
-0.07421536 0.083698004 0.39632908
-0.073910333 0.08375062 0.39659089
-0.044498343 0.081416063 0.38635728
-0.044143166 0.081391603 0.38624921
-0.043772168 0.081337377 0.38599983
-0.043415498 0.081309125 0.38587362
-0.043071721 0.081304781 0.38586077
-0.042737488 0.081318505 0.3859337
-0.042360079 0.081249647 0.38561457
-0.042015016 0.081242219 0.38558692
-0.041664366 0.081223771 0.38550696
-0.041315306 0.081208162 0.38544035
-0.040951703 0.081163459 0.38523561
-0.040588945 0.081119701 0.38503525
-0.040247761 0.081118666 0.38503769
-0.039889172 0.081082247 0.38487208
-0.039547406 0.081079707 0.38486716
-0.039182339 0.081028916 0.38463321
-0.038841475 0.081027746 0.3846347
-0.038485125 0.08099395 0.38448125
-0.038132526 0.080967523 0.38436273
-0.037779465 0.080939621 0.38423714
-0.037428372 0.080915473 0.38412935
-0.037079234 0.080895156 0.38403961
-0.036726911 0.080867447 0.38391471
-0.036380075 0.080851413 0.38384521
-0.036020979 0.080807582 0.38364369
-0.035661269 0.080761537 0.38343152
-0.03532473 0.080767564 0.38346654
-0.034979463 0.080753572 0.38340646
-0.034630671 0.080731086 0.38330603
-0.034275807 0.080693863 0.3831355
-0.033928629 0.080674171 0.38304815
-0.033582859 0.08065746 0.38297492
-0.033224225 0.080609217 0.38275185
-0.032874431 0.080581635 0.38262686
-0.03253131 0.080570012 0.38257757
-0.032190856 0.080564812 0.38255873
-0.031843517 0.080542102 0.38245663
-0.031502619 0.080535367 0.38243037
-0.031159503 0.080522761 0.38237613
-0.030799022 0.08046449 0.38210505
-0.030487182 0.08053343 0.38243791
-0.030173438 0.080598831 0.38275397
-0.087752827 0.084906541 0.39986277
-0.087428562 0.084936433 0.40001792
-0.087035418 0.084899366 0.39985767
-0.086627722 0.084847741 0.39962885
-0.086267605 0.084842496 0.39961836
-0.085873641 0.084803775 0.39945015
-0.085490428 0.084775388 0.39933062
-0.085109442 0.084748983 0.39922038
-0.084707744 0.084701657 0.39901146
-0.08433523 0.084683239 0.39893875
-0.083990946 0.084693134 0.3989993
-0.083575338 0.084630892 0.39872
-0.083189704 0.084598586 0.39858168
-0.082822241 0.084584564 0.39852947
-0.082426079 0.084540993 0.39833799
-0.082044393 0.084511973 0.39821494
-0.081676446 0.084496886 0.3981576
-0.081295356 0.084468037 0.39803529
-0.080943167 0.084469095 0.39805382
-0.080539279 0.084415965 0.39781702
-0.080193788 0.084423847 0.39786771
-0.079777382 0.084356822 0.39756525
-0.079387501 0.084317356 0.39739269
-0.079041593 0.084324464 0.39743954
-0.078609392 0.08423917 0.3970508
-0.078265354 0.084247991 0.39710569
-0.077882953 0.084215432 0.39696538
-0.077505551 0.084187999 0.39684924
-0.077130526 0.084162906 0.39674404
-0.076731235 0.084110983 0.39651236
-0.076409057 0.084143512 0.39667872
-0.075967558 0.08404433 0.39622405
-0.075643778 0.084075056 0.39638186
-0.07526049 0.084039636 0.39622772
-0.074895889 0.084024847 0.39617079
-0.074564613 0.084047459 0.39629021
-0.074226573 0.084062643 0.39637455
-0.073900282 0.08409135 0.39652255
-0.073576741 0.08412347 0.39668664
-0.044888176 0.081845857 0.3867473
-0.044513583 0.081786491 0.38647485
-0.044172771 0.081788749 0.38649353
-0.043810472 0.081750959 0.38632289
-0.043429494 0.081677437 0.38598332
-0.043083888 0.081669807 0.38595504
-0.042738188 0.081661865 0.38592529
-0.042377211 0.081624389 0.38575584
-0.04201984 0.08159329 0.38561648
-0.041674428 0.081585109 0.38558537
-0.041324425 0.081567727 0.38551071
-0.040968653 0.081538573 0.38538033
-0.04062359 0.081530407 0.38534915
-0.040264338 0.081493415 0.38518158
-0.039898451 0.081442237 0.38494694
-0.039559361 0.081445351 0.38496882
-0.039193172 0.081392236 0.38472486
-0.038844142 0.081374146 0.38464639
-0.038505115 0.081376866 0.38466626
-0.038147599 0.081340224 0.38449994
-0.037803017 0.081330746 0.384462
-0.037448794 0.081300177 0.38432428
-0.037098367 0.081277341 0.38422307
-0.036746547 0.081251033 0.38410535
-0.036399525 0.081234917 0.3840358
-0.036040563 0.081191614 0.38383761
-0.035687134 0.081160054 0.38369492
-0.035347864 0.081160419 0.38370299
-0.03500212 0.081145786 0.3836402
-0.034639563 0.081091508 0.38338983
-0.03429091 0.081069015 0.38328969
-0.033949874 0.081064261 0.38327339
-0.03359706 0.081031017 0.38312232
-0.033241935 0.080991462 0.38294131
-0.032903973 0.080993325 0.38295609
-0.032545529 0.080944307 0.38273022
-0.032197338 0.080920011 0.3826212
-0.031856708 0.08091443 0.38260052
-0.03151482 0.080905482 0.38256389
-0.031180058 0.08091484 0.38261381
-0.030843012 0.080918409 0.38263625
-0.030496223 0.080896206 0.38253683
-0.087846942 0.085353509 0.40027764
-0.087475546 0.085337915 0.40021887
-0.087097399 0.085315563 0.40012839
-0.086690605 0.085264869 0.39990491
-0.086313516 0.085243091 0.39981699
-0.08591143 0.085196324 0.39961189
-0.085546911 0.085186608 0.39958042
-0.085130922 0.085125327 0.39930707
-0.084755383 0.085104167 0.39922184
-0.084402926 0.085106097 0.39924487
-0.08399079 0.085047603 0.39898446
-0.083629206 0.085040025 0.39896283
-0.083260968 0.085025594 0.398909
-0.08283896 0.084955886 0.39859575
-0.082471155 0.084941424 0.39854166
-0.082114428 0.08493828 0.39854065
-0.081700176 0.08487536 0.3982591
-0.081333444 0.084861465 0.39820755
-0.080950193 0.08483015 0.39807415
-0.080562733 0.084794126 0.39791867
-0.080193557 0.084777117 0.39785233
-0.079826973 0.0847627 0.39779812
-0.079445064 0.084731817 0.3976666
-0.079061717 0.084699117 0.39752647
-0.078663677 0.084650315 0.3973107
-0.078292832 0.084630467 0.3972308
-0.077950582 0.084641509 0.3972958
-0.077543668 0.084582105 0.39703012
-0.077179655 0.084569171 0.39698249
-0.07678201 0.084519081 0.39676043
-0.076415084 0.084502518 0.39669564
-0.076011606 0.084445193 0.39643949
-0.075649485 0.084433481 0.39639741
-0.075288691 0.084423162 0.39636183
-0.074917227 0.084400728 0.39626929
-0.074572951 0.084408842 0.39632016
-0.074234568 0.084423751 0.39640284
-0.0738879 0.084429331 0.3964417
-0.073580027 0.084479511 0.39668992
-0.073249698 0.084504247 0.3968187
-0.044876538 0.082167335 0.38663226
-0.044529397 0.082158208 0.38659737
-0.044186756 0.082157321 0.38660115
-0.043839794 0.082148291 0.38656661
-0.043460704 0.082078479 0.38624591
-0.043113571 0.082068376 0.38620618
-0.042756036 0.082038149 0.38607168
-0.042404458 0.082018964 0.38598907
-0.042037237 0.081968971 0.38576141
-0.04170705 0.08199095 0.38587239
-0.041345228 0.081950597 0.38568997
-0.040990654 0.081924073 0.38557255
-0.040638886 0.081902742 0.38547951
-0.040289417 0.081885725 0.38540673
-0.039930739 0.081849545 0.38524368
-0.039576601 0.081822135 0.38512182
-0.039228305 0.081806429 0.38505501
-0.038873114 0.081775941 0.38491854
-0.038502343 0.081711844 0.3846238
-0.038158063 0.081703328 0.38459066
-0.037809055 0.081684463 0.3845087
-0.037458517 0.081661902 0.38440931
-0.037118141 0.081661299 0.38441318
-0.036763456 0.081628896 0.38426733
-0.036402248 0.081581302 0.38404983
-0.036055267 0.081564978 0.38397953
-0.035699952 0.081529304 0.38381806
-0.035356447 0.081520185 0.38378152
-0.03501695 0.081520215 0.38378802
-0.034665998 0.081493318 0.38366768
-0.034318831 0.0814749 0.38358715
-0.033967368 0.081445791 0.38345626
-0.03360866 0.081398554 0.38323995
-0.033257786 0.081369512 0.38310924
-0.032908458 0.08134371 0.38299373
-0.0325635 0.081328273 0.38292691
-0.032231506 0.081345245 0.38301262
-0.031881176 0.081315793 0.38287976
-0.031525273 0.081271373 0.38267627
-0.031188142 0.081274875 0.38269839
-0.03086587 0.081317618 0.38290524
-0.030518334 0.081294023 0.38279963
-0.030207237 0.081368037 0.38315359
-0.087873489 0.085735321 0.4003846
-0.087491028 0.085708909 0.40027568
-0.087146997 0.085720092 0.4003422
-0.086765438 0.085694313 0.40023604
-0.08634685 0.085631587 0.3999573
-0.085958734 0.085598685 0.39981785
-0.085606933 0.085601836 0.39984664
-0.085216321 0.085566036 0.39969355
-0.084816046 0.085520193 0.39949343
-0.084437564 0.085496038 0.3993946
-0.084024131 0.085436136 0.39912871
-0.083672985 0.085439339 0.39915755
-0.08327961 0.085399255 0.39898413
-0.082925789 0.085399561 0.39899939
-0.082526401 0.085352749 0.39879444
-0.082139485 0.085318498 0.39864811
-0.081747651 0.085278802 0.3984763
-0.081376024 0.085259944 0.3984018
-0.08099211 0.085227989 0.39826605
-0.080595605 0.085182443 0.39806673
-0.08022929 0.085168548 0.39801529
-0.07987088 0.085162967 0.39800262
-0.079489253 0.085132472 0.39787346
-0.079127043 0.085122578 0.39784065
-0.078728393 0.085073233 0.39762327
-0.078343555 0.085038431 0.39747381
-0.077982575 0.085029334 0.39744452
-0.077595569 0.084991641 0.39728147
-0.077200517 0.084944762 0.39707541
-0.076823995 0.084917933 0.396963
-0.076447584 0.084890977 0.39685002
-0.07605058 0.084840797 0.39662835
-0.075683862 0.0848241 0.39656314
-0.075298958 0.084786765 0.39640146
-0.074942358 0.084781095 0.39638776
-0.074577294 0.084765762 0.39632881
-0.074242249 0.084784567 0.39642942
-0.073899239 0.084794402 0.39648804
-0.073578946 0.084830545 0.39666963
-0.073238693 0.084843881 0.39674458
-0.044911399 0.082574144 0.3869178
-0.044551883 0.082542546 0.38677776
-0.044202227 0.082528867 0.38672164
-0.043857269 0.082523808 0.38670591
-0.043480631 0.082458608 0.38640821
-0.043124899 0.082432337 0.38629285
-0.042780977 0.082428373 0.38628206
-0.042443328 0.082436562 0.38632807
-0.042067762 0.082370639 0.38602671
-0.041720718 0.082359925 0.38598406
-0.04136594 0.082333639 0.38586837
-0.041012581 0.082309783 0.38576397
-0.04066579 0.082298815 0.3857199
-0.040305361 0.082259826 0.38554448
-0.039952118 0.082234964 0.38543516
-0.039610788 0.082234405 0.38543969
-0.039253693 0.082200818 0.3852894
-0.038875505 0.082122087 0.38492739
-0.038551971 0.082158446 0.38510481
-0.038181171 0.082093835 0.38480884
-0.037833214 0.0820776 0.38473961
-0.03747949 0.082048446 0.38460973
-0.037133418 0.082035683 0.38455665
-0.036775574 0.081996419 0.38437924
-0.036421888 0.081965797 0.38424224
-0.036085181 0.081973165 0.38428333
-0.035730142 0.081938632 0.38412789
-0.035375167 0.081903584 0.38396999
-0.035022501 0.081873253 0.38383412
-0.034679785 0.081865825 0.38380557
-0.034341987 0.081869967 0.3838312
-0.033979278 0.081814215 0.38357598
-0.033632476 0.081796028 0.38349679
-0.033282127 0.081768759 0.38337493
-0.032923415 0.081720166 0.38315308
-0.032580227 0.081709504 0.38310894
-0.032237966 0.081700958 0.38307473
-0.031888559 0.081673943 0.38295379
-0.031546585 0.08166559 0.38292032
-0.031217692 0.08169128 0.38304639
-0.030882249 0.081700206 0.3830938
-0.030527821 0.08165855 0.38290399
-0.030192476 0.081667572 0.38295177
-0.087538615 0.086111628 0.40047932
-0.087183401 0.086112007 0.40049535
-0.086802118 0.086086527 0.4003911
-0.086388201 0.086028345 0.40013471
-0.086014472 0.086009875 0.40006295
-0.085629702 0.085980162 0.39993888
-0.085281283 0.085986845 0.39998406
-0.084842503 0.08590211 0.39960387
-0.084497355 0.085911848 0.39966321
-0.084100924 0.08586932 0.39947927
-0.083734974 0.085857689 0.39943907
-0.083328664 0.08580438 0.39920494
-0.08293049 0.085759051 0.39900777
-0.082595035 0.08577846 0.39911181
-0.082193837 0.085729472 0.39889762
-0.081808679 0.085696854 0.39875951
-0.08142136 0.08566168 0.39860946
-0.081057101 0.085650563 0.39857128
-0.080624692 0.08556705 0.39819613
-0.080280267 0.085576564 0.39825389
-0.079881847 0.085528351 0.39804295
-0.079532094 0.085532062 0.39807358
-0.079151444 0.085502416 0.39794895
-0.078764006 0.085465148 0.39778876
-0.078387856 0.085439853 0.39768422
-0.077999294 0.085400723 0.3975153
-0.07763727 0.085390441 0.39748055
-0.07724452 0.085346125 0.39728728
-0.076877706 0.085330181 0.3972261
-0.076491021 0.08529193 0.39706105
-0.076109223 0.085258797 0.39691973
-0.075714074 0.085210346 0.396707
-0.075360715 0.085208684 0.39671212
-0.074969113 0.085163556 0.3965148
-0.0746115 0.085156806 0.39649609
-0.074246421 0.085141435 0.3964372
-0.073923409 0.085174374 0.3966032
-0.073570117 0.085172586 0.39660746
-0.073244974 0.085203521 0.39676404
-0.072918601 0.085233323 0.39691532
-0.044929914 0.0829513 0.3870624
-0.044566337 0.082912281 0.38688836
-0.044226099 0.082916401 0.38691559
-0.043877639 0.082905076 0.38687062
-0.043511365 0.082859635 0.38666645
-0.043160927 0.08284387 0.38660064
-0.042808663 0.082824327 0.38651717
-0.042460795 0.082813047 0.3864722
-0.042106379 0.082788706 0.38636619
-0.041741963 0.082744144 0.38616574
-0.041378066 0.082699873 0.38596666
-0.041018967 0.082664549 0.38580918
-0.040678114 0.082665697 0.38582191
-0.040324271 0.082640268 0.38571048
-0.039962694 0.082598403 0.38552231
-0.039630942 0.082617998 0.38562095
-0.039259616 0.082554728 0.3853327
-0.038911302 0.082539149 0.38526702
-0.038566519 0.082530856 0.38523528
-0.038194172 0.082462907 0.38492501
-0.037863143 0.082483754 0.38502917
-0.0374787 0.082387552 0.38458684
-0.037139788 0.082390592 0.38460779
-0.036794197 0.082378738 0.38455912
-0.036456354 0.082384177 0.38459107
