# .PCD v0.7 - Point Cloud Data file format
VERSION 0.7
FIELDS x y z
SIZE 4 4 4
TYPE F F F
COUNT 1 1 1
WIDTH 1366
HEIGHT 1
VIEWPOINT 0 0 0 1 0 0 0
POINTS 1366
DATA ascii
0.13025479 -0.018611174 0.40907586
0.13058038 -0.018605677 0.40893346
0.130925 -0.018602913 0.40885115
0.13127279 -0.018600613 0.408779
0.13162348 -0.018598735 0.40871611
0.13195503 -0.018594174 0.40859425
0.13229543 -0.018590875 0.40850016
0.13262303 -0.018585809 0.40836716
0.13299407 -0.018586837 0.40836808
0.13332969 -0.018582923 0.40826046
0.13363592 -0.018574942 0.40806347
0.13402358 -0.018578295 0.40811545
0.13432457 -0.018569646 0.40790385
0.13466026 -0.018565832 0.40779838
0.13500819 -0.018563718 0.40773022
0.13535917 -0.018562032 0.40767157
0.1356822 -0.018556533 0.40752912
0.13603827 -0.018555574 0.40748635
0.1363543 -0.018549168 0.40732402
0.13674116 -0.018552408 0.40737352
0.13705316 -0.018545501 0.4072001
0.13733444 -0.018534485 0.40693656
0.13774644 -0.018541122 0.40706056
0.13803992 -0.01853181 0.40683448
0.13837601 -0.018528253 0.4067347
0.13872132 -0.018525947 0.40666237
0.13907689 -0.018525019 0.40662032
0.13940169 -0.018520009 0.40648866
0.13974763 -0.018517824 0.40641904
0.14006229 -0.018511519 0.40625894
0.14046898 -0.018517373 0.40636578
0.14075884 -0.018507842 0.40613487
0.14107975 -0.018502427 0.40599445
0.14141834 -0.018499352 0.40590531
0.14179507 -0.018501272 0.40592578
0.14215478 -0.018500967 0.40589741
0.14256346 -0.018507017 0.40600848
0.0883049 -0.018693037 0.42154709
0.088617943 -0.018680409 0.42124444
0.088945962 -0.018671032 0.42101505
0.089245386 -0.018655755 0.4206526
0.089580975 -0.018648131 0.4204627
0.089942768 -0.018646006 0.42039669
0.090288863 -0.018640652 0.42025793
0.090680681 -0.018644745 0.42033204
0.0910118 -0.018636379 0.42012522
0.091396421 -0.018638987 0.42016578
0.091757432 -0.01863678 0.42009768
0.092155024 -0.018641992 0.42019677
0.09257327 -0.01865132 0.42038867
0.098247349 -0.018598305 0.41889316
0.098497219 -0.018575445 0.41835913
0.098843828 -0.018570932 0.41823825
0.099160679 -0.018560881 0.41799268
0.099512078 -0.018557351 0.41789386
0.099871904 -0.018555408 0.41783085
0.10022444 -0.018552136 0.41773772
0.10054386 -0.018542776 0.41750759
0.10086942 -0.018534612 0.4173044
0.10124788 -0.018536195 0.41732049
0.10157358 -0.018528139 0.41711962
0.1019222 -0.01852431 0.41701385
0.10228616 -0.018523287 0.41697124
0.1026534 -0.018522857 0.41694194
0.10300429 -0.018519497 0.41684666
0.10334469 -0.018514277 0.41670945
0.10369472 -0.018510817 0.41661182
0.10407777 -0.018513255 0.41664684
0.10438029 -0.018501397 0.41636023
0.10474934 -0.018501377 0.41633987
0.10510724 -0.018499391 0.41627532
0.10544149 -0.018493274 0.41611776
0.10581547 -0.018494142 0.41611731
0.10622259 -0.018500779 0.41624659
0.12579107 -0.01828629 0.41024032
0.12614657 -0.018284921 0.41018817
0.12651111 -0.018284865 0.41016549
0.12686543 -0.018283337 0.41010973
0.12722376 -0.018282397 0.41006714
0.12757125 -0.018279903 0.40998974
0.12792149 -0.01827782 0.4099215
0.12827526 -0.01827625 0.40986478
0.12861876 -0.018273233 0.40977556
0.12892404 -0.018264815 0.40956521
0.12926352 -0.018261278 0.40946436
0.12961449 -0.018259376 0.40940014
0.12995413 -0.018255895 0.40930057
0.1302339 -0.018244049 0.40901333
0.13062634 -0.018248003 0.40908042
0.13095662 -0.018243279 0.40895289
0.1313058 -0.018241204 0.40888479
0.131687 -0.018243579 0.40891641
0.13200468 -0.018237166 0.40875098
0.13235173 -0.01823483 0.40867704
0.13270465 -0.018233318 0.40862146
0.13304059 -0.018229486 0.40851393
0.13337119 -0.018224943 0.40839046
0.13370521 -0.018220892 0.40827805
0.1340472 -0.018217947 0.40819037
0.13438448 -0.018214379 0.40808874
0.13471858 -0.018210398 0.40797791
0.13507701 -0.018209718 0.40794101
0.13536447 -0.018199503 0.40769047
0.13577595 -0.018205972 0.40781367
0.13608591 -0.018198827 0.40763193
0.13642147 -0.018195139 0.40752766
0.13676327 -0.018192297 0.40744227
0.13712667 -0.018192336 0.40742141
0.13748184 -0.018191284 0.4073762
0.13778791 -0.01818376 0.40718597
0.13808623 -0.018175254 0.40697378
0.13843659 -0.018173626 0.40691563
0.13876012 -0.018168492 0.40677902
0.13912064 -0.018168215 0.4067511
0.13945366 -0.018164355 0.40664306
0.13980936 -0.018163465 0.4066014
0.14012308 -0.018157139 0.40643811
0.14047079 -0.01815524 0.40637389
0.14077608 -0.018147878 0.40618747
0.14116298 -0.01815105 0.40623677
0.14150795 -0.018148826 0.4061653
0.14185244 -0.018146558 0.40609279
0.14220211 -0.018144954 0.4060353
0.14260603 -0.018150268 0.40613255
0.088321656 -0.018323436 0.42163083
0.088621572 -0.018308334 0.42126545
0.088925384 -0.018294159 0.42092136
0.089274257 -0.018289335 0.4207924
0.089638248 -0.018287633 0.42073524
0.089980423 -0.018281516 0.42057639
0.090330541 -0.018277055 0.42045566
0.090698324 -0.018276189 0.42041758
0.091068313 -0.018275769 0.42038974
0.091400966 -0.018267894 0.42019033
0.091793053 -0.018271914 0.42026445
0.092176117 -0.018274114 0.42029667
0.092609152 -0.018286157 0.42055529
0.093029335 -0.018295582 0.42075351
0.093375236 -0.018290378 0.42061529
0.098254643 -0.018228468 0.41892785
0.098536253 -0.018211925 0.4185285
0.098882467 -0.018207401 0.41840535
0.099200986 -0.018197833 0.41816619
0.099573277 -0.018198162 0.41815448
0.099882513 -0.018187005 0.41787881
0.10025559 -0.018187514 0.41787109
0.10060635 -0.018183988 0.41777062
0.10093091 -0.018175764 0.41756228
0.1012642 -0.018169168 0.4173913
0.10158556 -0.018160488 0.41717237
0.10194936 -0.01815943 0.41712847
0.10231551 -0.018158797 0.41709435
0.10268065 -0.018157989 0.41705617
0.103056 -0.018158987 0.41705939
0.10338834 -0.018152423 0.41688895
0.10374585 -0.018150315 0.4168207
0.10407652 -0.018143538 0.41664532
0.1044419 -0.018142838 0.41660944
0.10478656 -0.018138558 0.41649127
0.1051644 -0.018140031 0.41650522
0.10553683 -0.018140566 0.4164975
0.10585187 -0.018131262 0.41626391
0.12651381 -0.017920297 0.41017732
0.12690371 -0.017923823 0.41023657
0.12725657 -0.017922113 0.41017598
0.12760702 -0.017920073 0.41010776
0.12796362 -0.017918907 0.41005957
0.12832788 -0.01791882 0.410036
0.12863059 -0.01791016 0.40981632
0.1289691 -0.017906517 0.40971139
0.12931505 -0.017903928 0.4096306
0.12966289 -0.017901612 0.40955606
0.13002446 -0.017901203 0.40952507
0.13035002 -0.017895849 0.40938097
0.13068333 -0.017891586 0.40926191
0.13105643 -0.01789278 0.40926757
0.1313602 -0.017884526 0.4090572
0.13170987 -0.017882554 0.40899038
0.13205655 -0.017880185 0.4089146
0.13240029 -0.017877432 0.40882996
0.1327377 -0.01787384 0.40872619
0.1330495 -0.017866829 0.40854421
0.13340606 -0.017865852 0.40850022
0.13377732 -0.017866842 0.40850112
0.13408744 -0.017859686 0.40831587
0.13439867 -0.017852712 0.40813473
0.13474663 -0.017850643 0.40806574
0.13509586 -0.017848754 0.40800089
0.13546446 -0.017849425 0.40799451
0.13580334 -0.017846188 0.40789884
0.13616672 -0.017846178 0.40787688
0.13646644 -0.017837847 0.40766484
0.13681884 -0.017836427 0.40761065
0.13717911 -0.017836042 0.40758011
0.13750526 -0.017831231 0.40744847
0.13781978 -0.01782494 0.40728298
0.13814944 -0.017820634 0.40716296
0.13850379 -0.017819529 0.40711597
0.13882716 -0.017814456 0.40697837
0.13917494 -0.017812531 0.40691265
0.1395238 -0.017810754 0.4068504
0.13986094 -0.017807495 0.40675426
0.14021315 -0.017806163 0.40670213
0.14051414 -0.017798353 0.40650201
0.14087343 -0.017797949 0.40647113
0.14118266 -0.01779124 0.40629616
0.1415239 -0.017788583 0.40621388
0.14189062 -0.017789138 0.40620482
0.14223528 -0.017786929 0.40613276
0.14262839 -0.017790779 0.40619892
0.14297664 -0.017789023 0.40613717
0.14343658 -0.01780114 0.40639213
0.088322178 -0.017950393 0.42163697
0.088629201 -0.017937038 0.42130539
0.088952802 -0.017927134 0.42105484
0.089318693 -0.017925799 0.42100549
0.089653291 -0.01791822 0.42080948
0.09004131 -0.017921338 0.42086461
0.090388648 -0.017916365 0.42072973
0.090705208 -0.01790536 0.4204531
0.091087848 -0.017907431 0.42048356
0.091414347 -0.017898494 0.42025545
0.091822103 -0.017905479 0.42040113
0.092200361 -0.017906673 0.42041081
0.092611507 -0.017914223 0.42056957
0.093043566 -0.017925739 0.42082146
0.098335356 -0.017871916 0.41927552
0.098562114 -0.017845724 0.41864184
0.098878525 -0.017835902 0.41839218
0.099231198 -0.017832665 0.41829705
0.099591576 -0.017830832 0.41823477
0.099976428 -0.017833382 0.41827521
0.1003117 -0.017827099 0.41810849
0.10061367 -0.017814966 0.41780451
0.1009801 -0.017814292 0.41776922
0.10130571 -0.01780645 0.41756585
0.1016483 -0.017801637 0.41743347
0.10203569 -0.017804679 0.41748515
0.1023434 -0.017793844 0.4172115
0.10270603 -0.017792601 0.41716272
0.10309912 -0.017796621 0.41723731
0.10344832 -0.017793069 0.41713428
0.10379215 -0.017788617 0.41701013
0.10412274 -0.017781937 0.41683376
0.10448448 -0.017780608 0.41678271
0.10484197 -0.017778564 0.41671497
0.10523862 -0.01778315 0.41680256
0.12691279 -0.017560046 0.41026893
0.12727353 -0.017559456 0.41023365
0.12765035 -0.017561076 0.41025001
0.12794946 -0.017552033 0.41001719
0.12836444 -0.017558888 0.4101558
0.12869193 -0.017553769 0.41001466
0.12902185 -0.017549012 0.40988195
0.12934728 -0.01754367 0.40973565
0.12969539 -0.017541427 0.40966168
0.13002485 -0.017536683 0.40952927
0.13040175 -0.017538341 0.40954641
0.13075158 -0.017536364 0.4094786
0.13110763 -0.017535226 0.40943041
0.13145822 -0.017533367 0.40936539
0.13174459 -0.017522976 0.40910113
0.13208123 -0.01751931 0.4089939
0.13246402 -0.017521769 0.40902963
0.13275342 -0.017511893 0.40877745
0.13313204 -0.017513812 0.40880054
0.13345531 -0.017508456 0.40865391
0.13376817 -0.017501768 0.40847611
0.1341278 -0.017501218 0.4084416
0.13451272 -0.017503964 0.40848395
0.13485448 -0.017501092 0.4083952
0.13514735 -0.017491907 0.4081592
0.13549873 -0.017490324 0.40810055
0.13585499 -0.017489377 0.4080568
0.13619061 -0.017485786 0.4079513
0.13653055 -0.017482767 0.40785909
0.13686024 -0.017478455 0.40773678
0.13716048 -0.017470416 0.40752754
0.13752411 -0.017470468 0.40750709
0.13789187 -0.017471047 0.40749884
0.13823062 -0.017467955 0.40740499
0.13857441 -0.017465513 0.40732631
0.13888097 -0.017458409 0.40713888
0.13917331 -0.017449552 0.40691069
0.13954173 -0.017450258 0.40690541
0.13993709 -0.017454319 0.40697843
0.14023615 -0.01744638 0.40677163
0.1405905 -0.017445343 0.4067257
0.14095256 -0.017445261 0.40670213
0.14125711 -0.017438088 0.40651315
0.14158483 -0.017433796 0.40639141
0.14194308 -0.017433282 0.40635774
0.14226651 -0.017428501 0.40622461
0.14262632 -0.01742819 0.40619567
0.14300624 -0.017430333 0.40622398
0.1434156 -0.017436044 0.40633535
0.08834175 -0.017581137 0.42173401
0.088621572 -0.017562652 0.4212727
0.088997439 -0.017563272 0.42126966
0.089363396 -0.017561942 0.42121977
0.089709081 -0.017556656 0.42107493
0.090069681 -0.017554319 0.42100078
0.090420097 -0.017550025 0.42087969
0.090768486 -0.017545372 0.42074993
0.09110789 -0.01753903 0.42057961
0.091444686 -0.017532241 0.4203985
0.091842063 -0.01753707 0.42049605
0.092227943 -0.017539674 0.42054009
0.092624672 -0.017544316 0.4206329
0.093052253 -0.017554738 0.42086428
0.093471646 -0.017563537 0.42105672
0.098344423 -0.017502004 0.4193176
0.098548964 -0.017472412 0.41858944
0.098903455 -0.017469527 0.41850111
0.099263981 -0.017467726 0.4184387
0.099615149 -0.017464297 0.41833723
0.099992849 -0.017465524 0.41834733
0.10034724 -0.017462689 0.41826004
0.10066673 -0.017453823 0.41802827
0.10100535 -0.017448327 0.41787714
0.1013425 -0.017442618 0.41772088
0.10171451 -0.017442929 0.41770878
0.1020391 -0.017435132 0.41750252
0.10238333 -0.017430736 0.41737765
0.10275854 -0.01743163 0.41737935
0.10313301 -0.017432388 0.41737786
0.10347195 -0.017427158 0.41723287
0.10383424 -0.017425885 0.41718265
0.10417193 -0.017420508 0.41703406
0.10454921 -0.017421763 0.41704431
0.10488442 -0.017416021 0.41688699
0.12730382 -0.017198499 0.41033417
0.12767689 -0.017199574 0.41033828
0.12803885 -0.017199146 0.41030657
0.12839122 -0.017197441 0.41024429
0.12874267 -0.017195616 0.41017923
0.12905911 -0.017189141 0.41000324
0.1294478 -0.0171923 0.41005698
0.12978731 -0.017188927 0.40995491
0.13013223 -0.017186288 0.40987036
0.13042879 -0.017177291 0.4096342
0.13075601 -0.017172372 0.40949529
0.13114725 -0.017175866 0.40955698
0.13146804 -0.017170141 0.40939879
0.13185884 -0.017173564 0.40945873
0.13211969 -0.01716009 0.40911585
0.13249993 -0.017162153 0.40914336
0.13282302 -0.017156823 0.40899459
0.13315928 -0.017153218 0.40888706
0.13352545 -0.017153477 0.40887147
0.13383558 -0.017146554 0.40868479
0.13417311 -0.017143168 0.40858236
0.13453372 -0.017142741 0.4085505
0.13483661 -0.017134983 0.40834391
0.13526013 -0.017142553 0.40850261
0.13556527 -0.017135119 0.40830371
0.13591117 -0.017132863 0.40822831
0.13622953 -0.017127158 0.40807059
0.13655658 -0.017122572 0.40793964
0.13692038 -0.017122608 0.40791875
0.13723715 -0.017116774 0.40775806
0.13755766 -0.017111439 0.40760925
0.13787785 -0.01710609 0.40746015
0.13828486 -0.017111514 0.40756756
0.13861807 -0.017107802 0.40745744
0.13890237 -0.017098086 0.40720427
0.13930735 -0.017103236 0.40730524
0.13961743 -0.017096741 0.40712884
0.13994317 -0.017092193 0.40699878
0.14027113 -0.017087936 0.40687573
0.14060362 -0.017084252 0.40676633
0.14097899 -0.017085783 0.40678108
0.14130293 -0.017081091 0.40664765
0.1416045 -0.017073723 0.40645054
0.14199609 -0.017077221 0.40651211
0.14233001 -0.017073782 0.40640855
0.14268185 -0.017072508 0.40635651
0.1430553 -0.017073814 0.4063659
0.14344217 -0.017076712 0.4064132
0.14388767 -0.01708656 0.40662587
0.08833275 -0.017206151 0.42169458
0.088634409 -0.0171923 0.42133722
0.089036569 -0.017197978 0.42145839
0.08938925 -0.01719409 0.42134514
0.089754522 -0.017192647 0.42129171
0.090076856 -0.017183021 0.42103785
0.090430856 -0.017179493 0.42093322
0.090819597 -0.017182568 0.42099035
0.091151953 -0.017174991 0.42078653
0.091470532 -0.017164892 0.42052081
0.091859385 -0.017168004 0.42057878
0.092231058 -0.0171679 0.42055777
0.092623293 -0.017171606 0.42063013
0.09302967 -0.017177891 0.42076561
0.093433797 -0.017183714 0.42088968
0.093836851 -0.017189292 0.42100775
0.096347481 -0.017171754 0.42044666
0.098350421 -0.017131491 0.41934657
0.098556809 -0.017102843 0.41862613
0.098919928 -0.017101506 0.41857415
0.099289849 -0.017101349 0.41855109
0.099657074 -0.017100731 0.41851664
0.10002458 -0.017100165 0.41848347
0.10036648 -0.01709524 0.41834354
0.10072495 -0.017093167 0.41827336
0.10109135 -0.017092448 0.41823626
0.10138974 -0.017080277 0.41791895
0.10172622 -0.017074585 0.41776016
0.10210869 -0.017076632 0.41779062
0.10243665 -0.017069573 0.41759834
0.10279445 -0.017067522 0.41752851
0.10315884 -0.017066577 0.41748568
0.10350122 -0.01706201 0.41735423
0.1038748 -0.017062601 0.41734889
0.10424401 -0.017062472 0.41732588
0.12770572 -0.016838217 0.41043377
0.12805517 -0.016836146 0.41036177
0.12842625 -0.016836919 0.41035908
0.12881491 -0.016839987 0.41041225
0.12910445 -0.016830115 0.41015008
0.12949228 -0.016833076 0.41020069
0.12979442 -0.016824914 0.40998021
0.13015909 -0.016824882 0.40995777
0.13047864 -0.016819028 0.40979356
0.13083623 -0.016818104 0.40974936
0.13119087 -0.0168168 0.40969598
0.13152209 -0.016812516 0.40956992
0.13185313 -0.016808229 0.40944383
0.1322173 -0.016808178 0.40942091
0.13253365 -0.016802063 0.40925032
0.13287947 -0.016799707 0.40917122
0.13323608 -0.016798727 0.40912563
0.13358943 -0.016797336 0.40907013
0.1338657 -0.01678629 0.40877944
0.13423002 -0.016786318 0.4087584
0.13456769 -0.016783021 0.40865639
0.13490419 -0.016779596 0.40855128
0.13529316 -0.016782695 0.40860501
0.13560902 -0.016776735 0.40843821
0.13595311 -0.016774291 0.40835696
0.13624924 -0.016765958 0.40813234
0.13661186 -0.016765829 0.40810749
0.13696373 -0.016764384 0.40805057
0.13733463 -0.016765267 0.40805036
0.13762859 -0.016756779 0.40782204
0.13797414 -0.016754605 0.40774739
0.13832819 -0.016753467 0.40769798
0.13863522 -0.016746655 0.40751046
0.13897653 -0.016744008 0.40742436
0.13932675 -0.016742447 0.40736464
0.13971373 -0.016745303 0.40741232
0.13999146 -0.016735075 0.4071418
0.14030853 -0.016729599 0.40698689
0.14070176 -0.016733205 0.40705284
0.14103925 -0.01673018 0.40695754
0.1413587 -0.016725037 0.40681073
0.14169858 -0.016722333 0.40672317
0.1420238 -0.016717913 0.40659404
0.14239091 -0.016718434 0.40658498
0.14271438 -0.016713846 0.40645173
0.14309971 -0.016716503 0.40649465
0.14349464 -0.016720269 0.40656444
0.14389102 -0.01672418 0.40663791
0.088067241 -0.016853539 0.42223153
0.088321924 -0.016830891 0.42164633
0.088677019 -0.01682749 0.42154321
0.089053929 -0.016828237 0.42154405
0.089415975 -0.016826184 0.42147458
0.089795724 -0.01682746 0.42148852
0.090132788 -0.016820764 0.42130271
0.090489946 -0.016817858 0.42121169
0.090840742 -0.016813796 0.42109179
0.091185316 -0.01680862 0.42094398
0.091552012 -0.016807549 0.4208988
0.091886863 -0.016800661 0.420708
0.092267334 -0.016802138 0.4207266
0.092647694 -0.016803581 0.42074433
0.093027808 -0.016804969 0.4207606
0.093437731 -0.016811708 0.42091078
0.09383323 -0.01681581 0.42099488
0.094212115 -0.016816914 0.42100382
0.094593085 -0.016818378 0.42102179
0.094978094 -0.016820548 0.42105737
0.095287316 -0.016809331 0.42075774
0.095590137 -0.016797075 0.42043215
0.0959526 -0.016795352 0.42037022
0.096294783 -0.016790111 0.42022008
0.098030038 -0.016768647 0.4195877
0.098332182 -0.016756801 0.41927212
0.098574787 -0.016734933 0.41870582
0.098946333 -0.016735036 0.41868919
0.099305101 -0.016732989 0.41861865
0.099676117 -0.016733011 0.41859987
0.1000588 -0.016734984 0.41862988
0.10041162 -0.016731964 0.41853493
0.1007468 -0.016726039 0.41836733
0.10110216 -0.016723497 0.41828424
0.10143183 -0.016716739 0.41809571
0.10173237 -0.016705247 0.41778868
0.10210417 -0.016705494 0.41777533
0.10246246 -0.016703539 0.41770679
0.10283177 -0.016703386 0.41768333
0.10318542 -0.016700702 0.41759646
0.10357849 -0.016704394 0.417669
0.10392023 -0.01669981 0.41753462
0.10430885 -0.016702766 0.41758871
0.12809207 -0.016475692 0.41048276
0.12846017 -0.016476057 0.41047025
0.1288195 -0.016475294 0.41042966
0.12914875 -0.016470702 0.4102937
0.12952718 -0.016472388 0.41031405
0.12983999 -0.016465742 0.41012689
0.13023423 -0.016469428 0.41019714
0.13056973 -0.016465692 0.41008243
0.13087255 -0.016457865 0.40986586
0.13121599 -0.016455175 0.40977722
0.13161103 -0.016458955 0.40984964
0.13192566 -0.016452681 0.40967175
0.13225409 -0.016448161 0.40953749
0.13260286 -0.016446186 0.40946668
0.1329287 -0.016441388 0.40932551
0.13328741 -0.016440667 0.40928596
0.13363099 -0.016438091 0.4092001
0.1339334 -0.016430479 0.40898886
0.13429402 -0.016430032 0.40895602
0.13460775 -0.016423862 0.40878072
0.13496009 -0.016422424 0.40872324
0.13534209 -0.016424593 0.40875548
0.13567169 -0.016420411 0.40862966
0.13597025 -0.0164125 0.40841112
0.13631868 -0.01641064 0.40834302
0.13666031 -0.016407968 0.40825486
0.13701795 -0.016407229 0.40821472
0.1373346 -0.016401598 0.40805289
0.13765267 -0.01639617 0.40789607
0.13799757 -0.016393954 0.40781921
0.13835442 -0.016393164 0.40777785
0.13869499 -0.016390458 0.4076888
0.13904466 -0.016388834 0.40762669
0.13936093 -0.016383296 0.40746716
0.13974378 -0.016385589 0.40750247
0.14007917 -0.016382324 0.40739954
0.1403846 -0.016375577 0.40721002
0.14073896 -0.016374562 0.40716302
0.14107582 -0.016371517 0.4070656
0.14139034 -0.016365904 0.40690431
0.1417747 -0.016368385 0.40694425
0.14207302 -0.016360939 0.40673742
0.1424316 -0.016360456 0.40670374
0.14278288 -0.016359141 0.40664929
0.14313433 -0.016357847 0.4065955
0.1435004 -0.01635823 0.40658328
0.14387457 -0.016359532 0.40659392
0.14424272 -0.016360143 0.40658739
0.088072769 -0.016480921 0.42226145
0.088349164 -0.016462816 0.42177975
0.088745683 -0.016467156 0.42187297
0.089090124 -0.016461834 0.42171872
0.089458629 -0.016460983 0.42167896
0.089791119 -0.016453546 0.42147031
0.09018328 -0.016457053 0.42154205
0.090537429 -0.016453622 0.4214361
0.090867192 -0.016445808 0.42121774
0.09123902 -0.01644564 0.42119518
0.091573507 -0.016438773 0.42100096
0.091892473 -0.01642918 0.420737
0.092273436 -0.016430708 0.42075771
0.092652462 -0.016431879 0.42076927
0.093055449 -0.016437273 0.42088893
0.093434758 -0.01643846 0.42090073
0.093820855 -0.016440824 0.42094266
0.09421353 -0.016444316 0.42101344
0.094573364 -0.016442074 0.42093733
0.094938844 -0.016440826 0.42088664
0.095291063 -0.0164373 0.42077756
0.095601752 -0.016426666 0.42048654
0.095972344 -0.016426368 0.42045996
0.096311383 -0.01642069 0.42029577
0.096671753 -0.016418681 0.42022535
0.097073995 -0.016423767 0.42033657
0.097789049 -0.016418813 0.42017159
0.098023877 -0.016395843 0.41956463
0.098343477 -0.01638717 0.4193235
0.098599255 -0.016367966 0.41881296
0.098944299 -0.016363671 0.4186838
0.099327512 -0.016365696 0.41871637
0.099694706 -0.016365075 0.41868117
0.10008124 -0.016367622 0.41872695
0.10042246 -0.016362766 0.41858333
0.10079256 -0.016362637 0.41856056
0.10114105 -0.016359013 0.41844836
0.10147953 -0.016353797 0.4182955
0.10181455 -0.016348068 0.41812938
0.1021613 -0.016344255 0.41801223
0.10251711 -0.016341917 0.41793278
0.10288949 -0.016342225 0.41792098
0.10325614 -0.016341621 0.41788587
0.10364831 -0.01634505 0.41795376
0.10403426 -0.016347475 0.41799593
0.12850773 -0.016116714 0.41062498
0.12883651 -0.016112132 0.41048661
0.12921926 -0.016114304 0.41052037
0.12955207 -0.016110253 0.41039556
0.12993671 -0.016112655 0.41043514
0.13024354 -0.016105421 0.41022921
0.13059786 -0.016104082 0.41017351
0.1309222 -0.016099062 0.41002402
0.13128652 -0.016098976 0.41000012
0.13162981 -0.016096316 0.40991074
0.13194229 -0.016089914 0.40972608
0.13230401 -0.016089538 0.40969482
0.13265252 -0.01608756 0.40962273
0.13297184 -0.01608206 0.40946099
0.13332254 -0.016080379 0.40939647
0.13368414 -0.016080014 0.4093655
0.1339988 -0.016074022 0.40919122
0.13432665 -0.016069639 0.40905795
0.13469929 -0.016070625 0.40906131
0.13504605 -0.016068527 0.40898618
0.13536881 -0.016063593 0.40883884
0.13572372 -0.016062487 0.40878898
0.13607726 -0.016061226 0.4087351
0.13636224 -0.016051903 0.40847611
0.13675237 -0.016054969 0.40853244
0.13705228 -0.016047459 0.40831959
0.13739721 -0.016045246 0.40824151
0.13773243 -0.016041914 0.408135
0.13806134 -0.016037865 0.40801021
0.13838637 -0.016033387 0.40787455
0.13873988 -0.016032225 0.40782323
0.13908076 -0.016029613 0.40773505
0.13941419 -0.016026158 0.40762544
0.13974451 -0.016022364 0.40750718
0.14010926 -0.016022524 0.40748951
0.14045796 -0.016020855 0.40742534
0.14072098 -0.016009446 0.40711349
0.14111272 -0.016012704 0.40717459
0.1414784 -0.016012995 0.40716025
0.14180771 -0.016009178 0.40704143
0.14214459 -0.016006233 0.40694487
0.14243741 -0.015998352 0.40672281
0.14284666 -0.016003557 0.40683341
0.14317866 -0.016000101 0.40672386
0.14356463 -0.016002681 0.4067677
0.14395411 -0.016005641 0.40682116
0.088089168 -0.016110243 0.42234334
0.088381335 -0.016095409 0.42193663
0.088765368 -0.016097359 0.42196986
0.089110464 -0.016092265 0.42181829
0.089476295 -0.016090937 0.42176554
0.089830659 -0.016087566 0.42165914
0.090201564 -0.016087176 0.42163077
0.090559885 -0.01608455 0.42154387
0.090914913 -0.016081367 0.42144221
0.091292724 -0.016082224 0.42144635
0.091612034 -0.016072808 0.42118129
0.091968171 -0.0160699 0.42108682
0.09232989 -0.016067993 0.42101839
0.09269242 -0.016066238 0.42095399
0.093053378 -0.016064227 0.42088279
0.093427271 -0.016064454 0.42087018
0.093801275 -0.0160647 0.42085803
0.094190024 -0.016067456 0.42091164
0.094574586 -0.016069483 0.42094597
0.094936691 -0.016067689 0.42088032
0.095241524 -0.016056256 0.42056203
0.095633902 -0.016059615 0.42063114
0.095964044 -0.016052535 0.42042682
0.096296556 -0.016045902 0.42023423
0.096685722 -0.016048728 0.42028925
0.097065099 -0.016049912 0.42030123
0.097423062 -0.01604756 0.42022055
0.097804882 -0.016049139 0.42024279
0.098091803 -0.016035192 0.41985852
0.098327175 -0.016012957 0.41925713
0.098657168 -0.016006241 0.41906211
0.098982707 -0.015998855 0.4188495
0.099371128 -0.016001647 0.41890335
0.099733949 -0.016000316 0.41884908
0.10014503 -0.016006704 0.41899702
0.10044754 -0.015995756 0.41869104
0.100806 -0.015993768 0.41861951
0.10115333 -0.015990032 0.41850227
0.10155228 -0.015994454 0.41859844
0.1018841 -0.015988309 0.41841805
0.10220864 -0.015981073 0.41820908
0.10258956 -0.015982671 0.41823119
0.10290458 -0.015974026 0.41798535
0.10330293 -0.015978333 0.4180783
0.10369457 -0.015981575 0.41814336
0.12890075 -0.015754642 0.41069397
0.12924942 -0.015752589 0.41061887
0.12959592 -0.015750283 0.41053718
0.12991568 -0.015744751 0.41037133
0.13029228 -0.015746122 0.4103854
0.13065054 -0.015745267 0.41034153
0.13096292 -0.015738912 0.41015419
0.13131776 -0.015737675 0.41010034
0.13169347 -0.01573894 0.41011164
0.13207139 -0.015740464 0.41012961
0.13236468 -0.015731918 0.40988526
0.13267377 -0.01572529 0.40969092
0.13303491 -0.015724855 0.40965784
0.13336304 -0.015720528 0.4095234
0.13370845 -0.015718255 0.40944254
0.13407063 -0.015717963 0.40941319
0.13440651 -0.015714597 0.40930378
0.13473973 -0.015710939 0.40918675
0.13503614 -0.015703021 0.40895876
0.13544087 -0.015707703 0.40905899
0.13576801 -0.015703388 0.40892491
0.13611053 -0.015700875 0.40883765
0.13646474 -0.015699714 0.4087857
0.13679363 -0.015695654 0.40865821
0.13716504 -0.015696483 0.40865806
0.13743258 -0.015685452 0.40834913
0.13777028 -0.015682468 0.40824968
0.1381228 -0.015681179 0.40819436
0.13841954 -0.015673582 0.40797481
0.13876922 -0.015672002 0.40791199
0.13910982 -0.015669409 0.40782273
0.13945554 -0.015667403 0.40774879
0.13979523 -0.01566473 0.4076575
0.14017631 -0.015666701 0.40768704
0.14050418 -0.015662728 0.4075619
0.1408236 -0.015657835 0.40741283
0.14116754 -0.015655689 0.40733522
0.14149415 -0.015651636 0.407208
0.14183736 -0.015649432 0.40712899
0.14219104 -0.015648395 0.40708026
0.14250588 -0.015643097 0.40692073
0.14289543 -0.015646009 0.40697473
0.14322117 -0.015641937 0.40684709
0.14358833 -0.015642393 0.40683728
0.14396031 -0.015643373 0.40684107
0.14435114 -0.015646391 0.40689778
0.14473209 -0.015648324 0.40692639
0.087834753 -0.015757883 0.42293838
0.088100694 -0.015738554 0.42240182
0.088449545 -0.015734142 0.4222655
0.088791952 -0.015728621 0.4220995
0.089161269 -0.015727894 0.42206198
0.089507297 -0.015723083 0.42191485
0.089868531 -0.015720971 0.42184016
0.090231963 -0.015719259 0.42177609
0.090596832 -0.015717812 0.42171907
0.09094549 -0.015713574 0.42158717
0.091281265 -0.015707154 0.42139667
0.09164992 -0.01570642 0.42135867
0.091988705 -0.015700595 0.42118406
0.09236104 -0.015700519 0.42116362
0.092696808 -0.015694253 0.42097709
0.093073934 -0.015695009 0.4209789
0.093443505 -0.015694493 0.42094651
0.093815506 -0.015694389 0.42092505
0.094198897 -0.015696179 0.42095444
0.094549194 -0.015692465 0.42083612
0.094877899 -0.015685208 0.42062283
0.095257774 -0.015686436 0.42063692
0.095566645 -0.015676007 0.42033845
0.0959429 -0.015676668 0.42033735
0.096319646 -0.015677404 0.42033812
0.096674435 -0.015674574 0.42024332
0.09704645 -0.015674548 0.42022359
0.097409129 -0.015673019 0.42016354
0.097769283 -0.015671099 0.42009297
0.098197944 -0.015680131 0.42031595
0.098284706 -0.015634706 0.41907915
0.098630153 -0.01563062 0.41895041
0.099041797 -0.015637016 0.41910261
0.099397436 -0.015634554 0.41901734
0.099782296 -0.015636688 0.41905519
0.10015909 -0.015637549 0.41905889
0.10052314 -0.015636418 0.41900921
0.10084732 -0.01562912 0.41879416
0.10119428 -0.015625389 0.41867474
0.10156073 -0.015624688 0.41863638
0.10192467 -0.015623604 0.41858777
0.10225192 -0.015616925 0.4183892
0.10258509 -0.015611195 0.41821602
0.10292989 -0.01560727 0.41809118
0.10336552 -0.015617093 0.41833463
0.12928204 -0.015390997 0.41072512
0.12962377 -0.015388168 0.41062799
0.13000821 -0.015390412 0.41066623
0.13030604 -0.015382417 0.41043127
0.13068898 -0.015384489 0.41046491
0.13103318 -0.015382 0.41037682
0.1313484 -0.015376131 0.4101986
0.13171293 -0.015376051 0.41017479
0.13206474 -0.015374492 0.41011152
0.1324228 -0.015373667 0.41006777
0.13273709 -0.01536778 0.40988904
0.13307968 -0.01536519 0.40979823
0.13341504 -0.01536178 0.40968564
0.13376078 -0.015359582 0.40960529
0.13410135 -0.015356805 0.40950948
0.13444455 -0.015354342 0.4094221
0.13481285 -0.015354753 0.40941131
0.13514495 -0.015351048 0.40929073
0.13546446 -0.015345937 0.40913275
0.13577594 -0.015339945 0.40895128
0.13616425 -0.015342644 0.40900147
0.13646919 -0.01533596 0.40880153
0.13684715 -0.015337493 0.40882063
0.13718702 -0.015334759 0.40872598
0.13752557 -0.015331895 0.4086279
0.13782825 -0.015325057 0.4084239
0.13816473 -0.015322003 0.4083207
0.13854557 -0.015323872 0.40834877
0.1388033 -0.015312148 0.4080146
0.13920103 -0.01531589 0.40809256
0.13952534 -0.015311555 0.40795529
0.13985281 -0.015307589 0.40782785
0.14022498 -0.015308523 0.40783095
0.14054298 -0.015303553 0.40767682
0.14084587 -0.015296967 0.40747964
0.14124049 -0.015300354 0.40754813
0.14156969 -0.015296652 0.40742776
0.14191249 -0.015294436 0.40734702
0.14222434 -0.015288904 0.40717793
0.14257254 -0.015287298 0.40711343
0.14292163 -0.015285796 0.40705165
0.14325592 -0.015282722 0.40694812
0.1436176 -0.015282576 0.40692252
0.14399904 -0.01528453 0.40695283
0.14439814 -0.015288342 0.40703258
0.14481771 -0.015294299 0.40716946
0.087867983 -0.015389447 0.42310154
0.088082969 -0.015361668 0.42232001
0.088485181 -0.015366637 0.42243877
0.088820219 -0.01535995 0.42223701
0.089184359 -0.015358327 0.42217442
0.089531496 -0.015353803 0.42203206
0.089889787 -0.015351221 0.42194301
0.090255328 -0.015349895 0.42188844
0.090612873 -0.015347224 0.42179689
0.090983577 -0.015346793 0.42176682
0.091324456 -0.015341356 0.42159915
0.091682181 -0.015338785 0.42151013
0.092032559 -0.015335007 0.42138797
0.092396095 -0.015333442 0.42132658
0.092727043 -0.015326504 0.42111745
0.093109846 -0.015328159 0.42114443
0.093471944 -0.015326406 0.4210777
0.093837984 -0.015325308 0.42102897
0.09418723 -0.015321488 0.42090538
0.094552279 -0.015320259 0.42085293
0.094887935 -0.015314295 0.42067036
0.095220879 -0.015307943 0.42047709
0.095557705 -0.01530226 0.42030218
0.095944546 -0.015304601 0.4203476
0.0962938 -0.015300949 0.42022839
0.096676618 -0.01530264 0.42025587
0.097053736 -0.015303416 0.42025816
0.097409911 -0.015300899 0.42016998
0.097786441 -0.015301583 0.42016971
0.098120563 -0.015295655 0.41998774
0.098386623 -0.0152792 0.41951674
0.09869913 -0.015270052 0.41924644
0.099053405 -0.015267413 0.41915473
0.099445269 -0.015270566 0.419222
0.099812374 -0.015269906 0.41918454
0.10017331 -0.015268311 0.41912135
0.10055853 -0.015270416 0.41915974
0.10089891 -0.01526572 0.41901135
0.10126857 -0.015265474 0.4189851
0.10157239 -0.01525534 0.41868743
0.10193592 -0.015254213 0.41863689
0.1022922 -0.015252016 0.41855702
0.10265248 -0.015250426 0.41849369
0.10304003 -0.015252886 0.41854152
0.10332599 -0.015240345 0.41817763
0.12928975 -0.015026324 0.41075215
0.12967013 -0.01502804 0.41077739
0.1300717 -0.015032195 0.41086933
0.13041955 -0.015030135 0.41079137
0.13076916 -0.015028288 0.41071925
0.13107917 -0.015021913 0.41052336
0.13140811 -0.015017739 0.41038758
0.13180472 -0.015021297 0.41046315
0.13211825 -0.015015396 0.41028017
0.13242771 -0.015009064 0.41008547
0.13277048 -0.015006533 0.4099946
0.13313721 -0.015006714 0.40997785
0.13345717 -0.015001639 0.40981746
0.13382445 -0.015001896 0.40980276
0.13416491 -0.014999152 0.40970609
0.1344886 -0.014994553 0.40955871
0.13487291 -0.01499672 0.40959615
0.13515872 -0.014987951 0.4093349
0.13551883 -0.014987445 0.40929937
0.1358593 -0.014984779 0.40920478
0.13619876 -0.014982015 0.40910754
0.136571 -0.01498286 0.40910885
0.13691857 -0.014981003 0.40903637
0.13721733 -0.014973829 0.40881872
0.13756809 -0.014972352 0.40875661
0.13789147 -0.014967909 0.40861359
0.1382177 -0.014963798 0.4084796
0.13858123 -0.014963741 0.40845624
0.13891585 -0.014960565 0.40834779
0.1391938 -0.014951321 0.40807372
0.13959 -0.014954793 0.40814671
0.13993146 -0.014952395 0.40805954
0.14026138 -0.014948784 0.4079392
0.14061189 -0.014947378 0.40787905
0.14093274 -0.014942834 0.40773332
0.14129867 -0.01494308 0.40771827
0.1416086 -0.014937422 0.40754211
0.1419836 -0.014938633 0.40755343
0.14225405 -0.01492887 0.40726537
0.14261156 -0.014928267 0.40722716
0.14297588 -0.014928379 0.4072085
0.14328752 -0.014923004 0.40704012
0.14364889 -0.014922821 0.40701345
0.14401928 -0.014923576 0.40701228
0.1444163 -0.014927079 0.40708613
0.087858476 -0.015013426 0.42305884
0.088123366 -0.014994822 0.42251679
0.088505551 -0.014996248 0.42253911
0.088863991 -0.014993656 0.42244813
0.089206398 -0.014988391 0.42228183
0.08959613 -0.014991088 0.4223398
0.089953452 -0.014988364 0.42224494
0.09030012 -0.014983892 0.42210084
0.090671204 -0.014983492 0.4220714
0.09100683 -0.01497726 0.42187765
0.091386117 -0.014978235 0.42188683
0.091695406 -0.014967775 0.42157394
0.09203922 -0.014963014 0.42142147
0.092404045 -0.014961692 0.42136583
0.092758775 -0.014958752 0.42126459
0.093138888 -0.014959915 0.42127877
0.093505278 -0.014958872 0.42123088
0.093865074 -0.014956786 0.42115355
0.094256572 -0.014959745 0.42121822
0.09459281 -0.014953949 0.4210363
0.094930112 -0.014948365 0.42086035
0.095243104 -0.014939011 0.42057818
0.09559238 -0.014935398 0.42045766
0.095946863 -0.014932624 0.42036068
0.096317567 -0.014932386 0.42033508
0.096692443 -0.014932794 0.4203276
0.097075552 -0.014934463 0.42035562
0.097446881 -0.014934317 0.42033243
0.097786181 -0.01492928 0.42017153
0.098139577 -0.014926427 0.42007211
0.098488756 -0.014922953 0.41995516
0.098821416 -0.014917014 0.41976884
0.099078603 -0.01489977 0.41926432
0.099448003 -0.014899464 0.41923645
0.09984377 -0.014903098 0.41931933
0.10021401 -0.014902908 0.41929463
0.10057858 -0.014901879 0.41924626
0.10095589 -0.014902739 0.41925091
0.1013004 -0.014898768 0.41911969
0.10163894 -0.01489395 0.41896462
0.10198947 -0.014890918 0.41885978
0.10232544 -0.014885791 0.4186959
0.10270862 -0.014887542 0.41872549
0.1030987 -0.014890277 0.41878271
0.10344535 -0.014886742 0.41866356
0.12968042 -0.014663571 0.41081247
0.13006637 -0.01466586 0.41085494
0.13044205 -0.014666981 0.41086468
0.13075671 -0.014661251 0.41068256
0.13114201 -0.014663455 0.41072258
0.13149779 -0.014662353 0.41067007
0.13179612 -0.014654874 0.41043884
0.1321681 -0.014655597 0.41043743
0.13250126 -0.014652025 0.41031569
0.13284598 -0.014649748 0.41023019
0.13320826 -0.014649415 0.41019914
0.13354464 -0.01464624 0.41008848
0.13382512 -0.014636968 0.40980718
0.13419421 -0.014637414 0.40979794
0.13455568 -0.014637029 0.40976542
0.13488428 -0.014633077 0.40963307
0.13521083 -0.014628928 0.40949512
0.13555972 -0.014627211 0.40942529
0.13589667 -0.014624215 0.4093197
0.13625269 -0.014623283 0.40927184
0.13659975 -0.0146214 0.40919739
0.1369148 -0.014616108 0.40902749
0.13723658 -0.014611559 0.40887845
0.13760333 -0.01461181 0.40886366
0.1379953 -0.014614731 0.40892366
0.13826413 -0.014604627 0.40861917
0.13860725 -0.014602406 0.40853524
0.13898814 -0.014604164 0.40856266
0.13930941 -0.014599662 0.40841496
0.13962828 -0.014594935 0.40826091
0.13998453 -0.01459413 0.40821666
0.14030261 -0.014589358 0.40806141
0.14068018 -0.014590782 0.40807945
0.14097862 -0.014584012 0.40786836
0.14132501 -0.014582225 0.40779659
0.14168261 -0.014581599 0.40775734
0.14199813 -0.014576658 0.40759742
0.14236596 -0.0145771 0.40758801
0.14268713 -0.01457277 0.40744522
0.14299533 -0.014567141 0.40726614
0.14333458 -0.014564697 0.40717605
0.14371404 -0.014566341 0.40720028
0.14406097 -0.014564687 0.40713236
0.14444201 -0.014566482 0.40716079
0.14484724 -0.014570702 0.40725699
0.087847151 -0.014637185 0.42300737
0.088172421 -0.014629069 0.422755
0.088539995 -0.014628011 0.42270654
0.088888891 -0.014623888 0.42256948
0.089241572 -0.014620419 0.42245129
0.089637734 -0.014624076 0.42253891
0.090003356 -0.014622739 0.42248219
0.090319447 -0.014613398 0.42219421
0.090699524 -0.014614445 0.42220622
0.091039732 -0.014609084 0.42203313
0.091393612 -0.014605953 0.42192444
0.091757782 -0.014604485 0.42186368
0.092094846 -0.014598732 0.42167914
0.092464373 -0.014598146 0.42164385
0.092806272 -0.014593228 0.42148328
0.093172424 -0.014592143 0.42143345
0.093552336 -0.014593213 0.42144579
0.093903244 -0.01458977 0.42132774
0.094270051 -0.014588811 0.42128143
0.094614476 -0.014584414 0.42113572
0.094924286 -0.014574733 0.42083743
0.095292427 -0.014574049 0.42079893
0.095625937 -0.014568095 0.42060819
0.095969178 -0.014563663 0.42046136
0.096351519 -0.014565178 0.42048615
0.096705258 -0.014562372 0.4203862
0.097093254 -0.014564727 0.42043516
0.097474933 -0.014566119 0.42045629
0.097795174 -0.014558356 0.4202131
0.098145343 -0.014555087 0.42009962
0.098497353 -0.014552116 0.41999471
0.098857008 -0.014550294 0.41992289
0.099191725 -0.014544828 0.41974586
0.099522017 -0.014538756 0.41955131
0.09988258 -0.014537135 0.41948521
0.10024992 -0.014536506 0.41944766
0.10062065 -0.014536375 0.41942444
0.10098238 -0.014534946 0.41936374
0.10133239 -0.014531849 0.41925487
0.10171918 -0.014534029 0.41929823
0.10200917 -0.014522413 0.41894352
0.10237277 -0.014521321 0.41889238
0.10270015 -0.014515118 0.41869378
0.10308253 -0.014516707 0.41871986
0.1300967 -0.014303477 0.41095322
0.1304673 -0.014304003 0.41094667
0.13080561 -0.014300997 0.41083866
0.1312103 -0.014305242 0.41093892
0.13153724 -0.014301013 0.41079575
0.13185573 -0.01429589 0.41062686
0.13222955 -0.014296777 0.41063064
0.13252035 -0.014288708 0.4103772
0.13291693 -0.014292056 0.41045162
0.13326058 -0.014289711 0.41036254
0.13360076 -0.014287007 0.41026318
0.13389906 -0.014279854 0.410036
0.13424326 -0.01427762 0.40995011
0.13459772 -0.014276486 0.40989578
0.13498788 -0.014279132 0.40995002
0.13526565 -0.01426991 0.40966347
0.13557167 -0.014263708 0.4094637
0.13591021 -0.014260952 0.40936285
0.13628098 -0.014261585 0.40935919
0.13666017 -0.014263091 0.40938067
0.13696782 -0.014257143 0.40918818
0.13728373 -0.014252081 0.40902114
0.13764066 -0.014251296 0.40897685
0.13801327 -0.014252137 0.40897918
0.13830295 -0.014244428 0.40873617
0.13865414 -0.014243078 0.40867573
0.13901453 -0.014242679 0.40864247
0.13938633 -0.014243447 0.40864271
0.13972495 -0.014240829 0.40854588
0.14005104 -0.014236952 0.40841284
0.14036931 -0.014232301 0.40825763
0.14075069 -0.014234057 0.40828618
0.14100203 -0.014222686 0.4079383
0.14135887 -0.014221989 0.40789655
0.14173338 -0.014223066 0.4079057
0.14205438 -0.014218784 0.4077611
0.14240611 -0.01421759 0.40770513
0.14272372 -0.014213005 0.40755188
0.14309403 -0.014213678 0.40754947
0.14341874 -0.014209828 0.40741736
0.1437954 -0.014211132 0.40743297
0.14413537 -0.014208814 0.40734479
0.1444941 -0.014208351 0.40730977
0.14485928 -0.014208523 0.40729299
0.087585971 -0.014281301 0.42357454
0.087829098 -0.014259946 0.42292336
0.088208079 -0.014260732 0.42292887
0.088588707 -0.014261778 0.42294201
0.088931933 -0.014256821 0.42277703
0.089296944 -0.014255379 0.42271635
0.08964701 -0.014251577 0.42258555
0.090026304 -0.014252434 0.42259285
0.090373166 -0.014248165 0.42244819
0.09072417 -0.014244586 0.42232385
0.091077283 -0.014241365 0.42221013
0.091415368 -0.014235829 0.42202774
0.091781609 -0.014234705 0.42197612
0.09214063 -0.014232474 0.42189163
0.092463464 -0.014224696 0.4216426
0.092823781 -0.014222724 0.42156568
0.093205914 -0.014224093 0.4215878
0.093554519 -0.014220358 0.42145848
0.093924031 -0.014219817 0.42142385
0.09430781 -0.01422143 0.421453
0.094664477 -0.01421896 0.42136109
0.09500064 -0.014213442 0.42117879
0.095345244 -0.014209223 0.42103499
0.095676668 -0.014203079 0.42083412
0.096022718 -0.014199148 0.42069876
0.096388005 -0.01419808 0.42064822
0.096728019 -0.014193311 0.42048797
0.097114995 -0.014195445 0.42053214
0.097491018 -0.014195966 0.42052853
0.097849496 -0.014193936 0.42044932
0.098218195 -0.014193401 0.42041427
0.098537207 -0.014185716 0.42016748
0.098850869 -0.014177321 0.41989958
0.099221461 -0.014177124 0.41987449
0.099563085 -0.014172804 0.41972724
0.099916458 -0.014170183 0.41963026
0.10028307 -0.014169452 0.41958919
0.10065213 -0.014169068 0.41955844
0.10101892 -0.01416837 0.41951829
0.10137379 -0.014166011 0.41942894
0.10172821 -0.014163608 0.4193382
0.1020721 -0.01415976 0.41920468
0.10247351 -0.014163892 0.41930735
0.1026763 -0.014140639 0.41859931
0.13016909 -0.013945428 0.41118419
0.13048279 -0.013939839 0.41099778
0.1308701 -0.013942125 0.41104352
0.13123663 -0.013942189 0.41102368
0.13157 -0.013938738 0.41090029
0.13191698 -0.013936749 0.41081995
0.13226467 -0.013934844 0.41074207
0.13257763 -0.013929295 0.41055682
0.13294962 -0.013929965 0.41055483
0.13327619 -0.01392589 0.41041297
0.13359784 -0.013921318 0.41025653
0.13392198 -0.013917033 0.41010845
0.13429505 -0.013917838 0.41011047
0.13461268 -0.013912912 0.40994361
0.13501967 -0.013917223 0.41004884
0.13535962 -0.013914618 0.40995032
0.13560762 -0.0139026 0.40957454
0.13597308 -0.013902659 0.40955445
0.13629004 -0.013897769 0.40938863
0.13665438 -0.013897724 0.40936553
0.13698748 -0.013894511 0.40924913
0.13733685 -0.013892962 0.40918171
0.13771187 -0.013894006 0.40919068
0.13806152 -0.013892493 0.40912434
0.13833188 -0.013883029 0.40882391
0.13870575 -0.013883978 0.40883005
0.13904688 -0.013881651 0.40873975
0.13940562 -0.013881093 0.40870151
0.13975787 -0.013879889 0.40864429
0.14008971 -0.01387667 0.40852773
0.14043219 -0.013874521 0.40844268
0.14078175 -0.013873077 0.40837845
0.14107214 -0.013865829 0.40814334
0.14139296 -0.0138616 0.40799704
0.14179294 -0.013865131 0.40807927
0.14211772 -0.013861313 0.40794507
0.14244206 -0.013857469 0.40781021
0.14279163 -0.013856092 0.40774792
0.14314632 -0.01385522 0.40770051
0.14346926 -0.013851284 0.40756297
0.14384727 -0.013852674 0.4075821
0.14417596 -0.013849317 0.40746164
0.14451072 -0.013846559 0.40735877
0.14490196 -0.013849213 0.40741509
0.14536244 -0.013858455 0.40766525
0.087576963 -0.01390508 0.42353386
0.08787398 -0.013892809 0.42314231
0.088250525 -0.013893164 0.42313525
0.088602938 -0.013889728 0.42301279
0.088948764 -0.013885298 0.42285991
0.089341857 -0.01388825 0.42293182
0.089664795 -0.013880317 0.42267221
0.090049461 -0.013881965 0.42270431
0.090394944 -0.013877585 0.42255279
0.090760902 -0.013876371 0.42249766
0.091123261 -0.01387462 0.42242607
0.09146966 -0.013870462 0.42228121
0.091802865 -0.013864344 0.42207664
0.092158228 -0.013861608 0.42197499
0.092518769 -0.013859672 0.42189762
0.092868149 -0.013856085 0.42176995
0.093242437 -0.013856228 0.42175579
0.09360078 -0.01385401 0.42166969
0.093965784 -0.013852791 0.42161399
0.094326019 -0.013850882 0.42153719
0.094692409 -0.013849885 0.4214882
0.095052995 -0.013848053 0.42141366
0.095393769 -0.013843359 0.42125204
0.095691979 -0.01383255 0.42090431
0.096059911 -0.013831863 0.42086449
0.096408658 -0.013828431 0.42074111
0.096770465 -0.013826887 0.42067522
0.097155303 -0.013828636 0.4207094
0.09752319 -0.013827967 0.42067
0.097895786 -0.013827969 0.42065093
0.098237693 -0.013823654 0.42050049
0.098591514 -0.013821039 0.42040175
0.098894991 -0.013811414 0.42008975
0.099252805 -0.01380942 0.42000985
0.099586621 -0.013804114 0.41982916
0.099946938 -0.01380251 0.41976097
0.10031714 -0.013802274 0.41973448
0.10066629 -0.013799155 0.41962019
0.10104128 -0.013799588 0.41961387
0.10142828 -0.013801652 0.41965708
0.10175986 -0.013796188 0.41947138
0.10208755 -0.013790237 0.41927084
0.10249514 -0.013795084 0.41939855
0.13053189 -0.013579085 0.41115469
0.13089158 -0.013578431 0.41111323
0.13125663 -0.013578335 0.41108862
0.13160248 -0.013576259 0.41100407
0.13193667 -0.013572994 0.41088352
0.13232303 -0.013575098 0.41092551
0.13263693 -0.013569777 0.41074273
0.13295104 -0.013564506 0.4105615
0.13333082 -0.013565949 0.41058344
0.13365334 -0.013561571 0.41042918
0.13403012 -0.013562709 0.41044185
0.1343172 -0.013554787 0.41018039
0.13469644 -0.013556183 0.41020089
0.13502377 -0.013552363 0.41006353
0.1353845 -0.013551906 0.41002792
0.1357436 -0.013551288 0.40998748
0.13604875 -0.013545303 0.40978459
0.13640755 -0.013544675 0.40974385
0.1367498 -0.013542412 0.4096536
0.13699801 -0.013530874 0.40928277
0.13736647 -0.013531241 0.40927213
0.13781576 -0.013539548 0.40950155
0.13804948 -0.013526687 0.40909085
0.13844897 -0.013530096 0.40917212
0.13878277 -0.013527082 0.40905923
0.13908701 -0.013521208 0.40885982
0.13946848 -0.013522858 0.40888792
0.13978603 -0.013518316 0.40872878
0.14015922 -0.013519163 0.40873259
0.14048778 -0.013515712 0.40860647
0.14077772 -0.013508574 0.40836895
0.14115381 -0.013509718 0.4083817
0.14147905 -0.013505999 0.40824756
0.14181137 -0.013502977 0.4081344
0.14212549 -0.013498238 0.40796942
0.1425409 -0.013503121 0.40809527
0.14284573 -0.01349753 0.40790454
0.14315918 -0.01349278 0.40773919
0.14353497 -0.013493911 0.40775171
0.14386219 -0.013490485 0.40762639
0.14424901 -0.013492651 0.40767011
0.14458176 -0.013489761 0.40756109
0.1449575 -0.013490885 0.40757334
0.14537023 -0.013495439 0.40768912
0.087567367 -0.013528842 0.4234902
0.087921858 -0.013525751 0.42337564
0.088308424 -0.0135276 0.42341566
0.088647321 -0.013522159 0.42322749
0.089006409 -0.013519833 0.42313668
0.089333028 -0.013512613 0.42289278
0.08973033 -0.0135161 0.42298388
0.090067849 -0.013510591 0.42279339
0.090435088 -0.013509567 0.42274323
0.090768561 -0.01350353 0.42253608
0.091158107 -0.013505848 0.42259037
0.091517933 -0.01350376 0.42250678
0.091854565 -0.013498285 0.42231712
0.092196763 -0.013493664 0.42215419
0.092566706 -0.013493128 0.42211896
0.092922375 -0.01349052 0.42201895
0.093255818 -0.013484723 0.42181906
0.093639761 -0.013486243 0.42184803
0.093988761 -0.013482739 0.42171979
0.094369031 -0.013483728 0.42173213
0.094714411 -0.013479746 0.42158884
0.09508536 -0.01347942 0.42155987
0.095421664 -0.013474203 0.42137793
0.09575922 -0.013469204 0.42120272
0.096093252 -0.013463749 0.42101327
0.096440949 -0.013460242 0.4208847
0.09680026 -0.013458379 0.42080745
0.097180828 -0.013459474 0.42082265
0.097530909 -0.01345635 0.42070597
0.097903103 -0.013456293 0.42068505
0.098260999 -0.013454279 0.42060295
0.098615818 -0.013451858 0.42050806
0.098955385 -0.013447382 0.42034894
0.099292234 -0.013442574 0.42017934
0.099658474 -0.013441767 0.42013475
0.099975035 -0.013434287 0.41988161
0.10033499 -0.013432672 0.41981176
0.10073277 -0.013436116 0.41989994
0.10106697 -0.013431082 0.41972318
0.10143047 -0.013429967 0.41966876
0.10179118 -0.013428491 0.41960308
0.10219932 -0.01343326 0.41973248
0.13088353 -0.013211637 0.41109017
0.13132243 -0.013218978 0.41129693
0.13166083 -0.01321619 0.41118851
0.13200666 -0.013214161 0.41110364
0.13233207 -0.013210107 0.41095579
0.13265511 -0.013205837 0.41080123
0.13302377 -0.01320612 0.41078833
0.13337198 -0.013204376 0.41071233
0.13371636 -0.013202263 0.41062489
0.13408004 -0.013202063 0.41059691
0.13442713 -0.013200234 0.41051823
0.13476712 -0.013197719 0.41041833
0.13506719 -0.01319132 0.41019756
0.1354319 -0.013191252 0.41017362
0.13575697 -0.013187332 0.41002998
0.13611844 -0.01318696 0.4099966
0.13647935 -0.013186535 0.40996164
0.13678241 -0.013180536 0.40975338
0.13712671 -0.013178536 0.4096694
0.13749054 -0.013178418 0.40964392
0.13780314 -0.013173399 0.40946615
0.13807727 -0.013164742 0.40917528
0.13845362 -0.01316585 0.40918791
0.13883011 -0.013166967 0.40920082
0.13917211 -0.013164813 0.4091121
0.13954268 -0.013165366 0.40910751
0.13981377 -0.013156556 0.40881196
0.14018241 -0.013156944 0.40880227
0.14053947 -0.013156252 0.40875894
0.14084579 -0.013150821 0.40856844
0.14121677 -0.013151441 0.40856588
0.14152123 -0.013145879 0.40837133
0.14187966 -0.013145344 0.408333
0.14220709 -0.013141949 0.40820575
0.14254493 -0.013139528 0.4081088
0.14293875 -0.01314227 0.40817219
0.14325373 -0.013137764 0.40801051
0.14353277 -0.013129994 0.40774748
0.14390551 -0.013130815 0.4077512
0.14426319 -0.01313026 0.40771222
0.14463449 -0.013130943 0.40771171
0.14497787 -0.013129094 0.40763259
0.087603986 -0.013159632 0.42367002
0.087951593 -0.013155572 0.42352152
0.088334098 -0.013156745 0.42354146
0.088685624 -0.013153312 0.42341304
0.089036658 -0.013149835 0.42328319
0.089406595 -0.013149168 0.4232437
0.089761958 -0.013146372 0.42313567
0.090091974 -0.013139902 0.42290932
0.09048415 -0.013142512 0.42297521
0.090837494 -0.013139486 0.42285961
