# .PCD v0.7 - Point Cloud Data file format
VERSION 0.7
FIELDS x y z
SIZE 4 4 4
TYPE F F F
COUNT 1 1 1
WIDTH 1398
HEIGHT 1
VIEWPOINT 0 0 0 1 0 0 0
POINTS 1398
DATA ascii
0.093060143 0.072216645 0.4283314
0.093424037 0.072204106 0.42823964
0.093792431 0.072195143 0.42816904
0.094127506 0.072160698 0.42794725
0.094533771 0.07218089 0.42804947
0.094890624 0.072163351 0.42792788
0.095261447 0.072156519 0.42786974
0.095610313 0.072133191 0.42771375
0.095954105 0.07210622 0.42753613
0.096328996 0.072102755 0.42749783
0.096700586 0.07209684 0.42744496
0.09706942 0.072088927 0.42738029
0.097414128 0.07206323 0.42721009
0.097765237 0.072042458 0.42706901
0.098141961 0.07204064 0.42704025
0.098464131 0.071998946 0.42677519
0.098816454 0.07197953 0.42664203
0.099203847 0.071985714 0.42666069
0.099554978 0.071965642 0.4265236
0.09995278 0.071979329 0.42658657
0.10023744 0.071911737 0.42616782
0.10063409 0.071924709 0.42622647
0.10095261 0.071881942 0.42595479
0.10133275 0.071883202 0.42594397
0.10165448 0.071843177 0.42568851
0.10203659 0.071845956 0.42568666
0.1023792 0.071821019 0.42552048
0.10273708 0.071806923 0.42541856
0.10310799 0.07180202 0.42537099
0.10347908 0.071797267 0.42532438
0.10386264 0.071801163 0.42532894
0.10419431 0.071769305 0.42512164
0.1045063 0.071724154 0.42483562
0.1048654 0.071711548 0.42474234
0.10521813 0.071694694 0.42462385
0.10560333 0.071700007 0.42463663
0.10597531 0.071696334 0.42459616
0.10632056 0.071674667 0.42444906
0.10667169 0.071657114 0.42432633
0.10705166 0.071658976 0.42431855
0.10735694 0.07161101 0.42401564
0.1077529 0.071623661 0.4240717
0.10806697 0.071581967 0.42380592
0.10843785 0.071578071 0.42376393
0.10879162 0.071562946 0.42365536
0.109143 0.071546346 0.42353818
0.10949413 0.071529709 0.42342064
0.10987873 0.071534976 0.42343274
0.11022469 0.071515135 0.42329624
0.11060403 0.071517028 0.42328826
0.1109428 0.071492739 0.42312536
0.11127158 0.071462214 0.42292553
0.11166376 0.071472459 0.42296699
0.1119839 0.071436696 0.42273611
0.11235019 0.071430504 0.4226802
0.11271651 0.07142438 0.42262468
0.11307023 0.071410328 0.42252228
0.11337741 0.07136707 0.42224702
0.11374993 0.071365111 0.42221603
0.1141208 0.071362123 0.42217895
0.11448941 0.071357735 0.42213359
0.11481994 0.071329743 0.42194855
0.11520266 0.071334228 0.42195565
0.11554374 0.071312986 0.42181054
0.11584106 0.071264967 0.42150706
0.11619845 0.071254104 0.42142323
0.11654661 0.071237646 0.4213064
0.11692698 0.071240932 0.42130622
0.11728688 0.071231768 0.42123246
0.11764389 0.071220905 0.4211486
0.11800537 0.071212806 0.4210811
0.11832537 0.0711798 0.42086634
0.118663 0.07115759 0.4207153
0.1190691 0.07117644 0.42080706
0.11945021 0.071180291 0.4208101
0.076670147 0.07327991 0.43308458
0.077088632 0.073313013 0.43326503
0.077475183 0.073315576 0.43326491
0.077842705 0.073300183 0.43315873
0.07819806 0.073273562 0.43298602
0.078573443 0.073265851 0.43292513
0.078921005 0.073232412 0.43271208
0.079312883 0.073240228 0.43274271
0.079669729 0.073215768 0.43258265
0.080068059 0.073229477 0.43264803
0.080453306 0.073231153 0.43264228
0.080836415 0.073230863 0.43262485
0.081256844 0.073264234 0.43280619
0.081684887 0.073304132 0.43302602
0.082029343 0.07326898 0.4328025
0.087507233 0.07303825 0.43119532
0.087714292 0.072892532 0.43031833
0.088062406 0.072864786 0.43013775
0.088358954 0.072794788 0.4297078
0.088743836 0.07279785 0.42970911
0.089125492 0.07279826 0.42969465
0.08952684 0.072814673 0.42977464
0.089869477 0.072783411 0.42957315
0.090237267 0.072772682 0.42949286
0.090618663 0.072772972 0.42947754
0.090939403 0.07272476 0.42917591
0.091306642 0.072713979 0.42909515
0.091657214 0.072690062 0.42893687
0.09205649 0.072704822 0.42900673
0.092387162 0.072665498 0.4287574
0.092757523 0.07265757 0.42869332
0.093127124 0.072649121 0.42862615
0.093474157 0.072623216 0.42845589
0.093849435 0.072619371 0.42841578
0.094194405 0.072592191 0.42823797
0.09456604 0.072585709 0.42818218
0.094902232 0.072552167 0.42796677
0.095280632 0.072551049 0.42794254
0.095615156 0.072516657 0.42772204
0.09597259 0.072499841 0.42760515
0.096366785 0.072510809 0.42765218
0.096709065 0.072482795 0.42746916
0.097085215 0.072480276 0.4274365
0.097435698 0.072458699 0.42729142
0.097779572 0.072432391 0.42711836
0.098173328 0.072443083 0.42716351
0.098505735 0.072408617 0.42694229
0.098849244 0.072382525 0.42677045
0.099221624 0.072377712 0.42672396
0.099596389 0.072374649 0.42668787
0.0999474 0.072354414 0.42655048
0.10033265 0.072359025 0.42655951
0.10067894 0.072335616 0.42640328
0.10101018 0.072301611 0.42618462
0.10138248 0.072297141 0.42613998
0.10170993 0.072260842 0.4259077
0.1019924 0.072192959 0.42548931
0.1023967 0.072211511 0.42558026
0.10279691 0.072227046 0.42565337
0.10312973 0.072195284 0.42544779
0.10349154 0.072183982 0.42536271
0.10386758 0.072182648 0.42533633
0.10426167 0.072193816 0.4253836
0.10459303 0.07216163 0.4251754
0.10493458 0.072136678 0.42500973
0.10528527 0.072118163 0.42488202
0.10564524 0.072106123 0.42479238
0.10599618 0.072088026 0.42466709
0.10637457 0.072088659 0.42465204
0.10675835 0.072092921 0.42465836
0.1070857 0.072059192 0.42444086
0.10746722 0.072062001 0.4244386
0.10782146 0.072046578 0.42432886
0.10815459 0.072017215 0.424137
0.10848611 0.071986966 0.42393997
0.10884359 0.071974106 0.42384523
0.10918701 0.071952067 0.42369646
0.10956235 0.071951136 0.42367196
0.10993364 0.07194756 0.42363191
0.11031073 0.071947798 0.4236142
0.11063682 0.071914889 0.4234013
0.11100777 0.071911253 0.42336079
0.11129867 0.071855962 0.4230161
0.11164787 0.071838565 0.42289448
0.112051 0.071855851 0.42297709
0.11239491 0.071835183 0.42283615
0.11276714 0.071832694 0.42280221
0.11305281 0.071775265 0.42244494
0.11346956 0.071801156 0.42257801
0.11379534 0.071769498 0.42237237
0.11416453 0.071765341 0.42232853
0.11453521 0.071762152 0.42229035
0.1148709 0.071737126 0.42212367
0.11522281 0.071722366 0.4220174
0.11554118 0.071686879 0.42178914
0.11589871 0.071675852 0.42170474
0.11627062 0.071673758 0.42167294
0.11661761 0.071656361 0.42155105
0.11699628 0.071658485 0.42154399
0.11731364 0.071623154 0.42131659
0.11765118 0.071600325 0.42116275
0.11805377 0.071617126 0.42124194
0.11841026 0.071605921 0.42115641
0.11876338 0.071592771 0.4210594
0.11916522 0.071608968 0.42113498
0.077494957 0.073718362 0.43336102
0.077846117 0.073687315 0.43316326
0.078242727 0.073699385 0.4332189
0.078569494 0.073645875 0.43288895
0.078952409 0.073645256 0.43286988
0.07935746 0.073665194 0.43297157
0.079734363 0.073658921 0.43291914
0.080080196 0.073624164 0.43269926
0.08048898 0.073647328 0.43281975
0.080854453 0.073630832 0.43270707
0.08126799 0.073658049 0.43285125
0.081679858 0.073683508 0.43298501
0.082076222 0.073694818 0.43303558
0.082472898 0.073706284 0.43308699
0.087524712 0.073435463 0.4312675
0.087741658 0.073297165 0.43043867
0.08810319 0.073280327 0.43032306
0.088436849 0.073240556 0.43007275
0.088776395 0.073205985 0.42985296
0.089148439 0.073198378 0.42979148
0.089534156 0.073202029 0.42979595
0.089928061 0.073212296 0.42983934
0.090291701 0.073197961 0.42973819
0.090650432 0.073179774 0.42961437
0.090992279 0.073148169 0.42941177
0.091337025 0.073119149 0.42922428
0.09170343 0.07310763 0.42913949
0.092080422 0.073104613 0.4291046
0.092434913 0.073083833 0.42896536
0.09283115 0.073096089 0.42901999
0.09315668 0.073052801 0.42874861
0.093508758 0.073030606 0.42860091
0.093865938 0.073012553 0.42847753
0.094241656 0.073008999 0.42843923
0.094594039 0.072987482 0.42829543
0.094962008 0.072978102 0.42822286
0.095312707 0.072955579 0.42807311
0.095693484 0.072956182 0.42805898
0.096023478 0.072918199 0.42781848
0.096401051 0.072916515 0.42779085
0.09676896 0.072907552 0.42772055
0.097152241 0.072910197 0.42771822
0.097511485 0.072894856 0.42761037
0.097858809 0.072870761 0.42745116
0.09821488 0.072853342 0.42733106
0.098546803 0.072818205 0.42710704
0.098890394 0.072791927 0.42693487
0.099266782 0.0727899 0.42690498
0.099598907 0.072755553 0.42668545
0.10000082 0.072772264 0.42676532
0.10037881 0.072771482 0.42674264
0.10077809 0.072786093 0.42681012
0.10390176 0.072584584 0.42546335
0.10428395 0.072587445 0.42546162
0.10465554 0.07258293 0.42541659
0.10501436 0.072569631 0.42532
0.10531987 0.07251972 0.42500886
0.1056833 0.072509892 0.42493263
0.10604709 0.0725004 0.42485824
0.10640534 0.072487198 0.42476216
0.10677399 0.072481126 0.42470783
0.10713129 0.072467439 0.4246088
0.1075194 0.072474606 0.42463195
0.10785779 0.072448343 0.42445919
0.10823501 0.072448231 0.4244397
0.10852087 0.072387181 0.42406315
0.10895102 0.072422482 0.42425099
0.10923228 0.072358906 0.42385957
0.1095862 0.072343744 0.42375171
0.10999379 0.072363973 0.42385116
0.11031576 0.072327934 0.42362103
0.11069372 0.072328717 0.42360654
0.11105123 0.0723162 0.42351407
0.11134286 0.072260998 0.4231717
0.111745 0.07227765 0.42324999
0.11211453 0.072273165 0.42320454
0.11243629 0.072238006 0.42297947
0.11277842 0.072216146 0.42283219
0.11310796 0.072186388 0.42263868
0.11351154 0.072203927 0.42272204
0.11384001 0.07217373 0.42252594
0.11423206 0.0721839 0.42256615
0.11458373 0.072168581 0.4224571
0.11492576 0.07214731 0.42231315
0.11528289 0.072135612 0.42222527
0.11564277 0.072125718 0.42214787
0.11593515 0.072073929 0.42182529
0.11631928 0.072079301 0.42183727
0.11662062 0.072033539 0.42154992
0.11700983 0.072042145 0.42158079
0.11734719 0.072018877 0.42142507
0.11772722 0.072021872 0.42142302
0.11802983 0.071977623 0.42114455
0.1184741 0.072019778 0.42137152
0.11880559 0.071993314 0.42119709
0.077874601 0.074098334 0.43330723
0.07823877 0.074079618 0.43318248
0.078644782 0.074100517 0.43328932
0.078995258 0.07406912 0.4330903
0.079354994 0.074046686 0.43294364
0.07973446 0.074042782 0.43290532
0.080119111 0.074043706 0.43289509
0.080494888 0.074036479 0.43283713
0.080920205 0.074074641 0.43304455
0.08128044 0.074053153 0.4329032
0.081688806 0.074075513 0.43301809
0.082082964 0.074084848 0.43305674
0.082483411 0.074099749 0.43312791
0.082858585 0.074091896 0.43306601
0.083265401 0.074112296 0.43316919
0.087209992 0.073875472 0.43160546
0.087522753 0.073816411 0.43124378
0.087804712 0.073732004 0.43073398
0.08813446 0.073688276 0.43046185
0.088486671 0.07366363 0.43030113
0.088813029 0.073617749 0.43001637
0.089171268 0.073598593 0.42988759
0.089577496 0.073619038 0.42999014
0.089959949 0.073619835 0.42997789
0.090310834 0.073594928 0.42981541
0.090682231 0.073586844 0.42975122
0.091040522 0.07356827 0.4296256
0.091407664 0.073556952 0.42954242
0.091737829 0.073516108 0.42928675
0.092129283 0.07352449 0.42931855
0.09246026 0.073484756 0.42906928
0.09284322 0.073486477 0.42906207
0.093220279 0.073483557 0.42902765
0.093566135 0.073456153 0.42885026
0.093924962 0.073439114 0.42873338
0.094293915 0.073430091 0.42866322
0.094660453 0.073419273 0.42858258
0.094989553 0.073379613 0.42833355
0.095347412 0.073362403 0.42821547
0.095730118 0.07336437 0.42820936
0.096085608 0.073345549 0.42808181
0.096431553 0.073319621 0.42791274
0.096783549 0.073298469 0.42777157
0.097186141 0.073315658 0.42785409
0.097543903 0.073299021 0.42773917
0.097877666 0.073264547 0.42752016
0.098229997 0.073244192 0.42738345
0.098617882 0.073250405 0.42740172
0.098957866 0.07322111 0.42721283
0.099338867 0.07322228 0.42720169
0.099661395 0.073180512 0.42693987
0.10010155 0.073225103 0.42718193
0.10468027 0.072978355 0.42550418
0.10505328 0.072974779 0.42546475
0.10538923 0.07294558 0.42527586
0.10575508 0.072937205 0.42520833
0.10612942 0.072934732 0.42517525
0.1064683 0.072907992 0.42500064
0.10680196 0.072877869 0.4248063
0.10716537 0.072868198 0.42473114
0.10753288 0.072861359 0.42467248
0.10789517 0.072851062 0.42459357
0.10824983 0.072835684 0.42448512
0.1086104 0.072824389 0.42440036
0.10896578 0.072809704 0.42429581
0.10932267 0.072796121 0.42419773
0.10963127 0.072750583 0.42391336
0.11000337 0.072747342 0.42387548
0.1103561 0.072731376 0.42376342
0.11071851 0.072721869 0.42368895
0.1111132 0.072733559 0.42373791
0.11141928 0.072687365 0.42344964
0.11178826 0.072682366 0.42340139
0.11213129 0.07266058 0.42325535
0.11249714 0.072653703 0.42319602
0.11284651 0.072636247 0.42307511
0.11322005 0.072634421 0.42304519
0.11354713 0.072602905 0.42284232
0.11389527 0.072584994 0.42271873
0.11424302 0.072566971 0.42259443
0.1146332 0.072575919 0.42262721
0.11494002 0.072532222 0.42235333
0.11528859 0.072515056 0.42223394
0.11568382 0.072527245 0.42228553
0.11604983 0.072521113 0.42223033
0.11640203 0.072506405 0.42212528
0.1167121 0.072465643 0.42186844
0.11704124 0.072436944 0.42168185
0.11744654 0.072455421 0.42176983
0.11777475 0.072426371 0.42158115
0.11812212 0.072409227 0.42146182
0.078665614 0.074504294 0.43338943
0.07902275 0.074478939 0.43322653
0.079410851 0.074482866 0.43323386
0.079790227 0.074478604 0.43319356
0.080123894 0.074431926 0.43290645
0.080521375 0.074444696 0.4329651
0.080916099 0.074454799 0.43300813
0.081288956 0.074444771 0.43293411
0.081692159 0.074462526 0.43302149
0.082071476 0.074458405 0.43298173
0.082480296 0.074480996 0.43309712
0.082872085 0.074488059 0.43312222
0.083239436 0.07447318 0.43301973
0.083633617 0.074482359 0.43305695
0.084023155 0.074487314 0.43306965
0.087202333 0.074251853 0.43155342
0.087517239 0.074194342 0.43120253
0.087842077 0.074145705 0.43090326
0.088200212 0.074125469 0.43076891
0.088555373 0.074102923 0.43062118
0.088912755 0.074082419 0.43048525
0.08925321 0.07404805 0.4302687
0.089596406 0.074016228 0.43006694
0.090001792 0.074035853 0.43016401
0.090361506 0.07401789 0.43004265
0.090745278 0.0740197 0.43003616
0.091090091 0.073989846 0.42984566
0.091429576 0.073955931 0.42963156
0.091803223 0.073949821 0.42957893
0.092120141 0.073898256 0.42926219
0.092558287 0.073943958 0.42951041
0.092916898 0.073926002 0.42938885
0.093238324 0.073878735 0.429097
0.093591496 0.073856905 0.42895281
0.093956128 0.073844254 0.42886195
0.094331212 0.073839895 0.42881915
0.094704643 0.07383427 0.42876899
0.095024653 0.073787205 0.42847818
0.09542115 0.073799685 0.42853305
0.095774442 0.073778778 0.42839405
0.096134514 0.073763236 0.42828614
0.09647657 0.073734052 0.42809901
0.096823417 0.073708743 0.42793429
0.097203657 0.073708951 0.42791772
0.097614303 0.073732115 0.42803442
0.097920887 0.073676817 0.42769551
0.098282844 0.073663443 0.42759997
0.098630495 0.07363949 0.427443
0.098967902 0.0736081 0.42724282
0.099357657 0.073615737 0.42726916
0.099759363 0.073632136 0.42734626
0.10012085 0.073618837 0.42725098
0.10507366 0.07336726 0.42553431
0.10544671 0.073363669 0.42549488
0.10582239 0.073361926 0.42546609
0.10619548 0.073358409 0.42542699
0.10652268 0.073323324 0.42520484
0.10686348 0.073297821 0.42503819
0.10719833 0.073268406 0.42484891
0.10757984 0.073271006 0.42484516
0.10795471 0.073269084 0.42481512
0.10825622 0.073217534 0.42449743
0.10864826 0.073227361 0.42453551
0.10900546 0.073213749 0.42443761
0.10937247 0.073206775 0.42437825
0.10972488 0.0731901 0.42426264
0.11010551 0.073192321 0.42425647
0.11038909 0.073130228 0.42387751
0.11080843 0.073158182 0.42402044
0.11113286 0.073123492 0.42380032
0.11149958 0.073116772 0.42374223
0.11185525 0.073102877 0.42364258
0.11220232 0.073083475 0.42351097
0.11256715 0.073075727 0.42344686
0.1128789 0.073033698 0.4231841
0.11327367 0.073045485 0.42323315
0.11362492 0.073029213 0.42311957
0.1139621 0.073004037 0.42295441
0.1143169 0.072990283 0.42285538
0.11465113 0.072963521 0.422681
0.11503706 0.072969727 0.42269757
0.1153797 0.07294853 0.42255539
0.11576211 0.072952524 0.42255908
0.11609342 0.072924405 0.42237678
0.11640038 0.072881207 0.42210716
0.11677809 0.072882451 0.42209485
0.11713392 0.072870068 0.42200363
0.11747022 0.072845668 0.42184278
0.11782377 0.072832078 0.42174453
0.11820074 0.072833009 0.42173034
0.079065524 0.074903503 0.43344641
0.079443723 0.074897915 0.43339863
0.079814643 0.074885547 0.43331152
0.080180921 0.07486897 0.43320003
0.08056251 0.074866779 0.43317169
0.080923669 0.074845709 0.43303412
0.081301473 0.074840166 0.43298629
0.081696488 0.074850433 0.43302995
0.082079493 0.074849665 0.43300962
0.082475826 0.074860975 0.43305922
0.082864568 0.074865349 0.43306851
0.083235703 0.074853837 0.4329859
0.083636008 0.074868552 0.43305492
0.084007196 0.074857175 0.43297303
0.084399723 0.074864835 0.4330011
0.086255133 0.074809119 0.43259719
0.086837836 0.074650429 0.43164662
0.087156892 0.074595839 0.43131438
0.087539926 0.074596234 0.43130013
0.087907135 0.074583225 0.43120825
0.08822941 0.07453236 0.43089747
0.088583663 0.074508831 0.43074468
0.088972554 0.074514501 0.43076071
0.089266866 0.074441262 0.43032053
0.089682713 0.074469559 0.43046725
0.090063602 0.07446871 0.4304454
0.090393975 0.074426286 0.43018323
0.090748638 0.07440412 0.43003812
0.091127224 0.074401684 0.43000698
0.091493472 0.074389227 0.4299179
0.091843918 0.074364081 0.42975545
0.092194647 0.074339375 0.4295955
0.092592791 0.07435295 0.42965665
0.092894547 0.074289329 0.42927176
0.093263544 0.074279778 0.42919925
0.09366937 0.074299514 0.42929596
0.094033971 0.074286528 0.42920351
0.094370924 0.07425189 0.42898595
0.094727047 0.074232541 0.42885673
0.095075026 0.074207015 0.42869169
0.095469132 0.074217528 0.42873487
0.095833644 0.074205056 0.42864519
0.096171521 0.074172139 0.42843744
0.096521273 0.074148603 0.42828375
0.096913107 0.074157454 0.42831713
0.097260542 0.074132383 0.42815459
0.097612828 0.074111201 0.42801443
0.09801393 0.0741271 0.4280884
0.098321527 0.074072435 0.42775479
0.098709144 0.074078232 0.42777038
0.099083379 0.074073993 0.42772794
0.099402934 0.074029051 0.42745042
0.10547847 0.073764175 0.42560998
0.10583635 0.073749945 0.42550924
0.10619142 0.073733866 0.42539775
0.10655299 0.073722392 0.42531288
0.10690168 0.073702104 0.42517716
0.10730773 0.073721386 0.42526963
0.10760771 0.073667906 0.42494231
0.10797053 0.073657677 0.4248645
0.10834485 0.073655352 0.4248322
0.10865423 0.073609024 0.42454612
0.10903452 0.073610894 0.42453802
0.10937183 0.073583834 0.42436302
0.1097526 0.073586114 0.42435715
0.11013132 0.073587 0.42434326
0.11046935 0.073560767 0.42417297
0.11083593 0.073553674 0.42411304
0.11119514 0.073541738 0.42402518
0.11156931 0.073539764 0.42399466
0.11190633 0.073513396 0.42382348
0.11225852 0.073497139 0.42371058
0.11258456 0.073463932 0.42349991
0.11297602 0.073473468 0.4235357
0.11332965 0.073458433 0.42342982
0.11364236 0.07341706 0.42317206
0.11399323 0.073400527 0.4230575
0.114352 0.07338918 0.4229728
0.11472922 0.073389709 0.42295653
0.11503122 0.073342279 0.42266378
0.11542024 0.073350459 0.42269155
0.11579446 0.073349208 0.42266491
0.11611753 0.073315665 0.42245221
0.11651112 0.073326729 0.42249653
0.11686301 0.073311552 0.42238963
0.1172277 0.073304489 0.42232937
0.11757446 0.07328628 0.42220494
0.079451121 0.075289138 0.43342432
0.079835981 0.075289823 0.43341276
0.080218673 0.075288475 0.4333894
0.080585629 0.075272433 0.43328142
0.080978677 0.075280793 0.43331391
0.081344821 0.075264178 0.43320253
0.081695646 0.075233638 0.43301097
0.08207617 0.075230584 0.43297753
0.082472809 0.075242266 0.43302888
0.082852177 0.075238146 0.43298927
0.083240926 0.075242557 0.43299863
0.083619796 0.075238019 0.43295652
0.084003136 0.075237557 0.43293768
0.08438275 0.075233757 0.43289965
0.08476264 0.075230241 0.43286318
0.08513619 0.075221151 0.43279466
0.085542701 0.075241134 0.43289328
0.085830778 0.075157225 0.43239421
0.086176172 0.07512404 0.43218687
0.08651913 0.07508903 0.43196899
0.086843699 0.075038448 0.43166146
0.087224767 0.075036906 0.43163607
0.087561831 0.074997678 0.43139389
0.087949753 0.075002171 0.4314031
0.088258453 0.074939355 0.43102512
0.08863239 0.07493224 0.43096748
0.08897154 0.074895903 0.4307417
0.089341417 0.074885629 0.43066579
0.089704178 0.074869499 0.43055618
0.090051696 0.074840851 0.4303745
0.090448827 0.074853487 0.43043023
0.090802595 0.074830286 0.43027985
0.091179229 0.074826039 0.4302384
0.091526821 0.0747981 0.43006065
0.091890611 0.074783579 0.42996001
0.092252798 0.074767865 0.42985258
0.092614174 0.074751638 0.42974201
0.092978053 0.074737549 0.42964375
0.093328565 0.07471288 0.42948464
0.093706951 0.074710622 0.42945433
0.094046637 0.074677676 0.4292475
0.094366498 0.074629292 0.42895204
0.094775155 0.074651256 0.42906076
0.095126741 0.074628256 0.42891109
0.095515124 0.074634202 0.42892769
0.095842019 0.07459224 0.42866895
0.096204378 0.074578106 0.42857009
0.096569799 0.074566461 0.42848545
0.096942827 0.074560739 0.42843485
0.097307868 0.074548945 0.42834935
0.097662531 0.07452932 0.42821878
0.098047838 0.07453315 0.42822292
0.098386325 0.074501485 0.42802313
0.098744065 0.074484594 0.42790821
0.099086359 0.07445623 0.42772728
0.099512868 0.074491128 0.42790973
0.10547385 0.074139342 0.42557827
0.10587927 0.074158348 0.42566878
0.10623427 0.074142039 0.42555645
0.10660625 0.074137621 0.42551246
0.10695919 0.074120067 0.42539296
0.10732345 0.074110441 0.42531899
0.10767218 0.074090205 0.42518404
0.10806198 0.074098259 0.42521146
0.10840533 0.074074522 0.4250564
0.10872529 0.074035026 0.42481092
0.10909585 0.074030139 0.42476395
0.10941391 0.073989794 0.42451352
0.10979545 0.073992483 0.42451003
0.11013924 0.073969811 0.42436099
0.11050788 0.073963918 0.42430821
0.11086744 0.073952027 0.42422089
0.11126081 0.073962674 0.42426294
0.11157715 0.073922239 0.42401189
0.11194992 0.073919311 0.42397594
0.11228233 0.073889852 0.42378783
0.11266585 0.073894121 0.42379311
0.1129986 0.073865153 0.4236078
0.11337952 0.073867775 0.42360362
0.1137066 0.07383541 0.42339876
0.1140535 0.073816091 0.42326874
0.11441998 0.073809542 0.42321184
0.11478905 0.073804684 0.4231647
0.1151289 0.073781133 0.42301029
0.11544426 0.073742107 0.42276716
0.11581026 0.073735557 0.42271024
0.11618777 0.073736362 0.42269543
0.1165191 0.073707946 0.42251313
0.1169199 0.073723525 0.42258295
0.11726365 0.07370314 0.42244664
0.080232643 0.075685881 0.43345016
0.080607027 0.07567668 0.4333818
0.080990665 0.075676203 0.43336341
0.081363946 0.075666092 0.43328983
0.081736036 0.075654976 0.4332104
0.082111038 0.075646654 0.43314692
0.082461491 0.075615898 0.43295494
0.082854241 0.075624026 0.43298551
0.083238803 0.075624637 0.43297303
0.083611444 0.075614467 0.43289876
0.083993912 0.075613238 0.43287563
0.084371306 0.075607464 0.43282646
0.084752724 0.07560534 0.43279809
0.085121565 0.075592063 0.43270585
0.085491039 0.075579457 0.4326174
0.085835986 0.075545385 0.43240604
0.086167105 0.075499512 0.43212706
0.086508676 0.075463146 0.43190244
0.086872853 0.07544674 0.43179211
0.087201498 0.075399749 0.43150666
0.087589614 0.075404368 0.4315165
0.087947637 0.075383157 0.43137851
0.088309146 0.075365096 0.43125847
0.088645011 0.0753254 0.43101466
0.088999584 0.075301878 0.43086332
0.089398891 0.075316243 0.43092868
0.089738667 0.075280547 0.4307076
0.09011852 0.075278632 0.43067974
0.090473965 0.07525643 0.43053579
0.090844177 0.07524664 0.43046281
0.09121453 0.075237043 0.43039089
0.091548458 0.075197622 0.43014827
0.091911316 0.075182192 0.43004292
0.092284575 0.075175352 0.42998663
0.092651062 0.075163081 0.42989919
0.093007401 0.075142711 0.42976543
0.093378805 0.075134628 0.42970192
0.093725435 0.075106747 0.42952517
0.094129115 0.075124629 0.42961004
0.094470136 0.075092569 0.42940927
0.094838798 0.075082652 0.42933509
0.095179647 0.075050876 0.42913586
0.095545202 0.075038746 0.42904902
0.095889717 0.07501027 0.42886856
0.096246786 0.074991792 0.42874533
0.096623696 0.074988857 0.42871085
0.096968941 0.074961469 0.42853659
0.097344115 0.074957334 0.42849523
0.097718328 0.074952506 0.42844981
0.098061331 0.074923858 0.42826825
0.098465919 0.074942313 0.42835587
0.098788053 0.074898101 0.42808527
0.099201739 0.074923389 0.42821175
0.10556506 0.074582189 0.42593324
0.10590548 0.0745553 0.42576101
0.10628474 0.074555837 0.42574549
0.10665758 0.074551903 0.4257043
0.1070134 0.074536115 0.42559552
0.10737657 0.074525557 0.42551649
0.10773813 0.074513964 0.42543149
0.10811419 0.074512437 0.42540395
0.10845279 0.074485183 0.42522958
0.10875797 0.074435271 0.42492574
0.10918078 0.074465901 0.42508176
0.10948429 0.074415267 0.42477375
0.10983427 0.074396431 0.4246473
0.11020864 0.074394196 0.42461559
0.11056431 0.074379399 0.42451212
0.11093113 0.07437218 0.42445189
0.11126289 0.074341565 0.42425811
0.11164659 0.074345767 0.42426297
0.11196513 0.074306689 0.42402089
0.11234057 0.074305505 0.42399502
0.11269778 0.07429231 0.42390057
0.11307919 0.074295104 0.42389733
0.11341104 0.074265435 0.4237088
0.11376976 0.074253485 0.42362142
0.11410111 0.074223824 0.42343292
0.11448002 0.074225187 0.42342141
0.11481871 0.074200541 0.42326152
0.11515357 0.074173607 0.42308852
0.11557719 0.074203826 0.42324156
0.11590803 0.074174464 0.4230547
0.11621858 0.074132368 0.42279521
0.11659068 0.074129656 0.42276031
0.081001319 0.076070465 0.4334057
0.081381224 0.076066457 0.43336716
0.081749752 0.076051898 0.43326846
0.082123794 0.07604257 0.43319952
0.082499802 0.076035157 0.43314138
0.08285182 0.076005802 0.43295825
0.083232254 0.076002665 0.43292439
0.083612107 0.075999029 0.43288767
0.083986729 0.075990684 0.43282411
0.084368356 0.075988725 0.43279678
0.084737919 0.075975977 0.43270797
0.085121982 0.075976275 0.43269345
0.085440762 0.07591857 0.43234858
0.08581274 0.075908422 0.43227446
0.086176485 0.075891137 0.43215963
0.086522862 0.075858772 0.43195888
0.086880252 0.075836286 0.43181446
0.087266728 0.075839311 0.43181509
0.087637685 0.07582885 0.431739
0.087998033 0.075809352 0.43161136
0.088373967 0.075803384 0.43156075
0.08873786 0.075787194 0.43145186
0.089071192 0.075745143 0.43119571
0.089406796 0.075705387 0.43095258
0.089788705 0.075704992 0.43093354
0.090145893 0.075683869 0.43079638
0.090485156 0.07564792 0.43057486
0.090882398 0.075660542 0.43062976
0.091262996 0.075659268 0.43060547
0.091609024 0.075629465 0.43041879
0.091955706 0.075600438 0.43023652
0.092324652 0.075589888 0.4301593
0.092683092 0.075570852 0.43003377
0.093040146 0.075550854 0.42990273
0.093425773 0.075554125 0.42990404
0.093750857 0.075508602 0.42962772
0.094127044 0.075504437 0.42958668
0.094496526 0.07549496 0.42951533
0.094880104 0.07549677 0.42950815
0.095193774 0.075443164 0.42918566
0.095570363 0.075439647 0.42914817
0.095933042 0.075425215 0.42904851
0.09629894 0.075413428 0.42896384
0.09668231 0.075415365 0.42895716
0.097009018 0.075373255 0.42869994
0.097368926 0.075357169 0.42859071
0.097754918 0.075361319 0.42859656
0.098130748 0.075357623 0.42855769
0.0984651 0.075322241 0.42833865
0.098860338 0.075333513 0.42838487
0.099217668 0.075315922 0.42826691
0.099690586 0.075385883 0.42864677
0.10570879 0.075062975 0.42649993
0.10598016 0.074986726 0.4260481
0.10633931 0.074972898 0.42595094
0.10670952 0.07496696 0.42589849
0.10702338 0.074921593 0.42562214
0.107426 0.074938476 0.42569932
0.10777592 0.074918605 0.42556763
0.10814048 0.074909009 0.42549437
0.10849813 0.074894711 0.42539436
0.10884452 0.074872784 0.42525092
0.10919913 0.074856624 0.42514026
0.10951968 0.074817322 0.42489812
0.10986419 0.074794583 0.42475012
0.11022648 0.074784063 0.42467144
0.11061086 0.074788563 0.424678
0.1109645 0.074772313 0.42456672
0.11133003 0.074764162 0.42450136
0.11170755 0.074764088 0.4244819
0.11202452 0.074723624 0.42423305
0.11237393 0.074705005 0.42410821
0.11271288 0.074679583 0.42394474
0.1131013 0.074686974 0.42396757
0.11344384 0.074664138 0.42381874
0.1137829 0.074639171 0.42365775
0.11414463 0.07462918 0.42358181
0.11450958 0.074621364 0.42351815
0.11487458 0.074613623 0.42345497
0.11524405 0.074608833 0.42340848
0.11557432 0.074578784 0.42321858
0.11596544 0.074588053 0.42325181
0.11626679 0.074539714 0.42295814
0.11663385 0.074533686 0.42290452
0.081403323 0.076471508 0.43347007
0.081784077 0.076468207 0.43343565
0.082142092 0.076443769 0.4332813
0.082516149 0.076434441 0.43321258
0.082879938 0.07641571 0.43309051
0.083253115 0.076405779 0.43301824
0.083627909 0.076397404 0.43295485
0.083988532 0.07637623 0.43281871
0.084379651 0.076382861 0.43284014
0.084753528 0.076373868 0.43277311
0.085134834 0.07637164 0.43274423
0.085502945 0.07635764 0.43264866
0.085822456 0.076300569 0.43230897
0.086197622 0.07629326 0.43225119
0.086541839 0.076258734 0.43203917
0.086927675 0.076261029 0.43203574
0.087276146 0.076230675 0.43184721
0.087646887 0.076219946 0.43176994
0.088037789 0.076226763 0.43179193
0.088382423 0.076193646 0.4315877
0.088729173 0.076162614 0.43139526
0.089097284 0.076150119 0.4313077
0.089437835 0.076114275 0.43108791
0.089814 0.07610891 0.4310407
0.090211235 0.07612136 0.43109438
0.090552785 0.076086938 0.43088248
0.090928115 0.076081045 0.43083221
0.091269471 0.076046906 0.43062186
0.091641441 0.076038457 0.43055695
0.092009015 0.076026455 0.43047184
0.09235274 0.075994894 0.43027607
0.092752673 0.076009676 0.43034256
0.093100883 0.075982124 0.43016931
0.093434066 0.075942583 0.42992818
0.093812048 0.075939626 0.42989418
0.09417735 0.075926468 0.4298023
0.094530977 0.075904034 0.42965794
0.094913304 0.075904749 0.42964453
0.095268883 0.075884141 0.42951038
0.09564437 0.075879492 0.42946655
0.095998563 0.075858057 0.42932767
0.09632954 0.075818516 0.42908627
0.096697323 0.075808145 0.42900994
0.097058937 0.075793035 0.42890674
0.097392403 0.07575614 0.42868027
0.097748116 0.075736776 0.42855293
0.098153725 0.075756073 0.42864433
0.098539837 0.07576023 0.42864999
0.098867685 0.075719744 0.42840302
0.099323593 0.075777262 0.42871049
0.099715635 0.075785801 0.42874077
0.10571979 0.075450055 0.42653108
0.10606954 0.075429149 0.42639422
0.10639067 0.075388074 0.4261435
0.10675748 0.07537958 0.42607677
0.10710028 0.075354233 0.42591482
0.10743894 0.07532616 0.42573747
0.1078328 0.075336851 0.42577913
0.10817312 0.0753102 0.42560974
0.10855258 0.075310901 0.42559484
0.10889797 0.075288013 0.42544672
0.10924903 0.075269192 0.42532152
0.10961564 0.075261191 0.42525741
0.10996053 0.075238392 0.42510965
0.11024443 0.075174138 0.42472768
0.11063176 0.075180635 0.42474541
0.110989 0.075166687 0.4246476
0.11136776 0.075167358 0.42463243
0.11173862 0.075162739 0.42458719
0.11209667 0.075149521 0.42449346
0.11242677 0.075117745 0.42429486
0.11275128 0.075082444 0.42407638
0.11313316 0.075085469 0.42407432
0.11352251 0.075093403 0.42409995
0.11386213 0.075068504 0.42394009
0.11418157 0.075030513 0.42370629
0.11452542 0.075008743 0.42356414
0.11490579 0.07501097 0.42355746
0.11527032 0.075002871 0.42349237
0.11564953 0.075004354 0.4234814
0.11606375 0.075028442 0.42359808
0.082509615 0.076812558 0.43316349
0.082894608 0.076813422 0.43315244
0.083258912 0.076795183 0.43303367
0.083649144 0.076800935 0.43305007
0.084012799 0.076782331 0.43292913
0.084400691 0.076785944 0.43293342
0.084765531 0.076768652 0.43281975
0.085178807 0.076795183 0.43295315
0.085532829 0.076768287 0.43278527
0.085855544 0.076713666 0.43246102
0.086210705 0.076688401 0.43230224
0.086571679 0.076668493 0.43217364
0.086951122 0.076665044 0.43213776
0.087315537 0.076648436 0.43202767
0.087685987 0.076637253 0.4319481
0.088056669 0.076626368 0.43187016
0.088419333 0.076608628 0.43175352
0.088815421 0.076619871 0.43180019
0.089156486 0.076583765 0.43157995
0.089547783 0.076590918 0.43160352
0.089843117 0.076516278 0.43116611
0.090219721 0.076511197 0.43112063
0.090612456 0.076519787 0.43115211
0.090969399 0.07649821 0.43101355
0.091293834 0.07644958 0.43072256
0.091674879 0.076448567 0.43069983
0.092031293 0.07642711 0.43056187
0.092422515 0.07643462 0.43058699
0.092795633 0.076427147 0.43052775
0.093117513 0.07637772 0.43023208
0.093479007 0.07636103 0.43012086
0.093849249 0.07635162 0.43005055
0.09421102 0.076335408 0.42994189
0.094559841 0.076308876 0.42977509
0.094956338 0.076320894 0.42982528
0.095287904 0.076280825 0.42958215
0.095671788 0.076282792 0.42957574
0.096034952 0.076268278 0.42947647
0.096390128 0.076247565 0.42934221
0.096780106 0.076254442 0.42936328
0.09709502 0.076202348 0.42905229
0.097468585 0.076196507 0.42900175
0.09785153 0.076198034 0.42899251
0.098183021 0.076159619 0.42875847
0.09857066 0.076164894 0.42877033
0.098951675 0.076165013 0.42875317
0.09932743 0.076161116 0.42871329
0.10576509 0.075861834 0.42670056
0.10608301 0.075817943 0.42643508
0.10643064 0.075795524 0.42629036
0.10681768 0.075801216 0.42630377
0.10715308 0.075770371 0.42611164
0.10750439 0.07575094 0.42598364
0.10785571 0.07573165 0.42585647
0.10824917 0.075741991 0.42589584
0.10857987 0.075708479 0.42568865
0.10895203 0.075704038 0.42564484
0.10928292 0.075671047 0.42544046
0.10967974 0.075683758 0.42549306
0.11002061 0.075657912 0.42532888
0.11035009 0.075624451 0.42512181
0.11072159 0.075619899 0.42507726
0.11106068 0.075593323 0.42490894
0.1113981 0.0755658 0.42473519
0.11180534 0.075585671 0.42482781
0.11213973 0.075556308 0.42464373
0.11250963 0.075550988 0.42459473
0.11286015 0.075532742 0.42447308
0.11318962 0.07550057 0.42427313
0.11354531 0.075486042 0.42417234
0.11387838 0.075456634 0.4239879
0.11427359 0.075468451 0.42403507
0.11462516 0.075451471 0.42392039
0.11494976 0.0754169 0.42370692
0.083296157 0.077213809 0.43321261
0.083661005 0.077195995 0.43309671
0.084039725 0.077191085 0.43305317
0.084439576 0.077205546 0.43311816
0.08480458 0.077188157 0.43300447
0.085185654 0.077185482 0.43297327
0.085555337 0.077172555 0.43288451
0.085918196 0.077153623 0.43276203
0.08626128 0.077117167 0.43254122
0.086631335 0.077105038 0.43245682
0.086990155 0.077083081 0.4323172
0.08736717 0.077077352 0.43226862
0.087718099 0.077048771 0.43209177
0.088075146 0.077025786 0.43194628
0.088437818 0.077007882 0.43182927
0.088833325 0.077018611 0.43187279
0.089181073 0.076988019 0.43168455
0.089556985 0.076981895 0.43163341
0.089912273 0.076958172 0.43148363
0.090279356 0.076944709 0.43139127
0.090633035 0.076919973 0.4312357
0.091000006 0.076906689 0.43114424
0.091385774 0.076909326 0.43114203
0.091716237 0.076865599 0.43087989
0.092099838 0.076866567 0.4308683
0.092439115 0.0768307 0.43065009
0.092813946 0.076824568 0.4305985
0.093188368 0.076818131 0.43054527
0.093547031 0.076798812 0.43041971
0.09394297 0.076810129 0.43046585
0.094292551 0.076783597 0.43029985
0.094623797 0.076742418 0.43005165
0.094975375 0.076717995 0.4298974
0.095359728 0.076720141 0.42989191
0.095691636 0.076680228 0.42965081
0.096076697 0.076683067 0.42964917
0.09643738 0.076666497 0.42953873
0.09676519 0.076624028 0.4292832
0.097131051 0.076611906 0.42919761
0.097507522 0.076608218 0.42915925
0.097915366 0.076629102 0.4292585
0.098242931 0.076587237 0.42900619
0.098570496 0.076545715 0.42875576
0.098973513 0.076562867 0.42883399
0.099349171 0.076558799 0.42879334
0.099722788 0.076553211 0.42874405
0.1054824 0.076311186 0.42709702
0.10581649 0.076278321 0.42689458
0.10611852 0.076222666 0.42656448
0.10648227 0.076211587 0.4264839
0.10683893 0.076195516 0.42637533
0.10720617 0.076187074 0.42630944
0.1075451 0.076158643 0.42613173
0.1079011 0.076142482 0.42602253
0.10829373 0.076152176 0.42605802
0.1086474 0.076134488 0.4259403
0.10896001 0.076088257 0.42566288
0.10931952 0.076074988 0.42556983
0.10968966 0.076069191 0.42551848
0.11004997 0.076056629 0.42542934
0.1104162 0.07604824 0.42536348
0.11078297 0.07604026 0.42529991
0.11111046 0.076005474 0.42508641
0.11144832 0.075977996 0.42491373
0.11181635 0.075971201 0.42485669
0.1121624 0.075949579 0.42471671
0.11252341 0.07593818 0.42463392
0.1129217 0.075951934 0.42469171
0.11320968 0.075891659 0.42433554
0.11359262 0.075895227 0.42433634
0.11398514 0.075905152 0.42437264
0.11431478 0.075873271 0.4241752
0.11468456 0.075868152 0.42412734
0.083660051 0.077579282 0.43307698
0.084074982 0.077607773 0.43322
0.084453061 0.077602163 0.43317258
0.084820986 0.077587292 0.43307346
0.085204862 0.077587098 0.43305615
0.085571311 0.077571094 0.43295062
0.085959852 0.07757517 0.43295708
0.086304896 0.077540137 0.43274525
0.086653918 0.077508964 0.4325549
0.087044612 0.077515185 0.43257317
0.087398827 0.077489004 0.43241066
0.087773755 0.077481337 0.43235132
0.088137157 0.077463605 0.43223581
0.088474274 0.077423029 0.43199277
0.088839993 0.077407718 0.4318907
0.089225866 0.077410027 0.43188688
0.089578696 0.077383764 0.43172359
0.089950666 0.077374198 0.43165341
0.090308756 0.077352822 0.4315173
0.090676203 0.07733959 0.43142667
0.091023177 0.077309109 0.43123966
0.091403641 0.077307187 0.43121198
0.091760054 0.077285044 0.43107137
0.092127815 0.077272587 0.43098482
0.092487842 0.077253766 0.43086278
0.09287253 0.077255622 0.43085599
0.093202852 0.077212416 0.43059787
0.093593895 0.07721968 0.43062109
0.09396562 0.077211007 0.43055546
0.094311006 0.077180833 0.43036988
0.094673328 0.077164717 0.43026263
0.095055588 0.077164918 0.43024629
0.095371947 0.077111833 0.42993289
0.095756784 0.077114314 0.42992923
0.096136406 0.077112585 0.42990211
0.096443035 0.077052556 0.42954987
0.09682849 0.077055737 0.42954999
0.097205929 0.077052534 0.4295145
0.097569406 0.07703834 0.42941764
0.097938448 0.077028617 0.4293457
0.098285995 0.077002138 0.42918035
0.098655067 0.076992661 0.42910972
0.098988228 0.076955341 0.42888388
0.09938582 0.076968201 0.42893764
0.099747933 0.076953597 0.42883831
0.10014668 0.076967254 0.42889649
0.10525057 0.076798849 0.42770287
0.1055052 0.076707549 0.42717591
0.10583472 0.076671153 0.42695469
0.10616529 0.07663577 0.42673913
0.10651933 0.076617524 0.42661893
0.10686376 0.07659252 0.42646113
0.10725046 0.076597877 0.42647225
0.10757226 0.076557018 0.42622608
0.10798226 0.076578975 0.42632967
0.10832021 0.07654988 0.42614895
0.10867757 0.076534644 0.42604539
0.10899051 0.076488353 0.42576888
0.10943519 0.07653451 0.426007
0.10974351 0.076485313 0.42571428
0.11008772 0.076461375 0.4255622
0.1104641 0.07645987 0.4255349
0.11078639 0.076421067 0.42530003
0.11117038 0.076424941 0.42530265
0.11154044 0.076419249 0.42525196
0.11187589 0.076389961 0.42506999
0.11224484 0.076383665 0.4250159
0.11260612 0.076372214 0.42493311
0.11293197 0.07633689 0.42471746
0.11328979 0.07632333 0.42462295
0.11366867 0.076324008 0.42460755
0.11407924 0.076345891 0.42471015
0.084468156 0.078000382 0.43323514
0.084852524 0.078000493 0.4332197
0.085239969 0.078003421 0.43321976
0.085620008 0.077999584 0.43318221
0.085957378 0.077957079 0.43292987
0.086324118 0.077941477 0.43282691
0.086696133 0.077930741 0.43275097
0.087061979 0.077914581 0.43264481
0.087435849 0.077905722 0.43257913
0.087800622 0.077888861 0.43246901
0.088200524 0.077903174 0.43253195
0.08855845 0.07788045 0.43238917
0.088906661 0.077849418 0.43220019
0.089262694 0.077825464 0.43205053
0.089636497 0.077817149 0.43198761
0.089970775 0.077774733 0.4317354
0.090356141 0.077776656 0.43172923
0.090689525 0.077734008 0.43147558
0.091095619 0.077753775 0.43156838
0.091453344 0.077732272 0.43143204
0.09180861 0.077708848 0.43128505
0.092175797 0.077695683 0.43119496
0.092514679 0.077658854 0.43097344
0.092888787 0.077651784 0.43091708
0.093249775 0.077633858 0.43080041
0.093604907 0.077611208 0.43065748
0.093973897 0.077600196 0.4305791
0.094338007 0.077585243 0.43047884
0.094736628 0.077598691 0.43053609
0.095108666 0.077590346 0.43047237
0.095424533 0.077536412 0.43015575
0.095798813 0.077530205 0.43010378
0.096166693 0.077518873 0.43002343
0.096502073 0.077481538 0.42979872
0.096872687 0.077472672 0.42973199
0.097257182 0.077474929 0.42972687
0.09758354 0.077431053 0.42946583
0.097974554 0.077438615 0.42949003
0.098309904 0.077402286 0.42927077
0.098691396 0.077402435 0.42925382
0.099070601 0.077400789 0.42922685
0.099389769 0.077352434 0.4289408
0.099822007 0.077392109 0.42914289
0.10015282 0.077353142 0.42890888
0.10053817 0.077356435 0.42890918
0.100959 0.077386901 0.42906004
0.10134012 0.077386811 0.42904148
0.10175408 0.077411711 0.42916137
0.10460015 0.077260427 0.42817655
0.10490196 0.077202439 0.42783672
0.10528361 0.077203408 0.42782363
0.10560504 0.077160373 0.42756665
0.10591577 0.077109851 0.42726818
0.10620149 0.077041544 0.42687118
0.10659564 0.077052109 0.42691118
0.1069243 0.077015422 0.42668927
0.1072657 0.076988146 0.42651954
0.10766658 0.077003583 0.42658642
0.10802845 0.076991133 0.42649874
0.10837015 0.076964431 0.42633212
0.10872792 0.076949298 0.42622951
0.10909484 0.076940715 0.42616317
0.10946484 0.076934353 0.42610916
0.10977085 0.076883219 0.42580712
0.11017062 0.076897882 0.42586944
0.11051186 0.076871738 0.42570576
0.11087003 0.076857507 0.42560804
0.11120354 0.076826327 0.42541644
0.11156626 0.076815479 0.42533737
0.11191911 0.07679791 0.42522115
0.11228449 0.076789044 0.42515302
0.11264587 0.076777518 0.42507014
0.11301593 0.07677196 0.42502028
0.11332493 0.076725081 0.42474169
0.085254967 0.07840158 0.43328112
0.085619584 0.078383543 0.43316525
0.086000644 0.078380644 0.43313298
0.086352676 0.078351438 0.43295529
0.086735651 0.07835044 0.43293342
0.0870841 0.078318402 0.43274
0.087465309 0.078315981 0.43271014
0.087832354 0.078300938 0.43261057
0.088202499 0.078288801 0.43252695
0.088560224 0.078265786 0.43238318
0.088960186 0.078280121 0.43244573
0.089304216 0.078245334 0.43223688
0.089661315 0.07822226 0.43209264
0.090024568 0.078204714 0.43197894
0.0903797 0.078180283 0.43182722
0.09074384 0.07816384 0.43171951
0.091135196 0.078170858 0.43174136
0.091481127 0.078139029 0.43154863
0.091862239 0.078137383 0.43152252
0.092228144 0.078122869 0.43142533
0.092579819 0.078096487 0.43126252
0.092944242 0.078081019 0.43115997
0.09332139 0.078076318 0.43111682
0.093673632 0.078050904 0.43095931
0.094066925 0.078059778 0.43099102
0.094371878 0.077995561 0.43061915
0.094770409 0.078008883 0.43067536
0.095112137 0.077975526 0.4304738
0.095496118 0.077976942 0.43046424
0.095864996 0.077966072 0.43038672
0.09622594 0.077948853 0.43027413
0.096562587 0.077912159 0.43005407
0.096905902 0.07788112 0.42986518
0.097284898 0.077878892 0.42983523
0.097653732 0.077868573 0.42976063
0.098001823 0.077841863 0.4295955
0.098373689 0.077834159 0.42953524
0.098749906 0.077829957 0.42949426
0.099075317 0.077785894 0.42923328
0.099471942 0.07779786 0.42928144
0.099815086 0.07776808 0.42909917
0.10019854 0.077769794 0.42909074
0.1005587 0.077753499 0.42898285
0.10092977 0.077745721 0.42892191
0.10133585 0.077764884 0.42900956
0.10170425 0.077755079 0.42893738
0.1021005 0.07776656 0.42898259
0.10250065 0.077780925 0.42904365
0.10286157 0.077765509 0.42894036
0.10320452 0.077736683 0.42876312
0.10350753 0.077678099 0.42842174
0.10386254 0.077658825 0.4282971
0.10419875 0.07762567 0.42809594
0.10458245 0.077628024 0.42809048
0.10492606 0.077600695 0.42792141
0.10530389 0.077598795 0.42789245
0.10558669 0.077527113 0.42747879
0.10592325 0.077495292 0.42728481
0.10626879 0.07747025 0.4271282
0.10666187 0.077479914 0.42716295
0.10700796 0.077455483 0.42700967
0.10732012 0.077406764 0.42672247
0.10770168 0.077408262 0.4267121
0.10805337 0.077388361 0.42658371
0.10843931 0.077393048 0.42659086
0.10878646 0.077370115 0.42644569
0.10914716 0.077356942 0.42635432
0.10952177 0.077353671 0.42631748
0.10982575 0.07730072 0.42600682
0.11019796 0.077295996 0.42596194
0.11057276 0.077293113 0.42592716
0.11086959 0.077235922 0.42559314
0.1112479 0.077235691 0.42557293
0.11160576 0.077221327 0.42547482
0.11196977 0.077211283 0.42540053
0.11235206 0.077213883 0.42539582
0.1127272 0.077211566 0.42536399
0.1130661 0.077184513 0.42519593
0.086392045 0.078771524 0.43313777
0.086778104 0.078773163 0.4331305
0.087140374 0.078753278 0.4330048
0.087484941 0.078717656 0.43279245
0.087860011 0.078709662 0.43273202
0.088224679 0.078692466 0.43262094
0.088610396 0.078694105 0.4326134
0.088964045 0.078667372 0.43244979
0.089341685 0.078661986 0.43240353
0.089716926 0.078654565 0.43234599
0.090074107 0.078631416 0.43220198
0.090448894 0.078623779 0.43214318
0.090794072 0.078590587 0.43194386
0.09114483 0.078562468 0.43177244
0.091527902 0.078562334 0.43175474
0.091896616 0.078549914 0.4316695
0.092248112 0.07852295 0.43150428
0.092616566 0.078510568 0.43141919
0.092992574 0.078504682 0.43136972
0.093356691 0.078488842 0.43126547
0.093698606 0.078454539 0.43105981
0.094086379 0.078458764 0.43106577
0.094430983 0.078427091 0.43087447
0.094794177 0.07841105 0.430769
0.095182978 0.078416236 0.43078011
0.095527276 0.078384869 0.43059039
0.095921628 0.078394651 0.43062669
0.096250206 0.07835082 0.43036839
0.096609212 0.078332007 0.43024752
0.096969321 0.078314237 0.43013233
0.097312167 0.078282699 0.42994153
0.097660199 0.078255594 0.42977497
0.098070808 0.078278624 0.42988375
0.098433048 0.078263007 0.4297803
0.09878324 0.078237996 0.42962515
0.099154964 0.078230157 0.42956427
0.099500284 0.078201622 0.42938974
0.099857338 0.078182489 0.42926681
0.10022943 0.078175232 0.42920902
0.10059915 0.078166194 0.42914146
0.10097086 0.078158759 0.42908263
0.10132066 0.078134485 0.42893133
0.10170367 0.0781359 0.42892101
0.1020906 0.078140311 0.42892712
0.10246947 0.078138545 0.42889923
0.10280517 0.078103989 0.42869142
0.10316772 0.078090012 0.42859647
0.10354645 0.078088343 0.42856902
0.10387428 0.078048438 0.42833173
0.10423183 0.078031078 0.42821807
0.104606 0.078026228 0.42817315
0.10496888 0.07801304 0.42808238
0.10529105 0.077969797 0.42782667
0.10563493 0.077942871 0.42766047
0.10593571 0.077884451 0.42732149
0.10633414 0.077898003 0.42737731
0.10668477 0.077876553 0.42724112
0.10704908 0.077865213 0.42716029
0.10736442 0.077818461 0.42688519
0.10775311 0.077824995 0.42690244
0.10812932 0.077822514 0.42687017
0.10849983 0.077815957 0.42681548
0.10883178 0.077781901 0.42660996
0.10917231 0.077754192 0.4264392
0.109538 0.077744514 0.42636737
0.10986698 0.077708937 0.42615348
0.11028011 0.077732936 0.42626622
0.11060595 0.077695444 0.42604178
0.11096679 0.077682711 0.42595306
0.11130022 0.077650927 0.42575988
0.11169298 0.07766062 0.42579412
0.11212233 0.077695623 0.42596704
0.087149762 0.079146087 0.4330366
0.087545626 0.079156622 0.43307781
0.087895587 0.079125747 0.43289238
0.088265762 0.079113267 0.43280759
0.088648066 0.079111703 0.43278247
0.0890278 0.079107881 0.43274492
0.089399591 0.079097062 0.43266907
0.089732759 0.079052307 0.43240753
0.090092458 0.079031199 0.43227535
0.090493001 0.079045959 0.43233928
0.0908342 0.079008967 0.43212008
0.091191091 0.078985885 0.431977
0.09155412 0.078968279 0.43186375
0.091955431 0.078983709 0.43193114
0.092273749 0.078928024 0.43160963
0.092659831 0.07893052 0.4316062
0.093043312 0.078930795 0.43159056
0.093379691 0.078891255 0.43135723
0.093762748 0.078891337 0.43134046
0.094143219 0.078889228 0.4313117
0.094493508 0.078861952 0.43114528
0.094852403 0.078842059 0.43101919
0.095219381 0.07882902 0.43093055
0.095597826 0.078825526 0.43089405
0.095923863 0.078779019 0.4306224
0.096327826 0.078796633 0.43070117
0.096664131 0.078758977 0.43047783
0.097029462 0.078745179 0.43038481
0.097391076 0.078728475 0.43027595
0.097753324 0.078712426 0.43017057
0.09807121 0.078660905 0.42987135
0.098479547 0.078682058 0.42996919
0.098839834 0.078664802 0.42985713
0.099190541 0.078640088 0.42970428
0.099557959 0.078628764 0.42962453
0.099929772 0.07862097 0.42956412
0.10027773 0.078594558 0.42940184
0.10063627 0.078576587 0.42928573
0.1009886 0.078553937 0.42914402
0.10135981 0.078546092 0.42908311
0.10170936 0.078521557 0.42893106
0.1020861 0.078518145 0.42889428
0.10244645 0.078502193 0.42878899
0.10280716 0.078486636 0.42868584
0.10319127 0.078488976 0.42868045
0.10354721 0.078469962 0.42855835
0.10391128 0.078457214 0.42847049
0.10427871 0.078447104 0.42839697
0.10466418 0.078450583 0.4283976
0.10496921 0.078393951 0.42806998
0.10529846 0.078355774 0.42784306
0.10568968 0.078363791 0.42786846
0.10598546 0.078301251 0.42750853
0.10637889 0.078311056 0.42754355
0.10673124 0.078290649 0.42741361
0.10708885 0.078274228 0.42730543
0.10745405 0.078263454 0.427228
0.10779924 0.078238226 0.42707169
0.10814223 0.078211583 0.4269076
0.10851334 0.078205414 0.42685524
0.1088581 0.078180343 0.42669967
0.10923078 0.07817544 0.42665416
0.10959435 0.078164056 0.42657328
0.10995296 0.078149237 0.42647365
0.11029994 0.078126274 0.42632949
0.11062776 0.078089967 0.42611247
0.11171847 0.078057393 0.42587811
0.087908454 0.079521596 0.4329409
0.088278718 0.079509087 0.43285623
0.088637151 0.079486072 0.43271434
0.089045987 0.079508252 0.43281853
0.08940658 0.079487346 0.43268809
