# .PCD v0.7 - Point Cloud Data file format
VERSION 0.7
FIELDS x y z
SIZE 4 4 4
TYPE F F F
COUNT 1 1 1
WIDTH 1341
HEIGHT 1
VIEWPOINT 0 0 0 1 0 0 0
POINTS 1341
DATA ascii
0.078720897 -0.081101686 0.42093432
0.079089232 -0.081096515 0.42089257
0.079426698 -0.081059866 0.42068747
0.079802983 -0.08106301 0.42068881
0.080141433 -0.081027873 0.4204914
0.080518164 -0.081031568 0.42049551
0.080874108 -0.081014417 0.42039138
0.081216469 -0.080983877 0.42021775
0.08161635 -0.081010714 0.42034173
0.081932284 -0.080954351 0.42003402
0.082309775 -0.080959052 0.42004308
0.082673147 -0.080949888 0.4199802
0.083035424 -0.080939732 0.41991207
0.083369158 -0.080901973 0.41970071
0.083709463 -0.080870889 0.41952398
0.084084183 -0.080873191 0.41952035
0.084439933 -0.080857292 0.4194223
0.084810011 -0.080855206 0.41939583
0.085170254 -0.080843799 0.41932097
0.085511781 -0.080814794 0.41915482
0.085860752 -0.080793053 0.41902629
0.086231068 -0.080791503 0.41900241
0.086596631 -0.080785528 0.41895556
0.086950257 -0.080768511 0.41885138
0.087313719 -0.08076074 0.41879514
0.087637186 -0.080716193 0.41854814
0.087987386 -0.080696546 0.41843021
0.088373393 -0.080709755 0.41848263
0.088707238 -0.080675423 0.4182885
0.089080043 -0.08067666 0.41827875
0.089435518 -0.080662258 0.41818783
0.089825891 -0.080679312 0.41826004
0.090194874 -0.080677092 0.41823223
0.090592727 -0.080700621 0.41833785
0.095051892 -0.080386735 0.41649517
0.095427766 -0.080391571 0.4165034
0.095808387 -0.080400363 0.41653201
0.096166529 -0.080390297 0.41646293
0.096530743 -0.080385357 0.41642037
0.096836664 -0.080332108 0.41612747
0.097227968 -0.080349825 0.41620219
0.097572878 -0.080329202 0.41607827
0.097937368 -0.080324799 0.41603836
0.098313399 -0.080329858 0.41604739
0.098703049 -0.080345966 0.41611359
0.09906657 -0.080340743 0.41606936
0.099475764 -0.08037249 0.41621643
0.061757825 -0.081500873 0.42562249
0.062112186 -0.081471264 0.42545557
0.062473316 -0.081450835 0.42533648
0.062842309 -0.081440844 0.42527184
0.063215457 -0.081436329 0.42523572
0.063581139 -0.081422292 0.42514989
0.063917764 -0.081371441 0.42487174
0.064300522 -0.08137957 0.42490146
0.064657547 -0.081355214 0.42476159
0.065030232 -0.081350729 0.42472538
0.065384798 -0.081323765 0.42457175
0.065754496 -0.08131583 0.42451736
0.066114023 -0.081295468 0.42439809
0.066471756 -0.081273146 0.42426851
0.066839308 -0.081263021 0.42420256
0.067215383 -0.081263304 0.42419088
0.06757132 -0.081239372 0.42405275
0.06793341 -0.081223056 0.42395431
0.068281986 -0.081190839 0.42377287
0.068650514 -0.081182584 0.4237164
0.069020718 -0.0811764 0.42367065
0.069390044 -0.081169233 0.42361978
0.069752231 -0.081153847 0.4235259
0.07010708 -0.081130132 0.42338854
0.070456885 -0.081100874 0.42322218
0.070831835 -0.081100695 0.42320758
0.071175367 -0.081064761 0.42300627
0.071552344 -0.08106707 0.42300451
0.071910366 -0.081048004 0.42289114
0.072257936 -0.081017405 0.42271757
0.072655022 -0.081042357 0.42283377
0.072983287 -0.08099068 0.42255011
0.073343337 -0.080974638 0.42245233
0.073719665 -0.08097662 0.42244855
0.074065663 -0.080945447 0.42227173
0.074438684 -0.08094395 0.42224967
0.074793093 -0.08092235 0.42212269
0.075144202 -0.080897406 0.42197824
0.075507984 -0.080886275 0.42190579
0.075869143 -0.080872476 0.42181933
0.076229341 -0.080857791 0.42172822
0.07658302 -0.080836363 0.42160189
0.076954693 -0.080834031 0.42157513
0.077293895 -0.080797784 0.42137146
0.077677727 -0.080808319 0.42141169
0.078024015 -0.080779888 0.42124864
0.078380622 -0.080762357 0.42114243
0.078744106 -0.080752037 0.42107373
0.07911925 -0.080753714 0.4210676
0.079452708 -0.080713026 0.42084047
0.079816736 -0.080703638 0.42077652
0.080177128 -0.080690674 0.4206939
0.080524869 -0.080665164 0.42054576
0.080887921 -0.080655135 0.42047837
0.081241004 -0.080635324 0.42035985
0.081611305 -0.080632694 0.42033088
0.081984051 -0.080632485 0.42031452
0.082336038 -0.080611959 0.42019221
0.082681403 -0.080585182 0.42003721
0.083046526 -0.080577791 0.41998324
0.0833975 -0.080556802 0.41985837
0.083744757 -0.080532432 0.41971585
0.084091686 -0.080507956 0.41957271
0.08445397 -0.080498345 0.41950703
0.084835395 -0.080506966 0.41953629
0.085178234 -0.080479056 0.41937512
0.085533731 -0.080463305 0.41927728
0.08590816 -0.080465414 0.41927248
0.086265691 -0.080451764 0.41918549
0.086610094 -0.080426022 0.41903549
0.086984172 -0.080427937 0.41902953
0.087327935 -0.080401935 0.41887805
0.087702058 -0.080403984 0.41887271
0.088048309 -0.080380559 0.41873464
0.088384613 -0.080348298 0.41855046
0.08874926 -0.080341965 0.41850135
0.089085698 -0.080310248 0.41831994
0.089479677 -0.080330461 0.41840896
0.089869902 -0.080347136 0.41847959
0.090260237 -0.080363788 0.41854995
0.095402204 -0.079999939 0.41640604
0.095803939 -0.080026411 0.41652688
0.096191518 -0.080040902 0.41658533
0.096539997 -0.080022857 0.41647443
0.096878521 -0.079996742 0.41632149
0.097242899 -0.079992086 0.41628018
0.097590938 -0.079974078 0.41616935
0.097952209 -0.079967007 0.4161154
0.098320946 -0.079966061 0.41609332
0.098697312 -0.079971313 0.41610339
0.099066228 -0.079970494 0.41608191
0.099450178 -0.079981796 0.41612336
0.061427165 -0.081185043 0.42597196
0.061751723 -0.081115864 0.42559671
0.0621414 -0.081132546 0.42567188
0.06249069 -0.081096627 0.42547098
0.062857077 -0.081083179 0.42538795
0.063225009 -0.081071883 0.42531615
0.063594945 -0.081063263 0.4252584
0.063963011 -0.081052378 0.4251886
0.064316213 -0.081022896 0.42502126
0.064674504 -0.081000119 0.42488903
0.065053903 -0.081003897 0.42489603
0.065415449 -0.080985539 0.42478684
0.065767549 -0.080955751 0.42461765
0.066152602 -0.080966629 0.42466173
0.066498868 -0.080930188 0.42445755
0.0668668 -0.080920368 0.42439294
0.06722457 -0.080898449 0.42426476
0.06759394 -0.080890626 0.42421055
0.067947611 -0.080864221 0.42405877
0.068310007 -0.080848441 0.42396268
0.06867189 -0.080832206 0.42386416
0.069045328 -0.080829695 0.42383754
0.069397666 -0.080802634 0.42368209
0.069771342 -0.080800578 0.42365777
0.070115007 -0.080763966 0.4234522
0.070494294 -0.080768563 0.42346263
0.070849836 -0.080746047 0.42333087
0.071214862 -0.080734521 0.42325667
0.07157556 -0.080718242 0.42315745
0.071928799 -0.080693759 0.42301521
0.072295427 -0.080684461 0.42295253
0.072660334 -0.080673344 0.42288029
0.073003881 -0.080638781 0.422685
0.073388524 -0.080649704 0.42272815
0.073731795 -0.08061529 0.4225336
0.074108049 -0.080617085 0.42252883
0.074455664 -0.080587894 0.42236152
0.074832678 -0.080590636 0.42236161
0.075192459 -0.0805749 0.4222647
0.075551219 -0.080558203 0.42216283
0.075884476 -0.080514625 0.42192
0.076259896 -0.080515988 0.42191264
0.076617382 -0.080498509 0.42180642
0.076989271 -0.080496244 0.42177996
0.077333964 -0.080465704 0.42160523
0.077681169 -0.080438063 0.42144567
0.078055784 -0.080438942 0.42143548
0.078399457 -0.080408067 0.4212589
0.078771956 -0.080406897 0.42123792
0.079132259 -0.080393359 0.42115203
0.07952141 -0.08040911 0.42121962
0.079858698 -0.08037252 0.42101291
0.080215134 -0.080355458 0.42090845
0.080583587 -0.080350548 0.42086756
0.080931909 -0.080325678 0.42072213
0.081262164 -0.080283187 0.42048436
0.081637189 -0.080285132 0.42047927
0.081986457 -0.080261827 0.42034191
0.082355887 -0.080258392 0.42030856
0.082722791 -0.080252536 0.42026246
0.083067015 -0.080224812 0.42010188
0.083440349 -0.080225334 0.42008907
0.083793066 -0.080206126 0.41997293
0.084164642 -0.080205046 0.41995168
0.08448533 -0.080155693 0.41967764
0.084858708 -0.080156557 0.41966647
0.08520741 -0.080134191 0.41953367
0.085568346 -0.080123484 0.41946182
0.085897677 -0.0800834 0.41923615
0.086306378 -0.080117345 0.41939801
0.086631358 -0.08007361 0.41915309
0.086996831 -0.080067523 0.41910529
0.08735466 -0.080054469 0.41902095
0.087721996 -0.0800502 0.4189826
0.088090114 -0.080046684 0.41894811
0.088424742 -0.080012903 0.41875514
0.088785067 -0.080002546 0.41868478
0.089140974 -0.079988316 0.41859415
0.089543171 -0.080015562 0.41872045
0.089959696 -0.080055341 0.41891229
0.095506996 -0.079717301 0.4168776
0.095812552 -0.079663336 0.41657847
0.096211232 -0.079686925 0.41668481
0.096564882 -0.079673178 0.41659588
0.096927568 -0.079666957 0.41654629
0.097263977 -0.079639271 0.41638446
0.097626179 -0.079632841 0.41633368
0.097961426 -0.079604544 0.41616857
0.098351337 -0.079620712 0.41623589
0.098705918 -0.079608276 0.41615364
0.09907978 -0.079611421 0.41615281
0.099450327 -0.079611883 0.41613787
0.099834897 -0.079623528 0.41618139
0.061032131 -0.080784172 0.42587608
0.06142332 -0.080802701 0.42596149
0.061791889 -0.080791414 0.42588967
0.062167477 -0.080789395 0.42586666
0.062501423 -0.080733605 0.42556018
0.062866971 -0.080719069 0.42547107
0.063241467 -0.080716111 0.42544293
0.063614264 -0.080711052 0.42540362
0.063976742 -0.080693021 0.42529592
0.064344138 -0.080681376 0.42522183
0.064697228 -0.080652021 0.42505434
0.06507007 -0.080647483 0.4250176
0.065440595 -0.080640152 0.42496607
0.065793633 -0.080611482 0.42480201
0.066156358 -0.080594935 0.42470175
0.066524453 -0.080585077 0.42463675
0.066891864 -0.080574505 0.42456794
0.06724894 -0.080551669 0.42443442
0.067607768 -0.08053118 0.42431319
0.067973241 -0.080518782 0.42423463
0.068336882 -0.080504365 0.42414525
0.068699293 -0.080488659 0.42404914
0.069056764 -0.080467366 0.42392346
0.069425836 -0.080459766 0.42386988
0.069782458 -0.080437884 0.42374098
0.070140474 -0.080417827 0.42362174
0.070531793 -0.080435969 0.42370358
0.070853688 -0.080375165 0.42336959
0.071220621 -0.080365814 0.42330652
0.071597144 -0.080367342 0.42330068
0.071955696 -0.080348767 0.42318895
0.072320856 -0.080337733 0.42311689
0.072668187 -0.080307119 0.42294163
0.073033951 -0.080297075 0.42287463
0.073395021 -0.080281988 0.42278111
0.073755123 -0.080266006 0.42268273
0.074102946 -0.080236897 0.42251521
0.074500918 -0.08026211 0.42263368
0.074826159 -0.080209091 0.42234021
0.075203113 -0.080211774 0.42233992
0.075567111 -0.080200687 0.42226705
0.075918585 -0.080176458 0.42212507
0.076288335 -0.080171689 0.42208537
0.076663159 -0.080172263 0.42207378
0.076992162 -0.080125153 0.42181113
0.077334709 -0.080092497 0.42162457
0.077719316 -0.080103531 0.42166787
0.078083456 -0.080093466 0.4216001
0.078437999 -0.080073699 0.42148116
0.078808531 -0.080070369 0.42144874
0.079158112 -0.080045864 0.42130482
0.079506382 -0.080020279 0.42115518
0.079852737 -0.079993024 0.42099667
0.080241062 -0.080007851 0.42105961
0.080606706 -0.080000035 0.42100337
0.080971353 -0.079991326 0.42094228
0.081320986 -0.079967909 0.42080384
0.081673227 -0.07994727 0.42067993
0.082022361 -0.079923794 0.42054105
0.082365401 -0.079894602 0.42037207
0.082748964 -0.079904817 0.42041036
0.083100326 -0.079883978 0.42028528
0.083452642 -0.079864241 0.42016593
0.083808199 -0.07984776 0.42006367
0.084175512 -0.079842582 0.42002079
0.084531203 -0.079826474 0.41992038
0.084867552 -0.079792328 0.41972503
0.085238032 -0.079790421 0.41969925
0.085594349 -0.079775326 0.41960406
0.085971244 -0.079779476 0.41960999
0.086337224 -0.079773486 0.41956261
0.086657703 -0.079725683 0.41929528
0.087025285 -0.079721443 0.41925701
0.087392785 -0.079717182 0.41921854
0.087742619 -0.079696894 0.41909578
0.088100448 -0.079683997 0.41901189
0.088460602 -0.07967332 0.41893956
0.088812426 -0.079655245 0.41882837
0.089208066 -0.079676479 0.41892377
0.089541435 -0.079642124 0.41872689
0.089975029 -0.079696842 0.41899821
0.095835499 -0.079312079 0.41669238
0.096220337 -0.079324059 0.41673833
0.096600227 -0.079331905 0.41676244
0.096950606 -0.079315528 0.41665936
0.097331449 -0.079324111 0.41668734
0.097653262 -0.079284705 0.41646314
0.098000154 -0.079265878 0.41634706
0.098357037 -0.079255253 0.41627401
0.098713368 -0.079244256 0.41619897
0.099073969 -0.079236746 0.41614226
0.099453747 -0.079244584 0.41616607
0.099845052 -0.079261512 0.41623759
0.10020011 -0.079249643 0.41615784
0.060699187 -0.080465548 0.42621452
0.061062936 -0.080447584 0.42610717
0.061447117 -0.080456592 0.4261426
0.061819118 -0.080449648 0.42609352
0.062167529 -0.080412261 0.42588311
0.062541053 -0.080407627 0.4258461
0.062886767 -0.080367491 0.42562109
0.063262403 -0.080365852 0.42559981
0.063623689 -0.080346115 0.42548269
0.063984595 -0.080326118 0.42536411
0.064364463 -0.080330022 0.42537206
0.064723842 -0.080308475 0.42524511
0.065079004 -0.080281958 0.42509189
0.065463372 -0.080291569 0.42512989
0.065821052 -0.080268547 0.42499498
0.066190436 -0.080259956 0.42493644
0.066538498 -0.080225751 0.42474225
0.066892736 -0.080199346 0.42458934
0.067267604 -0.080197826 0.42456806
0.067629568 -0.080181025 0.42446586
0.068011105 -0.080187477 0.4244867
0.068353161 -0.080147564 0.42426205
0.068736039 -0.0801557 0.4242917
0.069071978 -0.080109298 0.42403257
0.069447152 -0.08010868 0.42401573
0.069803119 -0.080086008 0.42388213
0.070186347 -0.080094688 0.42391443
0.070533715 -0.080062576 0.42373076
0.070895448 -0.080047026 0.42363471
0.071267791 -0.080043547 0.42360249
0.071617953 -0.080015332 0.42343923
0.071973942 -0.079993889 0.42331183
0.072366215 -0.080012783 0.42339787
0.072687775 -0.079953693 0.42307109
0.073070548 -0.079962194 0.42310202
0.073419482 -0.07993377 0.42293748
0.073796488 -0.079936042 0.42293531
0.074125931 -0.07988704 0.42266175
0.074500337 -0.079886727 0.42264581
0.074851654 -0.079861782 0.42249951
0.075227439 -0.079863086 0.42249194
0.075593345 -0.079853915 0.422429
0.075954363 -0.079839699 0.42233929
0.076321073 -0.079831578 0.42228177
0.07667166 -0.07980676 0.42213586
0.077023089 -0.079783052 0.42199579
0.077400424 -0.079786278 0.42199811
0.07775452 -0.079765625 0.42187411
0.078120105 -0.079756908 0.42181316
0.078469269 -0.079731576 0.42166436
0.078831293 -0.079719506 0.42158556
0.079179347 -0.079693474 0.42143294
0.07954751 -0.079687841 0.42138812
0.07989303 -0.079659685 0.42122415
0.080247447 -0.079640612 0.42110822
0.080627978 -0.079647504 0.42112952
0.080979027 -0.079625353 0.42099717
0.081360906 -0.079633594 0.42102545
0.081700936 -0.07960096 0.42083761
0.082067542 -0.079594411 0.42078763
0.08240559 -0.079560339 0.4205921
0.082765713 -0.079547808 0.42051038
0.083121784 -0.079531491 0.42040867
0.083475009 -0.079512626 0.42029336
0.083821617 -0.079487652 0.42014575
0.084192015 -0.079485357 0.42011797
0.0845652 -0.079485692 0.42010406
0.084899053 -0.079449229 0.41989562
0.085250758 -0.079429701 0.41977665
0.085628077 -0.079434112 0.41978416
0.085975952 -0.079411291 0.41964766
0.086338192 -0.079401888 0.41958204
0.086708769 -0.079400174 0.41955706
0.08706329 -0.07938385 0.41945481
0.087403893 -0.079355016 0.41928643
0.087794624 -0.079371765 0.41935879
0.088129856 -0.079338394 0.41916636
0.0884993 -0.079335973 0.41913739
0.088849388 -0.079316311 0.41901726
0.089270376 -0.079359822 0.41923091
0.089610428 -0.079331324 0.41906399
0.095835164 -0.07894145 0.41670495
0.096222483 -0.078955412 0.41676167
0.096594684 -0.078956917 0.41675255
0.096983768 -0.078972161 0.41681585
0.097335197 -0.078956738 0.41671732
0.097681239 -0.078937091 0.41659641
0.098042004 -0.078929439 0.41653877
0.098380938 -0.078904331 0.41638905
0.098753199 -0.078906037 0.41638076
0.099090479 -0.078879893 0.41622543
0.099469528 -0.078887053 0.41624591
0.099833161 -0.078881986 0.41620177
0.10021868 -0.078894198 0.41624871
0.10059614 -0.078899987 0.41626182
0.10098242 -0.078912631 0.41631097
0.060339931 -0.080112159 0.42637086
0.06074851 -0.080153167 0.42657694
0.061092716 -0.080109268 0.42633107
0.061467197 -0.080105357 0.42629796
0.061841778 -0.080101617 0.42626575
0.062188238 -0.080061719 0.42604101
0.062552162 -0.080044664 0.42593777
0.062933378 -0.080049783 0.42595255
0.063290156 -0.080023967 0.42580256
0.063634276 -0.079982512 0.42556939
0.064012721 -0.079984464 0.42556706
0.064373441 -0.079964362 0.42544734
0.064739324 -0.079950884 0.4253628
0.065103345 -0.07993526 0.42526677
0.06548132 -0.079936862 0.42526239
0.06583479 -0.079908684 0.42509952
0.066214114 -0.079912022 0.42510426
0.066569343 -0.079886429 0.42495495
0.066918604 -0.079853989 0.42476925
0.067297518 -0.079857104 0.42477259
0.067660511 -0.079841398 0.42467576
0.068020217 -0.079822004 0.42455927
0.068394125 -0.079819404 0.42453206
0.068737589 -0.079781488 0.42431691
0.069103166 -0.079769515 0.42423975
0.06945809 -0.079745434 0.42409813
0.06983345 -0.079744957 0.42408195
0.070184879 -0.079717293 0.42392114
0.070557445 -0.079713807 0.42388892
0.07091397 -0.079692334 0.42376092
0.071286812 -0.079689331 0.42373112
0.07164 -0.079664491 0.42358515
0.072002016 -0.079649687 0.42349246
0.072370254 -0.079641871 0.42343691
0.072722338 -0.07961645 0.42328769
0.073065013 -0.079581037 0.42308536
0.073444217 -0.079585597 0.42309538
0.073803164 -0.079568245 0.42298892
0.07416974 -0.079559267 0.4229269
0.074535705 -0.079549715 0.42286181
0.074892655 -0.079530679 0.42274627
0.075263381 -0.079526402 0.42270914
0.075622588 -0.079510055 0.42260772
0.075991608 -0.079504125 0.42256168
0.076316692 -0.079452515 0.42227277
0.076703019 -0.07946486 0.42232373
0.07705687 -0.079443604 0.42219609
0.077416748 -0.079428732 0.4221023
0.077778235 -0.079415642 0.42201796
0.078130126 -0.07939294 0.42188245
0.078495331 -0.079383902 0.42181957
0.078849368 -0.079363719 0.42169735
0.079217002 -0.079357348 0.4216485
0.079567946 -0.079334386 0.42151147
0.079910412 -0.079303227 0.42133087
0.08028356 -0.079302676 0.42131275
0.0806472 -0.079292759 0.42124492
0.0809884 -0.07926099 0.42106089
0.081363261 -0.079262294 0.42105252
0.081714444 -0.079240635 0.42092216
0.082077116 -0.079230264 0.42085165
0.08246246 -0.079241753 0.42089728
0.08279939 -0.079206839 0.42069635
0.083139911 -0.079175651 0.42051521
0.083510704 -0.079173446 0.42048791
0.083877981 -0.079167955 0.42044309
0.084238403 -0.079156049 0.42036423
0.084583119 -0.079129569 0.42020789
0.08495371 -0.079127416 0.42018071
0.08530844 -0.079110563 0.42007542
0.085630916 -0.079064079 0.41981274
0.086026952 -0.079085633 0.4199113
0.086370595 -0.079059035 0.41975415
0.086715408 -0.079033732 0.41960379
0.087087616 -0.079033509 0.41958657
0.087422572 -0.078999616 0.41939062
0.087811612 -0.079014689 0.41945449
0.088153727 -0.078987576 0.41929445
0.088534482 -0.078995176 0.41931859
0.088863172 -0.07895644 0.41909674
0.089288257 -0.079003334 0.41932932
0.095962465 -0.078675464 0.41727248
0.096279785 -0.078631788 0.41702384
0.096656501 -0.078636788 0.41703323
0.097017899 -0.07862933 0.41697651
0.097368561 -0.078613251 0.41687408
0.097737841 -0.078612283 0.41685173
0.098062158 -0.078575283 0.41663828
0.098424219 -0.078568697 0.41658607
0.098780081 -0.078557231 0.41650793
0.099115834 -0.078529917 0.41634578
0.099508971 -0.078548096 0.41642478
0.09985058 -0.07852561 0.41628814
0.1002165 -0.078522354 0.41625342
0.10059809 -0.078531347 0.41628361
0.10097295 -0.07853505 0.41628563
0.10135797 -0.078546576 0.41632923
0.10173734 -0.078553669 0.41634917
0.059334591 -0.079905823 0.42733878
0.059671294 -0.07985016 0.42702907
0.060020503 -0.079811811 0.42681199
0.060400613 -0.079814784 0.42681575
0.060753748 -0.079782285 0.42662978
0.061117753 -0.079764389 0.42652184
0.061479442 -0.079743698 0.42639893
0.061860364 -0.079748057 0.42640984
0.062208865 -0.079710834 0.42619836
0.062582359 -0.079705857 0.42615932
0.062951148 -0.079695009 0.42608881
0.06332732 -0.079693571 0.42606851
0.063662402 -0.079640746 0.42577344
0.064054623 -0.079659604 0.42586154
0.064386427 -0.079603545 0.42554906
0.064764582 -0.07960511 0.42554459
0.065121979 -0.079581283 0.42540437
0.065492146 -0.079573259 0.42534849
0.065853983 -0.079555251 0.42523921
0.066230714 -0.079555325 0.4252266
0.066577882 -0.079520121 0.42502522
0.066950031 -0.079514951 0.42498443
0.067310594 -0.079496175 0.42487085
0.067675143 -0.07948228 0.42478326
0.068032049 -0.079459623 0.42464882
0.068402737 -0.079453208 0.42460117
0.068763353 -0.079435229 0.42449161
0.069144584 -0.079441138 0.42450964
0.069488071 -0.07940384 0.42429677
0.06986843 -0.079408869 0.42430997
0.070208184 -0.079367921 0.42407751
0.070575193 -0.079358056 0.42401108
0.07092417 -0.079328142 0.42383739
0.071307942 -0.079337247 0.42387223
0.071663037 -0.079314522 0.42373684
0.072025515 -0.07930015 0.42364612
0.072404951 -0.079304501 0.42365536
0.072749682 -0.079270996 0.42346227
0.07311596 -0.079261199 0.42339581
0.073461853 -0.079229519 0.42321238
0.073834628 -0.079226986 0.42318463
0.074187636 -0.079203382 0.42304426
0.074555635 -0.079195946 0.42299017
0.074902408 -0.079166137 0.42281657
0.07529176 -0.079181418 0.42288375
0.075648077 -0.079161972 0.4227654
0.075979866 -0.079117171 0.42251161
0.076380879 -0.079144545 0.42264318
0.076723211 -0.079111136 0.4224501
0.077081993 -0.079094939 0.42234892
0.077442884 -0.079081044 0.42225996
0.077785023 -0.079048224 0.42206991
0.078137405 -0.079026096 0.42193687
0.078520954 -0.079035528 0.42197233
0.078884125 -0.079024464 0.42189828
0.07923536 -0.079001606 0.42176124
0.079601511 -0.07899376 0.42170429
0.079951733 -0.078970253 0.42156368
0.080309413 -0.078954302 0.42146337
0.080669679 -0.078941025 0.4213773
0.081023328 -0.078921422 0.42125741
0.081385367 -0.078910135 0.42118186
0.081738882 -0.078890733 0.42106289
0.082083158 -0.078862622 0.42089748
0.082466356 -0.07887198 0.42093199
0.082818478 -0.078851677 0.42080817
0.083186224 -0.078846365 0.42076424
0.083532982 -0.078821294 0.42061487
0.083911344 -0.078826144 0.42062506
0.084235191 -0.078779951 0.42036295
0.084627688 -0.078798085 0.42044398
0.08497142 -0.078770876 0.42028296
0.085333779 -0.078761064 0.42021483
0.085658386 -0.078716658 0.41996208
0.086064212 -0.07874696 0.42010775
0.086411223 -0.078723408 0.41996619
0.086748794 -0.07869149 0.41977993
0.087115571 -0.078686222 0.41973582
0.087471232 -0.078671023 0.41963857
0.087832741 -0.078661181 0.41956991
0.08818116 -0.078639731 0.41943941
0.088536926 -0.078625001 0.41934457
0.088940986 -0.078653097 0.41947818
0.089238547 -0.078587174 0.41911027
0.090175144 -0.078755185 0.41997349
0.096024476 -0.078355215 0.41755608
0.096312754 -0.078287959 0.41718057
0.096712887 -0.078311786 0.41729045
0.097070381 -0.078301035 0.41721597
0.097413607 -0.078278899 0.41708082
0.09776786 -0.078265764 0.41699359
0.098097868 -0.078233391 0.41680384
0.098471045 -0.078235559 0.41679806
0.098799005 -0.07820192 0.41660151
0.099134609 -0.078174554 0.41643834
0.099517539 -0.078184575 0.41647434
0.099870369 -0.07817097 0.41638437
0.10024527 -0.078174666 0.41638663
0.10059761 -0.0781608 0.41629523
0.10097019 -0.078162722 0.4162879
0.10135636 -0.078175098 0.41633621
0.10171441 -0.07816577 0.41626894
0.059341941 -0.079537302 0.42740783
0.059658036 -0.079454385 0.42695025
0.060039755 -0.079459362 0.42696494
0.060406532 -0.079444617 0.42687359
0.060767882 -0.079422973 0.42674509
0.061129458 -0.079401888 0.42661953
0.061498512 -0.079390705 0.42654714
0.061866648 -0.079378493 0.42646918
0.062223841 -0.079352461 0.42631686
0.062608503 -0.079361565 0.42635328
0.06297116 -0.079342835 0.42624009
0.063330881 -0.079320647 0.42610833
0.063689023 -0.079296775 0.42596737
0.064077921 -0.079311222 0.42603225
0.064435862 -0.079287417 0.42589158
0.064785942 -0.07925427 0.42570072
0.065148376 -0.079236545 0.42559257
0.065508612 -0.079216361 0.42547119
0.065870263 -0.0791981 0.42536008
0.066238888 -0.079188377 0.42529482
0.066622742 -0.079196878 0.4253273
0.066986896 -0.079181992 0.42523417
0.067334101 -0.079147354 0.42503488
0.067682736 -0.07911478 0.42484662
0.068060219 -0.079116076 0.42484024
0.06841515 -0.079091311 0.42469379
0.068786122 -0.079085246 0.42464778
0.069171257 -0.079095446 0.42468897
0.06951423 -0.079057582 0.42447203
0.069889955 -0.079057164 0.42445618
0.07024353 -0.07903184 0.42430648
0.070591219 -0.07900019 0.42412284
0.070964351 -0.07899721 0.42409298
0.071310557 -0.078964435 0.42390314
0.071686499 -0.078964762 0.42389095
0.072049923 -0.078951374 0.42380512
0.072432429 -0.078958906 0.42383152
0.072768822 -0.078916363 0.42358908
0.073147923 -0.078920335 0.42359626
0.073474422 -0.078867801 0.42330006
0.073844604 -0.078862458 0.42325711
0.074220426 -0.078863151 0.42324653
0.074568056 -0.078834027 0.42307588
0.074939214 -0.078829966 0.42303967
0.075296521 -0.078811422 0.42292571
0.075668141 -0.078807995 0.42289272
0.07602483 -0.078789108 0.42277682
0.076372713 -0.078761324 0.42261311
0.076759987 -0.078774236 0.42266774
0.077110462 -0.078749441 0.42251995
0.07744576 -0.078709476 0.42229074
0.077818781 -0.07870803 0.42226815
0.078154869 -0.078669429 0.42204621
0.078563333 -0.078703701 0.4222151
0.078910619 -0.078676648 0.42205504
0.079234302 -0.078626417 0.42177057
0.079627275 -0.07864511 0.42185572
0.079975612 -0.078619748 0.42170453
0.080330849 -0.078601368 0.42159075
0.080711409 -0.078607827 0.42161018
0.081054136 -0.078577548 0.42143247
0.081416205 -0.078566194 0.42135629
0.081777655 -0.07855437 0.42127746
0.082147017 -0.078550212 0.42123973
0.082493201 -0.078524023 0.42108387
0.082858421 -0.078516103 0.42102587
0.083198316 -0.078484371 0.42084017
0.083568357 -0.07848125 0.42080775
0.083934382 -0.078474373 0.42075524
0.084278859 -0.078447513 0.42059553
0.084655426 -0.07845062 0.42059642
0.085015357 -0.078438364 0.42051488
0.085365526 -0.078417234 0.42038581
0.085708201 -0.078389429 0.42022085
0.086070396 -0.078379661 0.42015254
0.086422622 -0.078360923 0.42003614
0.08678887 -0.078355014 0.41998839
0.087153561 -0.078347743 0.41993338
0.08749751 -0.078321986 0.41977918
0.087878875 -0.078329772 0.41980478
0.08820761 -0.07829079 0.41957965
0.088572159 -0.078283779 0.41952589
0.088987149 -0.078321233 0.41971031
0.090181798 -0.078387998 0.42001882
0.09605702 -0.078010559 0.41771156
0.096361451 -0.07795658 0.4174054
0.096752398 -0.07797274 0.41747478
0.097107261 -0.077959813 0.41738835
0.097429305 -0.077920727 0.41716185
0.097756088 -0.077885717 0.41695717
0.098153487 -0.077907018 0.41705394
0.09850952 -0.077895463 0.41697466
0.098863944 -0.077882715 0.41688907
0.099168591 -0.077831 0.41659486
0.099540398 -0.07783217 0.41658369
0.099889591 -0.077815726 0.41647819
0.1002574 -0.077813849 0.41645062
0.10062241 -0.077809818 0.41641149
0.10098046 -0.077800453 0.41634384
0.1013574 -0.077805653 0.41635406
0.10175123 -0.077823736 0.41643316
0.058972735 -0.079171166 0.42750219
0.059326854 -0.079138756 0.42731521
0.059682749 -0.079109117 0.42714316
0.060053658 -0.07909961 0.42707977
0.060427804 -0.079094477 0.42703989
0.060787417 -0.079070494 0.42689821
0.06115802 -0.079061016 0.42683479
0.061518628 -0.079038821 0.42670259
0.061882634 -0.07902123 0.42659524
0.062248293 -0.079005942 0.42650029
0.062614538 -0.078991584 0.42641026
0.062966377 -0.078959338 0.42622361
0.063357435 -0.078976348 0.42630282
0.063714862 -0.078951493 0.42615595
0.064075477 -0.078930855 0.4260318
0.064450264 -0.078927808 0.42600256
0.064796753 -0.078890361 0.42578754
0.065177768 -0.078895114 0.42580029
0.065539658 -0.078876801 0.42568851
0.065894909 -0.078850769 0.42553493
0.066255659 -0.078831553 0.42541814
0.066625617 -0.07882347 0.42536137
0.067001618 -0.078822568 0.42534328
0.067355737 -0.078796081 0.42518708
0.067726336 -0.078789063 0.42513585
0.068084717 -0.078767993 0.42500874
0.068431638 -0.078733958 0.42481172
0.068804011 -0.078729413 0.42477369
0.069177665 -0.078726396 0.4247438
0.069540873 -0.078711562 0.42465016
0.069888197 -0.078679033 0.42446101
0.070276052 -0.078692213 0.42451841
0.070610993 -0.078646325 0.42425704
0.070972539 -0.078630403 0.42415732
0.071353674 -0.078636229 0.42417488
0.071702488 -0.078606568 0.42400089
0.072062783 -0.07858973 0.42389604
0.072443023 -0.078594707 0.42390883
0.072800241 -0.078574777 0.42378727
0.073166773 -0.078565054 0.42372063
0.073499404 -0.078519225 0.42345926
0.073865987 -0.078509942 0.42339489
0.074251354 -0.078520603 0.4234381
0.074581429 -0.078473002 0.42316699
0.074980885 -0.078498505 0.42329007
0.075327694 -0.078468904 0.42311597
0.075676896 -0.078442074 0.42295679
0.07606519 -0.078455843 0.4230164
0.076415546 -0.078430519 0.42286524
0.076778643 -0.078418463 0.42278552
0.077137955 -0.078402691 0.42268571
0.077492863 -0.078382596 0.42256263
0.077830605 -0.078345418 0.42234731
0.078211278 -0.078351617 0.42236581
0.078555889 -0.078321792 0.42219013
0.078945406 -0.078336798 0.42225602
0.079286277 -0.078303628 0.42206216
0.079643652 -0.078287005 0.42195743
0.080026954 -0.078295887 0.42199016
0.080362633 -0.078258313 0.42177245
0.080742374 -0.078263797 0.42178676
0.081088766 -0.078237064 0.42162734
0.081431471 -0.078207023 0.42145014
0.081795976 -0.078198098 0.42138663
0.0821729 -0.07820107 0.4213872
0.082517408 -0.078173317 0.42122218
0.082865223 -0.078148924 0.4210752
0.083236076 -0.078146368 0.42104584
0.083585821 -0.078124121 0.42091033
0.08393757 -0.078103937 0.42078587
0.084305272 -0.078098699 0.42074198
0.084668912 -0.078089774 0.42067808
0.085047208 -0.078094371 0.42068705
0.085383937 -0.078060925 0.42049104
0.085763246 -0.078066535 0.42050532
0.086108863 -0.078041576 0.42035487
0.08645305 -0.078015506 0.4201985
0.086803734 -0.077995524 0.42007479
0.0871628 -0.077983208 0.41999236
0.087520488 -0.077969752 0.41990378
0.087863751 -0.077943631 0.41974694
0.08825174 -0.077957228 0.41980395
0.088613041 -0.077947244 0.41973388
0.08901608 -0.077973902 0.41986111
0.089388251 -0.07797341 0.41984209
0.089792125 -0.078000449 0.41997129
0.090239435 -0.078064851 0.42030159
0.096091025 -0.077666834 0.41787332
0.09639214 -0.077610336 0.4175522
0.096769132 -0.077615127 0.41756082
0.097090177 -0.077575192 0.41732875
0.097462341 -0.077576242 0.41731712
0.097822055 -0.077567406 0.4172523
0.098171182 -0.077550285 0.41714284
0.098517172 -0.077530816 0.41702077
0.098866068 -0.077513762 0.41691169
0.09920352 -0.077487916 0.41675523
0.099581741 -0.077493981 0.41677037
0.099907704 -0.077459477 0.41656733
0.1002774 -0.077459015 0.4165473
0.10064249 -0.077454999 0.41650814
0.10100207 -0.077446811 0.41644648
0.10136508 -0.077441283 0.41639915
0.10173532 -0.077441305 0.4163816
0.10211593 -0.077449188 0.41640624
0.10251632 -0.077471979 0.41651103
0.10290133 -0.077482998 0.41655248
0.058954645 -0.078768507 0.427387
0.059337389 -0.078774408 0.42740706
0.059720509 -0.078780733 0.42742935
0.060075376 -0.078749955 0.42725021
0.060434509 -0.0787251 0.42710322
0.060804047 -0.078714028 0.42703092
0.061170951 -0.078699701 0.42694095
0.061540917 -0.078689471 0.42687309
0.061903294 -0.078669719 0.42675352
0.062267035 -0.07865192 0.42664453
0.062633745 -0.078638062 0.42655686
0.06299787 -0.078621157 0.42645255
0.063358143 -0.078599669 0.42632338
0.063735604 -0.078599624 0.42631042
0.064087577 -0.078568347 0.426128
0.064449757 -0.078549854 0.42601493
0.064818181 -0.07853917 0.42594406
0.065198578 -0.078543007 0.42595193
0.065564573 -0.078529559 0.42586601
0.06591624 -0.078499198 0.42568827
0.066295668 -0.078502059 0.42569071
0.066636287 -0.078459188 0.42544505
0.067037694 -0.078487977 0.42558789
0.067380421 -0.078448109 0.42535847
0.067752786 -0.078443006 0.42531741
0.068107359 -0.07841748 0.42516559
0.068459913 -0.07838992 0.42500272
0.068832248 -0.078385182 0.4249635
0.069208585 -0.078385033 0.42494911
0.069557026 -0.078353465 0.42476431
0.069936112 -0.078356549 0.4247674
0.07029447 -0.078336529 0.42464507
0.07067275 -0.078338794 0.42464349
0.0710098 -0.078295566 0.42439532
0.071354315 -0.078260988 0.42419401
0.071718074 -0.078247756 0.42410833
0.072095729 -0.078249745 0.42410514
0.07244347 -0.078219436 0.42392677
0.072810657 -0.078210302 0.42386314
0.073192403 -0.078216843 0.42388436
0.073544361 -0.078191631 0.42373347
0.073907167 -0.078178145 0.42364612
0.074261785 -0.078156188 0.42351279
0.074640937 -0.078160144 0.42351979
0.074988119 -0.078130737 0.42334604
0.075354487 -0.078121521 0.42328155
0.075713642 -0.07810495 0.42317721
0.076079436 -0.078095369 0.42311069
0.076428644 -0.078068934 0.42295277
0.076782085 -0.078047045 0.4228195
0.077162474 -0.07805264 0.42283505
0.077513792 -0.078028925 0.4226917
0.077873766 -0.078014091 0.42259648
0.078235753 -0.07800141 0.42251295
0.078602545 -0.077993624 0.42245576
0.078954473 -0.077971227 0.42231947
0.079332925 -0.077975109 0.42232537
0.079677269 -0.077945605 0.4221504
0.080041446 -0.077935651 0.42208138
0.080388717 -0.07790944 0.4219242
0.080749489 -0.077896476 0.4218387
0.081094474 -0.077868484 0.42167178
0.081478328 -0.077877894 0.42170733
0.081838518 -0.077864699 0.42162052
0.082191177 -0.077844501 0.42149565
0.082550995 -0.077831224 0.42140827
0.082929909 -0.077835992 0.42141852
0.083263405 -0.077798285 0.42119876
0.083603874 -0.077767394 0.42101586
0.083974279 -0.077764511 0.42098454
0.08434286 -0.077759959 0.42094415
0.084692113 -0.077737719 0.42080793
0.085040048 -0.077714458 0.42066616
0.085394159 -0.077697009 0.42055586
0.085769422 -0.077698894 0.42055011
0.086102292 -0.077662505 0.42033723
0.08647453 -0.077661805 0.42031738
0.086836271 -0.077651717 0.42024669
0.087199427 -0.077642962 0.42018324
0.087553948 -0.077626631 0.42007869
0.087915443 -0.077616602 0.42000821
0.088267028 -0.077597953 0.41989103
0.08864174 -0.077599697 0.41988415
0.08902967 -0.077612936 0.41993952
0.08940161 -0.077612199 0.41991913
0.089791983 -0.077627406 0.41998494
0.09019465 -0.077653058 0.42010725
0.09614151 -0.077336095 0.41810668
0.096417263 -0.077259392 0.41767487
0.096795656 -0.077265203 0.41768906
0.097152397 -0.077253766 0.41760996
0.097481295 -0.077220343 0.41741201
0.097851768 -0.077219985 0.41739276
0.098202944 -0.077204458 0.41729149
0.09854196 -0.077179529 0.41713938
0.098924823 -0.077189006 0.41717312
0.099281386 -0.077177957 0.41709596
0.099629693 -0.077160597 0.41698465
0.099967964 -0.077135615 0.41683212
0.10032554 -0.077125661 0.4167608
0.10066073 -0.077098638 0.41659719
0.1010184 -0.077088974 0.4165273
0.10139808 -0.077096105 0.41654819
0.10175802 -0.077088229 0.41648793
0.10213222 -0.07709118 0.41648614
0.10250678 -0.077094369 0.41648564
0.1029255 -0.077130638 0.41666374
0.10324837 -0.077095069 0.41645378
0.058277071 -0.078496575 0.42800704
0.058606144 -0.078430012 0.42763227
0.058990676 -0.078438051 0.42766416
0.059361793 -0.078428254 0.42759874
0.059718039 -0.07839907 0.42742759
0.06009721 -0.07840015 0.42742136
0.060442101 -0.078356773 0.42717272
0.060809031 -0.078342341 0.42708179
0.061186858 -0.078342021 0.42706779
0.061550166 -0.078323245 0.42695305
0.061922945 -0.078316666 0.4269048
0.062288243 -0.078300767 0.42680562
0.062660843 -0.07829418 0.42675716
0.063010328 -0.078258947 0.42655259
0.063385561 -0.078255951 0.42652354
0.063733503 -0.078219488 0.42631209
0.06411089 -0.078219377 0.42629871
0.064474665 -0.078202739 0.4261952
0.064842828 -0.078191593 0.42612159
0.065195665 -0.078162208 0.4259485
0.065571077 -0.07816007 0.42592379
0.065933742 -0.078142844 0.42581683
0.066315718 -0.078148581 0.42583498
0.066682324 -0.078136235 0.42575452
0.067044429 -0.078118771 0.42564613
0.067393214 -0.078086093 0.42545471
0.067762546 -0.078077428 0.42539418
0.06811697 -0.078051798 0.42524105
0.068485908 -0.078042969 0.42517951
0.068863474 -0.078044027 0.42517173
0.069212273 -0.078012638 0.42498711
0.069590382 -0.078014456 0.42498338
0.0699469 -0.077992178 0.42484829
0.070307627 -0.077974804 0.42473987
0.070675597 -0.077965602 0.42467594
0.071051009 -0.077964671 0.42465696
0.071391672 -0.077925801 0.42443135
0.071743928 -0.077899933 0.42427647
0.072123118 -0.077903442 0.42428154
0.072485916 -0.077889279 0.42419031
0.072838083 -0.077863917 0.42403799
0.073215432 -0.077865586 0.4240329
0.073582858 -0.077856727 0.42397043
0.073928244 -0.077824779 0.42378208
0.074283063 -0.077803031 0.42364928
0.074648067 -0.077792086 0.42357528
0.075005047 -0.077772968 0.4234567
0.075374573 -0.077766955 0.42340946
0.075738259 -0.077755019 0.42332989
0.076108992 -0.077750392 0.42329007
0.076447546 -0.077713102 0.4230724
0.076828681 -0.077719249 0.42309108
0.077185936 -0.0777013 0.42297858
0.077551678 -0.077692024 0.42291328
0.077889353 -0.077654846 0.42269599
0.078257665 -0.077648439 0.42264616
0.078624845 -0.077640966 0.42259049
0.078981467 -0.077623181 0.42247868
0.079344667 -0.077612005 0.42240271
0.079701751 -0.077594981 0.42229488
0.080053091 -0.077572554 0.42215765
0.08040484 -0.077550702 0.42202353
0.080768988 -0.077540986 0.42195535
0.08113417 -0.077532336 0.42189294
0.081508994 -0.07753294 0.42188081
0.081854865 -0.077506118 0.42171943
0.082225338 -0.077502713 0.42168546
0.082591586 -0.077495404 0.42163011
0.082947299 -0.077478312 0.42152151
0.083276138 -0.07743638 0.42127776
0.083626121 -0.077414393 0.42114249
0.083995506 -0.077410474 0.42110547
0.084349602 -0.077392578 0.42099231
0.084723443 -0.077392869 0.42097807
0.085053787 -0.077353597 0.42074859
0.085435264 -0.077360973 0.42077279
0.08580102 -0.077354103 0.42071947
0.086149864 -0.077332109 0.42058387
0.086526975 -0.077335589 0.42058671
0.086866707 -0.077305749 0.42040837
0.087227695 -0.077295005 0.4203338
0.087572724 -0.077270277 0.42018315
0.087935276 -0.07726115 0.42011732
0.088307075 -0.077260196 0.42009583
0.088664629 -0.07724683 0.42000684
0.08902631 -0.077237159 0.41993791
0.089426771 -0.077261075 0.42005154
0.089800261 -0.077261582 0.42003784
0.090230227 -0.07731048 0.42028713
0.095616825 -0.077140644 0.41911149
0.095919989 -0.07708507 0.41879237
0.096147098 -0.076969028 0.41814476
0.096482888 -0.076940551 0.41797289
0.09682209 -0.076915011 0.41781688
0.097207531 -0.076926239 0.41786066
0.09755329 -0.076906115 0.417734
0.097861901 -0.076856956 0.41744965
0.098205052 -0.076835215 0.41731414
0.098581821 -0.076839805 0.41732171
0.098938666 -0.076828912 0.41724509
0.099309683 -0.076829061 0.41722843
0.099665307 -0.076817334 0.41714725
0.10001246 -0.076799199 0.4170312
0.10032488 -0.076754622 0.41677159
0.10073176 -0.076782376 0.41690463
0.1010573 -0.076748148 0.41670111
0.10141712 -0.076740116 0.4166398
0.10177913 -0.076733798 0.41658777
0.10215036 -0.076734439 0.41657349
0.10252352 -0.076736517 0.41656703
0.10291548 -0.076752603 0.4166365
0.10330612 -0.076767601 0.41670004
0.10410267 -0.07680852 0.41688633
0.058262434 -0.078098066 0.42791545
0.058628175 -0.078080796 0.42780894
0.058995232 -0.078065477 0.42771307
0.05937231 -0.078063533 0.42769039
0.059745379 -0.078056365 0.4276391
0.060114369 -0.078044005 0.42755923
0.06047583 -0.07802207 0.4274269
0.060846061 -0.078011677 0.42735767
0.061212651 -0.077996738 0.42726356
0.061570819 -0.077971347 0.42711207
0.061937734 -0.077957258 0.42702246
0.062303647 -0.077942081 0.42692685
0.0626719 -0.077930018 0.42684817
0.063041598 -0.077919863 0.42677996
0.063394234 -0.077888869 0.42659754
0.063774221 -0.077891655 0.42660007
0.064135976 -0.077872284 0.42648113
0.064509973 -0.07786788 0.4264442
0.064867601 -0.077843904 0.42629999
0.06522686 -0.077822141 0.42616785
0.065600313 -0.077817485 0.42612928
0.065961376 -0.077798247 0.42601088
0.06632676 -0.077784307 0.42592138
0.066702001 -0.077782027 0.42589566
0.067072913 -0.077774733 0.42584243
0.067431599 -0.077753432 0.4257125
0.067778848 -0.077719256 0.42551196
0.068141185 -0.077702641 0.42540759
0.068511814 -0.077695623 0.42535567
0.068877138 -0.077682719 0.42527145
0.069243632 -0.077671252 0.42519504
0.069602117 -0.077650972 0.42507038
0.069959655 -0.077629857 0.42494106
0.07031744 -0.077609248 0.42481446
0.07068938 -0.077604383 0.42477402
0.071071073 -0.077610232 0.42479211
0.07140813 -0.077567518 0.42454439
0.071775615 -0.077558152 0.4244791
0.07212086 -0.07752496 0.42428339
0.072482735 -0.07750991 0.42418689
0.072862454 -0.077513985 0.42419505
0.073226988 -0.077501953 0.42411497
0.073595554 -0.077494279 0.42405868
0.073961534 -0.077483982 0.42398801
0.074305035 -0.077450365 0.42378965
0.074673235 -0.077442683 0.42373317
0.075050004 -0.077443935 0.42372552
0.075393334 -0.077410832 0.42352986
0.075752176 -0.077393889 0.4234226
0.076119207 -0.07738547 0.42336184
0.076505475 -0.077396572 0.42340791
0.076843053 -0.077358566 0.4231852
0.077204376 -0.077344693 0.42309454
0.077564061 -0.077329338 0.42299566
0.077948458 -0.077338636 0.42303163
0.078285612 -0.077301212 0.42281193
0.078646868 -0.077287816 0.42272365
0.079004921 -0.077271417 0.4226189
0.079366945 -0.077259041 0.4225361
0.079727903 -0.07724575 0.42244825
0.080079406 -0.077223457 0.42231113
0.08044292 -0.0772129 0.42223814
0.080817446 -0.077212974 0.42222318
0.081167474 -0.077189736 0.42208079
0.081526659 -0.077175386 0.42198688
0.081882544 -0.077158056 0.42187667
0.082244597 -0.077146672 0.42179891
0.082596585 -0.077125981 0.42167023
0.082958631 -0.077114835 0.4215937
0.083333574 -0.077115722 0.42158285
0.083674632 -0.077085376 0.42140126
0.08405491 -0.077091284 0.4214178
0.084399454 -0.077064499 0.42125562
0.084774844 -0.077065997 0.42124793
0.085107394 -0.077028699 0.4210282
0.085471243 -0.077019945 0.42096439
0.085817486 -0.076995462 0.42081463
0.086184561 -0.0769898 0.42076764
0.086541459 -0.076975137 0.4206714
0.086898617 -0.076960832 0.42057711
0.087251693 -0.07694304 0.42046377
0.087621562 -0.076940157 0.42043176
0.087979302 -0.076926686 0.42034191
0.088325374 -0.076903157 0.42019707
0.088683829 -0.076890573 0.42011201
0.089054145 -0.076888338 0.4200834
0.089442067 -0.076901257 0.42013755
0.089834824 -0.076918207 0.42021364
0.090232313 -0.076939054 0.42031103
0.090680115 -0.077002451 0.42064074
0.095322609 -0.076831214 0.41948619
0.095669702 -0.07681071 0.41935709
0.095882855 -0.076683253 0.41864404
0.096152186 -0.07660152 0.41818067
0.096494094 -0.076578021 0.41803515
0.096874461 -0.076585099 0.41805655
0.097222902 -0.076566994 0.41794041
0.097572736 -0.076550119 0.41783094
0.097907081 -0.076521255 0.41765603
0.098249443 -0.076498851 0.41751635
0.098609112 -0.076490045 0.41745088
0.098948032 -0.076465257 0.41729814
0.099343255 -0.076484017 0.41738299
0.099692464 -0.076467343 0.41727445
0.10004665 -0.07645458 0.41718721
0.10038374 -0.076428913 0.41702953
0.10073631 -0.076415159 0.4169369
0.10111269 -0.07641951 0.41694292
0.10144987 -0.07639432 0.41678774
0.10179075 -0.076372072 0.41664866
0.10216004 -0.07637123 0.41662627
0.10254198 -0.076379821 0.41665533
0.10291164 -0.076379225 0.41663426
0.10328176 -0.076378994 0.41661504
0.10370217 -0.076415792 0.41679791
0.10410763 -0.076441363 0.41691941
0.057943694 -0.077799812 0.42838657
0.058297545 -0.07776612 0.42818925
0.058652066 -0.07773374 0.42799908
0.059035279 -0.077739581 0.42801923
0.059403319 -0.077725478 0.42792961
0.059747089 -0.077679992 0.42766711
0.060141157 -0.077700086 0.42776558
0.060498327 -0.077672526 0.42760167
0.060869459 -0.077663139 0.42753768
0.061226252 -0.077635691 0.42737424
0.061600294 -0.077630296 0.42733219
0.061973289 -0.077623673 0.42728326
0.062322952 -0.077588074 0.42707479
0.062701181 -0.077588268 0.42706326
0.063063115 -0.077568397 0.42694128
0.06342259 -0.077545762 0.42680401
0.063801333 -0.077546813 0.42679703
0.064157017 -0.077519983 0.42663655
0.064527951 -0.077511802 0.42657864
0.06490013 -0.077505179 0.42652926
0.065252222 -0.077474795 0.42634907
0.065613866 -0.077456042 0.42623278
0.065987445 -0.077451497 0.4261947
0.066346198 -0.077429719 0.42606169
0.066729143 -0.077436231 0.42608431
0.067071587 -0.077395968 0.42584947
0.067449167 -0.077396445 0.42583874
0.067804769 -0.077371858 0.42569005
0.068177924 -0.077367455 0.42565238
0.068538718 -0.077349141 0.42553812
0.06889008 -0.077320449 0.42536667
0.069261327 -0.077314273 0.42531902
0.069618143 -0.077292114 0.42518348
0.069986738 -0.077283226 0.42512083
0.070362553 -0.077282354 0.42510226
0.070709042 -0.07724946 0.42490742
0.071086079 -0.077250093 0.42489702
0.07144843 -0.077234857 0.42479923
0.071798198 -0.077206239 0.42462778
0.072171822 -0.077203445 0.42459837
0.072517924 -0.077171393 0.42440793
0.072888143 -0.077165209 0.42435971
0.073256671 -0.077157281 0.42430192
0.073618069 -0.077141993 0.42420352
0.073987007 -0.077134699 0.42414904
0.074343815 -0.07711491 0.42402583
0.074686922 -0.077081166 0.42382586
0.075070679 -0.077089518 0.42385724
0.075415626 -0.077058114 0.42367005
0.075790264 -0.07705722 0.42365044
0.076160409 -0.077051774 0.42360589
0.076506801 -0.077022485 0.42343011
0.076877519 -0.077017851 0.42338985
0.077228628 -0.076993704 0.4232423
0.077598661 -0.076988563 0.42319915
0.077971548 -0.076986305 0.42317179
0.078323565 -0.076963536 0.42303169
0.078661367 -0.076927111 0.42281637
0.079019517 -0.076910801 0.42271173
0.079408698 -0.076924741 0.42277315
0.079761215 -0.076903164 0.42263943
0.080098867 -0.076867558 0.42242846
0.080464944 -0.076859415 0.42236841
0.080826223 -0.076846786 0.42228371
0.081204183 -0.076850049 0.42228627
0.081539743 -0.076813355 0.42206919
0.081914313 -0.076813586 0.42205495
0.082262382 -0.076789051 0.42190465
0.08263173 -0.076784521 0.42186421
0.082993194 -0.076772742 0.42178383
0.083351374 -0.076758049 0.42168739
0.083702035 -0.076736577 0.42155376
0.084050082 -0.076712929 0.42140806
0.084425457 -0.0767143 0.4213998
0.084771715 -0.07668934 0.4212468
0.085121721 -0.076667964 0.42111346
0.08549688 -0.07666932 0.421105
0.085866705 -0.076665923 0.42107031
0.086216636 -0.07664486 0.42093858
0.086558223 -0.076616585 0.42076722
0.0869224 -0.076608472 0.42070651
0.087288491 -0.076602101 0.42065537
0.087645963 -0.076588251 0.42056307
0.088006221 -0.076576948 0.42048475
0.088353463 -0.076554447 0.42034492
0.088724367 -0.076552577 0.42031825
0.089066789 -0.076526232 0.42015719
0.089449055 -0.076534212 0.42018455
0.089837559 -0.076547422 0.42024058
0.090214044 -0.076550335 0.42023998
0.090639949 -0.076594979 0.42046851
0.091055445 -0.076630503 0.42064685
0.09562663 -0.0764037 0.41918206
0.095897384 -0.076322831 0.4187212
0.096180424 -0.076252319 0.41831717
0.096530572 -0.076235361 0.41820687
0.096896775 -0.076231152 0.41816655
0.097267136 -0.076230243 0.41814417
0.097589388 -0.076191776 0.41791582
0.097957402 -0.07618919 0.41788429
0.098286636 -0.076156572 0.41768792
0.098672062 -0.076167576 0.41773087
0.099021278 -0.076150663 0.41762057
0.099344134 -0.076113671 0.41740015
0.099698044 -0.076100662 0.41731125
0.10008364 -0.076111838 0.41735491
0.1004176 -0.076083817 0.41718364
0.10077188 -0.076071329 0.41709751
0.10112479 -0.076057903 0.41700622
0.10147832 -0.076045044 0.41691795
0.10183943 -0.076037951 0.41686127
0.10219604 -0.076027535 0.4167864
0.10255475 -0.076018773 0.41672051
0.10291139 -0.076008536 0.41664651
0.10329182 -0.076015875 0.41666883
0.10368772 -0.076034516 0.41675305
0.057931401 -0.077404208 0.42831153
0.058322977 -0.077420861 0.42839184
0.058674697 -0.077384733 0.42818001
0.059057362 -0.07738962 0.42819509
0.059420362 -0.077368841 0.4280681
0.05977815 -0.077341586 0.42790517
0.060142338 -0.077322893 0.42778963
0.060522143 -0.077324398 0.42778569
0.060880069 -0.077298097 0.42762792
0.061253704 -0.077291928 0.42758152
0.061622828 -0.077280194 0.42750418
0.061980031 -0.077253737 0.42734537
0.062356364 -0.077251315 0.42731941
0.062708281 -0.077218838 0.42712715
0.063091926 -0.077225588 0.42715186
0.063432567 -0.077179939 0.42688665
0.063813016 -0.077182986 0.42689073
0.064174041 -0.077162631 0.42676529
0.064548552 -0.077158622 0.42673028
0.064916685 -0.077147104 0.42665359
0.06527181 -0.077120341 0.42649254
0.065632306 -0.07710018 0.42636803
0.066016324 -0.077107735 0.4263967
0.06638737 -0.077100128 0.42634141
0.066734865 -0.077065431 0.42613629
0.067106321 -0.077058606 0.42608529
0.067449048 -0.077019081 0.42585337
0.067841701 -0.077036664 0.42593721
0.068187833 -0.077001542 0.42572948
0.068560012 -0.076996051 0.42568561
0.068932109 -0.076990522 0.42564145
0.069258399 -0.076934174 0.42531624
0.06963817 -0.076937512 0.42532101
0.070014186 -0.076936699 0.42530274
0.070367098 -0.07691063 0.42514485
0.070736654 -0.076902941 0.42508847
0.071109638 -0.076899029 0.42505294
0.071461491 -0.076872453 0.42489201
0.071825624 -0.076859258 0.42480507
0.072202958 -0.076860286 0.42479664
0.072565347 -0.07684546 0.42470053
0.07290142 -0.076803066 0.42445201
0.073285326 -0.076811239 0.42448294
0.073653735 -0.076803163 0.42442399
0.07401301 -0.076785706 0.4243131
0.074349061 -0.076744445 0.42407072
0.07473813 -0.076758049 0.42413136
0.075100735 -0.076744482 0.42404187
0.075467989 -0.076735765 0.4239791
0.07580591 -0.076697439 0.42375278
0.076149486 -0.076665223 0.42356002
0.076543644 -0.076683968 0.42364889
0.076896757 -0.076661624 0.42351061
0.077247076 -0.076636717 0.42335817
0.077621125 -0.076635487 0.42333648
0.077973813 -0.076613277 0.42319882
0.078349188 -0.076613463 0.42318484
0.078695789 -0.076585628 0.42301604
