# .PCD v0.7 - Point Cloud Data file format
VERSION 0.7
FIELDS x y z
SIZE 4 4 4
TYPE F F F
COUNT 1 1 1
WIDTH 1365
HEIGHT 1
VIEWPOINT 0 0 0 1 0 0 0
POINTS 1365
DATA ascii
-0.13368219 0.055200487 0.46724668
-0.13328405 0.055207405 0.46732715
-0.1327945 0.055176396 0.46708649
-0.13230084 0.055143476 0.46682966
-0.13190258 0.055150222 0.4669086
-0.13141017 0.055117544 0.46665367
-0.13001703 0.055053826 0.46617931
-0.12957752 0.055042882 0.46610823
-0.12912628 0.055026874 0.4659943
-0.12866157 0.05500501 0.46583065
-0.12822616 0.054995567 0.46577221
-0.12682393 0.054925278 0.46524116
-0.12638122 0.05491228 0.46515241
-0.12590976 0.054886665 0.46495673
-0.12547225 0.05487572 0.46488529
-0.12496173 0.054832682 0.46454188
-0.12452746 0.054822918 0.46448031
-0.12407976 0.054807156 0.46436793
-0.12361871 0.054785378 0.46420449
-0.12322557 0.054793656 0.46429566
-0.12282217 0.054797404 0.46434844
-0.12243323 0.054807652 0.46445626
-0.12204818 0.054819729 0.46457955
-0.12164349 0.054823019 0.46462837
-0.099651188 0.053849336 0.45733061
-0.099139899 0.05379153 0.45685798
-0.098757401 0.053803418 0.45697713
-0.098282181 0.053764682 0.45666626
-0.097854875 0.053751938 0.45657611
-0.097402103 0.053725045 0.4563657
-0.096948363 0.053697404 0.4561488
-0.096534126 0.053691491 0.4561165
-0.096103273 0.053676255 0.45600489
-0.095633797 0.053639222 0.45570803
-0.095243268 0.053646352 0.45578632
-0.09481705 0.053633343 0.45569342
-0.094405696 0.053628672 0.45567137
-0.088283956 0.053339712 0.45345509
-0.087870203 0.053331934 0.45340556
-0.08745975 0.053326096 0.45337251
-0.087039948 0.053314477 0.45329022
-0.08663547 0.053312179 0.45328715
-0.086172797 0.05327389 0.45297796
-0.085770056 0.05327246 0.45298213
-0.085312866 0.053237051 0.45269725
-0.084869415 0.053209916 0.45248267
-0.08445859 0.053203076 0.45244059
-0.084042832 0.053193048 0.45237133
-0.083646975 0.053195585 0.45240888
-0.083249345 0.053197011 0.45243692
-0.13374002 0.055639945 0.46743974
-0.13331792 0.055636987 0.46743676
-0.13283433 0.055608284 0.4672175
-0.13238895 0.055595431 0.46713138
-0.1319373 0.055579867 0.46702239
-0.1314878 0.055565115 0.4669202
-0.13103119 0.055547245 0.46679178
-0.13055356 0.055520333 0.46658728
-0.13011125 0.055508316 0.46650797
-0.12964056 0.055484079 0.46632588
-0.12917732 0.055462874 0.46616924
-0.12875696 0.055460013 0.46616673
-0.12828888 0.055436514 0.46599072
-0.12784708 0.055424251 0.46590909
-0.12686788 0.05535778 0.46539313
-0.12643464 0.055348888 0.46533969
-0.12598906 0.055334527 0.46524024
-0.12548646 0.055294938 0.46492863
-0.1250931 0.055303384 0.46502084
-0.12459943 0.05526739 0.46473938
-0.12413886 0.055245895 0.46457973
-0.12368301 0.055226363 0.46443659
-0.12323219 0.055208959 0.46431121
-0.12281754 0.055207688 0.46432152
-0.12243197 0.055219527 0.46444207
-0.12202483 0.055221684 0.46448117
-0.12162413 0.055226792 0.46454501
-0.12124222 0.055240475 0.464681
-0.12084591 0.055247683 0.46476245
-0.099625543 0.05424061 0.45720303
-0.09919481 0.05422635 0.45710108
-0.098757684 0.054208465 0.45696849
-0.098300233 0.054179229 0.45674017
-0.097886845 0.054174144 0.45671538
-0.097440213 0.054150537 0.45653433
-0.096995458 0.054127783 0.45636043
-0.096586153 0.054124694 0.45635232
-0.096136384 0.054098818 0.45615199
-0.095691055 0.054075237 0.45597088
-0.095287681 0.054075263 0.45598882
-0.094862595 0.054062914 0.45590234
-0.094438352 0.054050948 0.45581901
-0.09403228 0.054049321 0.4558228
-0.093645588 0.054058861 0.45592076
-0.093297787 0.054091044 0.4562096
-0.092926577 0.054109868 0.4563857
-0.088340051 0.053775266 0.45373306
-0.087915383 0.053760905 0.45362854
-0.087505043 0.053755224 0.45359713
-0.087094814 0.053749558 0.45356584
-0.086676225 0.05373865 0.45349023
-0.086199149 0.053691223 0.45310634
-0.085789114 0.0536853 0.45307267
-0.085344739 0.053657729 0.45285624
-0.084945403 0.053658348 0.45287761
-0.084490411 0.053623658 0.4526009
-0.084094904 0.05362656 0.45264146
-0.083731033 0.053649768 0.45285332
-0.083379887 0.053681396 0.45313621
-0.13384485 0.056099456 0.46779698
-0.13338336 0.056080054 0.46765712
-0.13296846 0.056080181 0.46768004
-0.1324361 0.056030616 0.46728852
-0.13199587 0.056019843 0.46722046
-0.13154399 0.056004047 0.46711048
-0.13104774 0.055969201 0.46684152
-0.13059625 0.055953309 0.46673065
-0.13013189 0.055931773 0.46657267
-0.12970084 0.055924471 0.46653336
-0.12925111 0.055909052 0.46642631
-0.12878428 0.055886101 0.46625635
-0.12833481 0.055870559 0.4661482
-0.12783639 0.055833548 0.46586084
-0.12742983 0.055836536 0.46590719
-0.12698567 0.055823028 0.46581581
-0.12602885 0.055765431 0.46537781
-0.12556416 0.055742428 0.46520707
-0.12516354 0.055747826 0.46527335
-0.12467339 0.05571324 0.46500584
-0.12421618 0.055693194 0.46485969
-0.12374473 0.055666618 0.46465892
-0.12328075 0.055643231 0.46448472
-0.12284178 0.055631012 0.46440372
-0.1224057 0.055620026 0.46433294
-0.12202431 0.055633906 0.46446973
-0.121602 0.055629149 0.46445093
-0.12121927 0.055642538 0.46458352
-0.12081046 0.055644002 0.46461654
-0.12041176 0.055650152 0.46468869
-0.10071578 0.054798607 0.45843521
-0.099661388 0.054665409 0.45735756
-0.099226981 0.054649096 0.45723933
-0.098803252 0.054638557 0.45716932
-0.098372951 0.054624282 0.457068
-0.097909078 0.054591175 0.45680901
-0.097515441 0.054597117 0.45687678
-0.097066589 0.054572068 0.45668507
-0.096623056 0.054549802 0.45651662
-0.096193232 0.054535124 0.45641166
-0.095748797 0.054512013 0.45623598
-0.095336273 0.054506946 0.45621124
-0.094894029 0.054484773 0.4560433
-0.094452076 0.054462574 0.4558751
-0.094075724 0.054478187 0.45602328
-0.093703516 0.054496333 0.45619267
-0.08792112 0.054166004 0.45364797
-0.087520637 0.054166388 0.45366779
-0.087129429 0.054172553 0.45373589
-0.086688139 0.054147489 0.45354235
-0.086216532 0.054103166 0.45318747
-0.085841641 0.054119408 0.45333984
-0.085396245 0.054091144 0.45311931
-0.084980339 0.05408138 0.45305365
-0.084565379 0.054072123 0.45299223
-0.0841382 0.054054935 0.45286426
-0.083776623 0.054079928 0.45308962
-0.083372526 0.054077588 0.4530859
-0.13342857 0.05651496 0.46780637
-0.13301617 0.056516211 0.46783859
-0.13249536 0.056471277 0.46748841
-0.1321082 0.056483179 0.46760881
-0.13157615 0.056433041 0.46721542
-0.13114119 0.056424335 0.46716508
-0.13066606 0.05639825 0.46697077
-0.13017841 0.056366578 0.46673015
-0.12976182 0.056365557 0.46674332
-0.12927192 0.056332607 0.46649203
-0.12883423 0.056322254 0.4664278
-0.12837063 0.056300476 0.46626893
-0.12792955 0.056288473 0.46619093
-0.12747075 0.056268562 0.46604744
-0.12702934 0.056256231 0.46596664
-0.12658207 0.056241203 0.46586353
-0.12517871 0.056167919 0.4653202
-0.12472335 0.05614876 0.46518266
-0.12426786 0.056129429 0.46504357
-0.12384513 0.056124814 0.46502641
-0.12336427 0.056093726 0.46478987
-0.12289888 0.056069501 0.46461007
-0.12247369 0.056063492 0.46458128
-0.1219839 0.0560278 0.46430635
-0.12160167 0.056041412 0.46444008
-0.12118756 0.056040395 0.46445242
-0.12079278 0.05604833 0.46453896
-0.12038048 0.056048166 0.46455839
-0.11997653 0.056051895 0.46460998
-0.11957727 0.056057848 0.46468002
-0.10112385 0.055206127 0.45841712
-0.10069837 0.055195335 0.45834592
-0.099711955 0.05509863 0.45757949
-0.099242635 0.055062946 0.45730138
-0.098827384 0.05505709 0.45727092
-0.098418318 0.055054642 0.45726874
-0.097993359 0.05504325 0.45719218
-0.097554877 0.055024132 0.4570514
-0.097151943 0.055024993 0.45707649
-0.09665975 0.0549751 0.45667991
-0.096210875 0.054949518 0.45648524
-0.095829062 0.054962195 0.45660827
-0.095364004 0.054927029 0.45633385
-0.094940335 0.054915503 0.4562557
-0.094594732 0.054949228 0.45655346
-0.094191179 0.054949436 0.45657274
-0.093810603 0.054963108 0.45670384
-0.093454622 0.054991372 0.45695612
-0.087547809 0.054584924 0.45379838
-0.08713983 0.054580703 0.45377979
-0.086735018 0.054578438 0.45377737
-0.086315691 0.054566972 0.4536984
-0.085863806 0.054534726 0.45344657
-0.085437767 0.054518666 0.45332929
-0.084990032 0.054488547 0.45309499
-0.084596217 0.054492883 0.45314708
-0.084204815 0.054498821 0.45321253
-0.083811469 0.054503541 0.45326775
-0.13399071 0.056993291 0.46828818
-0.13354254 0.056979481 0.46819663
-0.13307239 0.056956179 0.46802697
-0.13259917 0.056931421 0.46784535
-0.13214003 0.05691256 0.46771213
-0.13169792 0.056900941 0.4676384
-0.13118294 0.056857668 0.46730444
-0.13072185 0.056837544 0.46716073
-0.13025656 0.056815468 0.4670009
-0.12982565 0.056808297 0.46696356
-0.12932591 0.056770857 0.46667737
-0.12887561 0.056754958 0.46656817
-0.12844959 0.056749683 0.4665463
-0.12799555 0.056731954 0.46642193
-0.12749051 0.056691431 0.46611017
-0.12704396 0.056676734 0.46601072
-0.12663193 0.056677405 0.46603754
-0.1252078 0.05659442 0.46541882
-0.12482875 0.056609772 0.46556622
-0.12436718 0.056587689 0.46540573
-0.12392298 0.056573384 0.46530914
-0.12341212 0.056528442 0.46496052
-0.12295808 0.056509316 0.4648242
-0.12251709 0.056496091 0.46473634
-0.12206884 0.056479417 0.46462002
-0.12157606 0.056441944 0.46433261
-0.12118581 0.056451984 0.46443602
-0.12077384 0.056451939 0.46445641
-0.12036844 0.056454979 0.46450216
-0.11998095 0.056466471 0.4646174
-0.11955843 0.056461498 0.46459714
-0.1191574 0.056466669 0.46466032
-0.11874657 0.056467224 0.46468547
-0.1016295 0.055667102 0.45883936
-0.10116428 0.055634648 0.4585903
-0.10066911 0.055585377 0.45820257
-0.10025106 0.055578467 0.45816401
-0.099808142 0.055557661 0.45801076
-0.099318564 0.05551061 0.45764112
-0.098883033 0.055493504 0.45751825
-0.098467909 0.055487756 0.45748898
-0.098027095 0.055467419 0.45733935
-0.097608484 0.055459533 0.45729235
-0.097142473 0.055424541 0.45702177
-0.096731424 0.055420745 0.45700833
-0.096268781 0.055387232 0.4567498
-0.095856309 0.055382423 0.45672786
-0.095404349 0.055354666 0.45651665
-0.094982058 0.055343959 0.45644599
-0.09462022 0.055368535 0.45666626
-0.094228357 0.05537568 0.4567427
-0.093827628 0.055377655 0.45677647
-0.087176763 0.055005692 0.45396176
-0.08678297 0.055010498 0.45401785
-0.08634387 0.054986503 0.45383617
-0.085930102 0.054978486 0.45378628
-0.08549244 0.054955039 0.45360902
-0.085044794 0.054924924 0.45337656
-0.084634773 0.054918937 0.45334324
-0.084262088 0.054937229 0.45351028
-0.083912723 0.054970987 0.45380491
-0.13354452 0.057396594 0.46819425
-0.13309859 0.05738356 0.46810979
-0.13262467 0.057358339 0.46792585
-0.1321777 0.05734466 0.46783602
-0.13174583 0.057337474 0.4677991
-0.13126338 0.057308149 0.46758154
-0.13080481 0.057289101 0.46744782
-0.130381 0.057285197 0.4674376
-0.12992398 0.057266645 0.46730778
-0.12940395 0.057220098 0.46694949
-0.12897152 0.057212126 0.46690592
-0.12848453 0.057179805 0.46666363
-0.12806112 0.05717567 0.46665135
-0.12758157 0.057146367 0.46643353
-0.12718695 0.057155035 0.46652567
-0.12668605 0.057115849 0.46622708
-0.12484135 0.057029087 0.46560362
-0.12442695 0.057028476 0.46561974
-0.12398206 0.057013836 0.46552128
-0.12300616 0.0569444 0.46499631
-0.12257276 0.056934673 0.46493778
-0.1221832 0.056945313 0.46504557
-0.12119471 0.056868557 0.46446034
-0.12076723 0.056861233 0.46442127
-0.12037026 0.05686827 0.46449947
-0.11995219 0.056865349 0.46449631
-0.11953611 0.056863349 0.46450058
-0.11915052 0.056875899 0.46462372
-0.11872627 0.056870013 0.46459618
-0.11831275 0.056869246 0.4646104
-0.11790068 0.056869179 0.46463034
-0.10267408 0.056200888 0.45983207
-0.10156352 0.056037385 0.45853135
-0.10117218 0.056045461 0.45861587
-0.1007252 0.056022659 0.45844772
-0.10028819 0.056005232 0.45832348
-0.099859655 0.055992428 0.45823696
-0.098933585 0.055927489 0.45774192
-0.098499119 0.055910837 0.45762372
-0.098069809 0.055896986 0.45752841
-0.097650394 0.055888683 0.45747846
-0.097211443 0.055869088 0.45733598
-0.096776478 0.055851627 0.4572109
-0.096331723 0.055828352 0.45703813
-0.095868856 0.055794328 0.45677736
-0.095463052 0.055793371 0.45678723
-0.095044047 0.055784661 0.45673355
-0.094684325 0.05581082 0.4569653
-0.094283216 0.055812705 0.45699829
-0.093883552 0.055815466 0.45703837
-0.093506083 0.055831499 0.45718709
-0.087218374 0.055433996 0.45416802
-0.086832717 0.055444155 0.45426771
-0.086381018 0.055412043 0.45402098
-0.085966326 0.05540349 0.45396712
-0.085522942 0.055376276 0.45376042
-0.085083142 0.055351138 0.45357054
-0.084681883 0.055350952 0.45358512
-0.08431188 0.055371292 0.45376784
-0.083929591 0.055383716 0.45388561
-0.13176599 0.057762139 0.46786118
-0.1313232 0.057750069 0.46778509
-0.13088711 0.057740878 0.46773231
-0.13042256 0.057719048 0.4675771
-0.12999044 0.057711467 0.46753725
-0.12900126 0.05764034 0.46700403
-0.12860699 0.057649396 0.46709889
-0.12811001 0.057612311 0.46681982
-0.12763636 0.057585534 0.46662423
-0.12726566 0.057605173 0.46680474
-0.12671119 0.057541493 0.46630996
-0.12630902 0.05754678 0.4663741
-0.12583251 0.057518117 0.46616304
-0.12538645 0.057503238 0.46606359
-0.12491494 0.057476547 0.46586841
-0.12447336 0.057463486 0.46578366
-0.12401173 0.057441071 0.46562299
-0.12306026 0.057382613 0.4651911
-0.12266605 0.057391234 0.46528193
-0.12222002 0.057375591 0.46517596
-0.12175976 0.057353139 0.46501476
-0.1203585 0.057275105 0.46444425
-0.119923 0.057263825 0.46437341
-0.11954281 0.057278961 0.46451682
-0.11913081 0.057278913 0.46453699
-0.1187207 0.057279769 0.46456447
-0.11830139 0.057276193 0.46455598
-0.11788203 0.057272557 0.46454692
-0.11747846 0.057276595 0.46460012
-0.11703906 0.057263143 0.46451133
-0.11662738 0.057263184 0.46453202
-0.10357498 0.056655914 0.46016958
-0.10311509 0.05662711 0.45995438
-0.1026398 0.056589596 0.45966831
-0.10162352 0.056477137 0.45879194
-0.10118392 0.056458488 0.45865887
-0.10077412 0.056456376 0.45866013
-0.10034278 0.056442123 0.45856267
-0.099902615 0.056422777 0.45842382
-0.099470899 0.05640807 0.45832255
-0.098999672 0.056370735 0.45803735
-0.098574869 0.056359645 0.45796534
-0.098127112 0.056335285 0.45778543
-0.097665906 0.056302968 0.45754081
-0.097274028 0.056310512 0.45762002
-0.096847698 0.056298096 0.457537
-0.096356727 0.056247849 0.45714644
-0.095944181 0.05624314 0.4571259
-0.095500886 0.056220297 0.45695791
-0.09507452 0.056207266 0.45686963
-0.094698645 0.056224097 0.45702404
-0.094312765 0.05623512 0.45713115
-0.093945697 0.05625749 0.45733044
-0.093573667 0.056277078 0.4575071
-0.087273791 0.055871513 0.45444605
-0.086859345 0.055863399 0.45439649
-0.086471349 0.055872303 0.45448527
-0.086003706 0.055829581 0.45415404
-0.085555941 0.055799421 0.45392489
-0.085116163 0.055774223 0.45373607
-0.08469411 0.055760447 0.45364004
-0.084335543 0.055788539 0.45388463
-0.083988301 0.055824433 0.45419264
-0.13134955 0.058177553 0.4678694
-0.13094607 0.058182832 0.46793351
-0.1304301 0.058137994 0.4675945
-0.13003802 0.058148272 0.46769872
-0.12957758 0.058127947 0.46755683
-0.12908952 0.058095071 0.46731386
-0.12865499 0.058086149 0.46726355
-0.12817174 0.058055099 0.46703514
-0.1277336 0.058044352 0.46697009
-0.1272404 0.058008425 0.4667024
-0.12680379 0.057998147 0.46664098
-0.12635827 0.05798373 0.46654624
-0.12593859 0.057981104 0.4665463
-0.12543182 0.057938226 0.46622244
-0.12497477 0.057918113 0.46608177
-0.12451866 0.057898302 0.4659434
-0.12407484 0.057884093 0.46585011
-0.1236232 0.057866134 0.46572658
-0.12316331 0.057844181 0.46557084
-0.12272599 0.05783271 0.46549946
-0.12225781 0.057806574 0.46530992
-0.12180094 0.057785627 0.46516213
-0.12133746 0.057761386 0.46498778
-0.12093233 0.057764858 0.46503651
-0.12047134 0.057741586 0.4648698
-0.11996648 0.057697043 0.4645319
-0.11954695 0.057693381 0.46452299
-0.11909518 0.05767408 0.46438813
-0.11869924 0.057681769 0.4644706
-0.11829361 0.057684794 0.46451542
-0.11785803 0.057673186 0.46444234
-0.11743786 0.057669062 0.46442953
-0.11703069 0.05767132 0.46446806
-0.1165717 0.057647966 0.46430027
-0.11618709 0.057661351 0.46442834
-0.11577692 0.057662111 0.46445468
-0.11535957 0.057659287 0.46445215
-0.10498109 0.057163931 0.46090975
-0.10457342 0.057164196 0.46093079
-0.10412712 0.057143264 0.46078086
-0.10356079 0.05705604 0.46009624
-0.10309274 0.057022486 0.45984441
-0.10262778 0.056990389 0.45960417
-0.1016491 0.056898117 0.45889711
-0.10122606 0.056888688 0.45883951
-0.10079473 0.056874502 0.45874351
-0.10039108 0.056875896 0.45877311
-0.099952087 0.056857191 0.45864049
-0.099507712 0.056835257 0.45848176
-0.099030383 0.056794241 0.4581691
-0.098612078 0.056786884 0.4581278
-0.098141961 0.056749512 0.45784432
-0.097722121 0.056741014 0.45779377
-0.097326882 0.056746788 0.45785826
-0.096857592 0.05670926 0.45757332
-0.096425168 0.056693092 0.4574607
-0.095983781 0.056671493 0.45730418
-0.095536277 0.05664609 0.45711684
-0.095127307 0.056643415 0.45711285
-0.094695508 0.056627065 0.45699847
-0.094330691 0.056650795 0.45720753
-0.093940452 0.056659404 0.45729443
-0.087320499 0.056303933 0.45467868
-0.086901441 0.056292914 0.45460615
-0.086498372 0.056292195 0.45461667
-0.086063713 0.056270819 0.45446032
-0.085609816 0.056236599 0.45420018
-0.085175887 0.056215245 0.45404384
-0.084746823 0.056196913 0.45391184
-0.084393896 0.056229129 0.45418808
-0.13146427 0.05864463 0.46826845
-0.13105381 0.058646969 0.46830881
-0.13053569 0.058600999 0.46796334
-0.13006914 0.058577973 0.467801
-0.12960035 0.058553785 0.46762931
-0.12915619 0.058540598 0.46754554
-0.12869997 0.058521848 0.46741721
-0.12824336 0.058502797 0.46728644
-0.12780935 0.058493957 0.4672372
-0.12730977 0.058454968 0.46694711
-0.12686874 0.058442686 0.46687028
-0.12642379 0.058428515 0.46677831
-0.1259973 0.058422815 0.46675396
-0.12549029 0.058379613 0.46642998
-0.12504499 0.058364931 0.46633381
-0.12463391 0.058366179 0.46636486
-0.12412679 0.058322307 0.46603534
-0.1237158 0.058323458 0.46606559
-0.12321228 0.058280859 0.4657461
-0.12277826 0.05827095 0.46568781
-0.12227898 0.058229905 0.46538064
-0.12187457 0.058233906 0.46543342
-0.12139461 0.058201723 0.46519697
-0.12095953 0.05819089 0.46513113
-0.1205119 0.05817394 0.46501634
-0.12004595 0.058148004 0.46482965
-0.11957747 0.058120653 0.46463159
-0.11913668 0.058106616 0.46453995
-0.11868634 0.058087815 0.4644101
-0.1182453 0.058073446 0.46431568
-0.11782816 0.058070768 0.46431467
-0.11742506 0.058075003 0.46436894
-0.11701469 0.058075659 0.46439454
-0.11657639 0.058062404 0.46430883
-0.11616452 0.058062278 0.46432805
-0.11573018 0.058050882 0.46425712
-0.11530539 0.05804421 0.46422392
-0.11484973 0.058021892 0.46406549
-0.11446353 0.058034629 0.46418744
-0.11400795 0.058012154 0.4640277
-0.11357278 0.05799995 0.46395004
-0.11312484 0.057981107 0.46381921
-0.11262681 0.057936352 0.46348107
-0.11218827 0.057921991 0.463386
-0.10500612 0.057586312 0.46100926
-0.10457104 0.057571542 0.4609099
-0.10400879 0.057486374 0.46024689
-0.10353808 0.057451323 0.45998502
-0.1030741 0.057419755 0.45975092
-0.10262185 0.05739449 0.45956722
-0.10219268 0.05738198 0.45948565
-0.101708 0.057338085 0.45915264
-0.10129317 0.057333369 0.45913333
-0.1008429 0.057308476 0.4589524
-0.10041782 0.057297751 0.45888484
-0.099970222 0.057274047 0.45871326
-0.099561132 0.057272296 0.45871747
-0.099107802 0.057244979 0.45851681
-0.098675601 0.05722969 0.45841247
-0.09821143 0.057195667 0.45815796
-0.097800285 0.057192363 0.45814946
-0.097378582 0.05718283 0.45809102
-0.096915759 0.057148971 0.45783764
-0.096470699 0.057125352 0.45766619
-0.096024923 0.057101101 0.4574897
-0.095569745 0.057071034 0.45726645
-0.095179118 0.057079423 0.45735127
-0.094732516 0.057054173 0.45716649
-0.094344757 0.057064302 0.45726514
-0.093982145 0.057089791 0.45748684
-0.093623608 0.057117984 0.4577302
-0.087347642 0.056724079 0.4548094
-0.086936347 0.05671813 0.45477808
-0.086526014 0.056712754 0.45475131
-0.086096056 0.056694396 0.45462039
-0.085673966 0.056681085 0.45452985
-0.085215621 0.056643546 0.45424497
-0.084844977 0.056664214 0.45442683
-0.084454887 0.05667204 0.45450559
-0.084110156 0.056710519 0.45483014
-0.13151245 0.059082523 0.46843034
-0.13107647 0.059073456 0.46838006
-0.13063379 0.059061311 0.46830535
-0.13015129 0.059031017 0.46808672
-0.12970084 0.059015118 0.46798214
-0.12920277 0.05897738 0.46770436
-0.12877296 0.058970653 0.46767247
-0.12832586 0.058955949 0.46757728
-0.12787053 0.058937348 0.46745104
-0.12737143 0.058898393 0.46716338
-0.12693773 0.058889516 0.46711433
-0.12646565 0.058862731 0.46692306
-0.12604286 0.058858767 0.46691287
-0.12558089 0.058836438 0.46675685
-0.12510583 0.058807801 0.46655077
-0.12467276 0.058798779 0.46650028
-0.12423652 0.058788206 0.46643743
-0.12377906 0.058767475 0.46629393
-0.12328477 0.058729067 0.46601012
-0.12284484 0.058716383 0.4659304
-0.12236826 0.05868604 0.46571046
-0.12192395 0.058671016 0.46561202
-0.1215047 0.058667988 0.46560884
-0.12102824 0.058637232 0.46538541
-0.12052887 0.058595117 0.46507183
-0.12010183 0.058588002 0.46503597
-0.11965518 0.058571227 0.46492347
-0.1192075 0.058553852 0.46480605
-0.1187477 0.058530375 0.4646402
-0.11829834 0.058511894 0.46451393
-0.11782366 0.058480721 0.46428683
-0.11739334 0.058471415 0.46423334
-0.11698622 0.058473647 0.46427137
-0.11656106 0.058466852 0.46423766
-0.1161593 0.058471788 0.46429709
-0.1157077 0.058451578 0.46415675
-0.11527591 0.058441263 0.464095
-0.11486506 0.058441531 0.46411726
-0.11441055 0.058419511 0.46396241
-0.11400682 0.058423355 0.46401292
-0.11356436 0.058407303 0.46390536
-0.11315089 0.058406103 0.46391577
-0.1126775 0.058373842 0.4636794
-0.11223836 0.05835918 0.46358266
-0.11050203 0.058310051 0.46327108
-0.11004411 0.058284905 0.46309087
-0.10821781 0.058185365 0.46237758
-0.10777175 0.058165681 0.46224043
-0.10634576 0.058057781 0.46144038
-0.10586856 0.058020249 0.46116108
-0.10544191 0.058010217 0.46110034
-0.1050007 0.057992075 0.46097505
-0.10451984 0.057951804 0.46067384
-0.10401313 0.057896838 0.46025565
-0.103549 0.057865236 0.46002313
-0.10310865 0.05784671 0.45989457
-0.10265419 0.0578201 0.45970163
-0.10223103 0.05781097 0.45964763
-0.10181066 0.057803363 0.4596056
-0.10133334 0.057763226 0.4593049
-0.10089351 0.057744224 0.45917222
-0.10043557 0.057714663 0.45895547
-0.10004394 0.05772312 0.459041
-0.099608436 0.057706229 0.45892489
-0.099125922 0.057661857 0.45859015
-0.098702975 0.057651907 0.45852911
-0.098269373 0.057635635 0.45841771
-0.097839467 0.057621408 0.45832247
-0.097411819 0.057608388 0.45823684
-0.096979566 0.057592526 0.45812854
-0.096520469 0.057560526 0.45789179
-0.096074723 0.057536244 0.45771638
-0.095629282 0.057511948 0.45754075
-0.095206067 0.057500869 0.45747021
-0.094794333 0.057496656 0.45745426
-0.094366811 0.05748279 0.45736143
-0.093994662 0.05750268 0.45753711
-0.093587957 0.057501521 0.45754528
-0.093239121 0.057536054 0.45783737
-0.087436646 0.057184931 0.45526209
-0.086958513 0.057135299 0.45488331
-0.086562648 0.057139497 0.45493308
-0.08613845 0.057124946 0.45483354
-0.085691802 0.057095312 0.45461375
-0.085274845 0.057085264 0.45454991
-0.084885687 0.057093821 0.4546341
-0.084478252 0.057090115 0.45462057
-0.13158397 0.059531286 0.46867529
-0.13113414 0.059515979 0.46857634
-0.13066404 0.05949134 0.46840397
-0.13021068 0.059474196 0.46829054
-0.12977815 0.059466481 0.46825132
-0.12930128 0.059438337 0.46805111
-0.12882961 0.059412412 0.46786845
-0.12839624 0.05940403 0.4678238
-0.12792623 0.059378587 0.46764481
-0.12748533 0.059366547 0.46757129
-0.12702243 0.059344143 0.46741611
-0.1265713 0.059327114 0.46730322
-0.12605326 0.059278496 0.46694148
-0.12559603 0.059258264 0.46680319
-0.12515084 0.059243586 0.46670875
-0.1247331 0.059241857 0.46671611
-0.12423637 0.05920247 0.46642685
-0.12382008 0.059201282 0.46643847
-0.123294 0.059147418 0.46603507
-0.12288092 0.059147585 0.46605721
-0.12242048 0.059124876 0.46589911
-0.12200771 0.059125111 0.46592182
-0.12155364 0.059105273 0.46578622
-0.12105015 0.059061192 0.46545953
-0.12066194 0.059073247 0.46557519
-0.12015472 0.059026908 0.46523064
-0.11971675 0.059014395 0.46515265
-0.11929771 0.059011161 0.46514767
-0.11876446 0.058951214 0.46469563
-0.11833986 0.058944967 0.46466678
-0.11787815 0.058920123 0.46449137
-0.11742732 0.058900569 0.46435755
-0.11696964 0.058877431 0.4641954
-0.11655913 0.05887796 0.46421981
-0.11610468 0.058856208 0.46406853
-0.115701 0.058860134 0.46411964
-0.11525783 0.058843933 0.464012
-0.11484583 0.058843579 0.46402925
-0.11441243 0.058832221 0.46395978
-0.11397438 0.058818385 0.46387061
-0.11357018 0.058821976 0.46391889
-0.11310167 0.058792166 0.46370366
-0.11265533 0.058773711 0.46357787
-0.1122169 0.058759253 0.46348366
-0.11179563 0.058753714 0.46345973
-0.11134208 0.058731109 0.46330106
-0.11090629 0.058717735 0.4632152
-0.11046288 0.058700223 0.46309659
-0.110005 0.05867485 0.46291596
-0.10955548 0.058653768 0.46276909
-0.10911953 0.058639817 0.46267846
-0.10863453 0.058599304 0.46237817
-0.10819597 0.05858364 0.46227387
-0.10777 0.058574684 0.46222249
-0.10730858 0.058546331 0.46201792
-0.10680699 0.058495764 0.46163797
-0.10635012 0.058469385 0.46144888
-0.10588957 0.058440767 0.46124208
-0.10541807 0.058405876 0.46098563
-0.10496576 0.058381379 0.4608112
-0.10451416 0.05835709 0.46063834
-0.10406139 0.058331959 0.46045873
-0.10355247 0.058275029 0.46002802
-0.10316508 0.058286313 0.46013576
-0.10271297 0.058260966 0.45995432
-0.10230505 0.058260597 0.45996994
-0.10184462 0.058230195 0.45974842
-0.10136504 0.058188554 0.45943809
-0.10090638 0.058158644 0.45922029
-0.10051095 0.058165077 0.4592894
-0.10009398 0.05815905 0.45926008
-0.099672005 0.058150049 0.45920721
-0.09918189 0.058101062 0.45883849
-0.098747358 0.058084365 0.45872474
-0.098290108 0.058054116 0.45850384
-0.097885832 0.058055028 0.45852903
-0.097469881 0.058049001 0.45849934
-0.09702152 0.058023538 0.45831606
-0.096578322 0.058000967 0.45815557
-0.096099213 0.057956539 0.45782238
-0.095653735 0.057932112 0.45764709
-0.095235795 0.057924233 0.45760238
-0.094824411 0.057920277 0.4575887
-0.094370112 0.057889964 0.45736673
-0.094003119 0.057913188 0.45756763
-0.093615219 0.057923678 0.45766786
-0.093199939 0.05791723 0.45763424
-0.092818156 0.057931647 0.4577654
-0.087480634 0.057616971 0.45548037
-0.087007195 0.057570208 0.45512715
-0.086595863 0.057564314 0.45509684
-0.08617802 0.05755401 0.45503163
-0.085722439 0.057518296 0.45476547
-0.085329272 0.057524309 0.45482913
-0.084876001 0.057489682 0.45457143
-0.12979423 0.05989008 0.46829936
-0.1293423 0.059873309 0.46818969
-0.12888771 0.059855189 0.46806946
-0.1284373 0.059838906 0.46796346
-0.12795071 0.059805602 0.46772435
-0.12756425 0.059819039 0.46785074
-0.12709954 0.059795752 0.46768987
-0.12662351 0.059766956 0.4674859
-0.12611936 0.05972467 0.46717632
-0.12571527 0.059729636 0.46723634
-0.12523602 0.059698824 0.46701634
-0.12476509 0.059671771 0.46682578
-0.12434861 0.059670661 0.46683815
-0.1238723 0.05964075 0.46662509
-0.12333731 0.059582289 0.46618864
-0.12294031 0.059590325 0.46627238
-0.12243235 0.059544448 0.46593422
-0.12202518 0.059547443 0.46597844
-0.12163264 0.059557624 0.46607888
-0.12114753 0.059522394 0.46582386
-0.12069362 0.059502296 0.46568727
-0.12015943 0.059442356 0.46523878
-0.11973496 0.059436459 0.46521321
-0.11935381 0.059452105 0.46535617
-0.11889205 0.059427574 0.46518466
-0.11838276 0.059379026 0.464825
-0.11797801 0.059382763 0.46487466
-0.11749152 0.059345234 0.46460119
-0.11704033 0.059325326 0.46446568
-0.11659802 0.059309807 0.46436441
-0.11614811 0.059290301 0.46423188
-0.11572252 0.059283108 0.46419567
-0.11525624 0.059254944 0.46399531
-0.11483534 0.059249997 0.46397659
-0.11439939 0.059237216 0.46389654
-0.11397617 0.059230972 0.46386755
-0.11351251 0.059203584 0.46367297
-0.11307538 0.059189882 0.4635855
-0.1126454 0.059179839 0.46352667
-0.11222406 0.059174277 0.46350291
-0.11177239 0.059152618 0.46335295
-0.11133558 0.059138704 0.4632636
-0.1108751 0.059112057 0.46307451
-0.11044555 0.059101772 0.4630135
-0.11000089 0.059083287 0.46288818
-0.10955843 0.05906586 0.46277112
-0.10908481 0.059031442 0.46252081
-0.10862464 0.059004061 0.46232563
-0.10814883 0.058967941 0.46206191
-0.10774349 0.058970135 0.46209833
-0.10725582 0.058927093 0.46178025
-0.10679691 0.058899604 0.46158388
-0.10635439 0.058880962 0.46145687
-0.10587876 0.05884378 0.46118447
-0.10543093 0.058821827 0.46103138
-0.1049742 0.058794707 0.46083775
-0.1045388 0.05877937 0.46073633
-0.10411609 0.058771089 0.4606902
-0.10366318 0.058745615 0.46050924
-0.10322376 0.058727626 0.4603869
-0.10273577 0.058681741 0.46004578
-0.10232978 0.058682527 0.46007046
-0.10189925 0.058669191 0.45998439
-0.10144559 0.058642372 0.45979258
-0.10099175 0.058615234 0.45959815
-0.10052551 0.058580644 0.45934528
-0.10013252 0.058588631 0.45942616
-0.099735476 0.05859432 0.45948896
-0.099228293 0.058535073 0.45904252
-0.098798096 0.058520939 0.45894974
-0.098332793 0.058485817 0.45869228
-0.097916067 0.05847941 0.45866001
-0.097496383 0.058471173 0.45861331
-0.097049691 0.058446608 0.45843849
-0.096640222 0.05844434 0.45843849
-0.096210703 0.058429882 0.45834279
-0.095289551 0.058362551 0.45784992
-0.09487921 0.058359366 0.45784244
-0.094425298 0.058329228 0.45762348
-0.094001025 0.058317222 0.45754665
-0.093598492 0.058318652 0.45757529
-0.093194678 0.0583193 0.45759764
-0.09280742 0.058330361 0.45770165
-0.092427038 0.058345851 0.45784044
-0.087453201 0.058002032 0.45532665
-0.087048389 0.058000591 0.45533174
-0.086614877 0.057979934 0.45518589
-0.086224735 0.057988256 0.45526743
-0.085788719 0.05796564 0.45510614
-0.085381754 0.057962544 0.45509797
-0.084972955 0.057958178 0.4550797
-0.12940207 0.060317297 0.4683961
-0.12897493 0.060311973 0.46837622
-0.12849061 0.060279805 0.46814772
-0.12801939 0.060253579 0.46796542
-0.12760231 0.060252756 0.4679803
-0.12713103 0.060226254 0.46779576
-0.12668805 0.060213022 0.46771416
-0.12573004 0.06015183 0.46728116
-0.12526865 0.060129389 0.46712792
-0.12480749 0.060106911 0.46697435
-0.12437398 0.06009765 0.46692333
-0.12395576 0.060095727 0.46692938
-0.12293471 0.060001753 0.46624103
-0.12251784 0.060000148 0.46624938
-0.12205517 0.059976038 0.46608278
-0.12164362 0.059976958 0.46611068
-0.12120983 0.059966896 0.46605322
-0.12073238 0.059935085 0.46582663
-0.12027097 0.059911042 0.46566036
-0.11983622 0.059900168 0.46559641
-0.11940101 0.059888981 0.46553001
-0.11893552 0.05986248 0.46534443
-0.11850838 0.059855163 0.46530801
-0.11798201 0.059797499 0.46488014
-0.117506 0.059765048 0.46464813
-0.11712031 0.059778474 0.46477279
-0.11666801 0.05975787 0.46463284
-0.11621395 0.059736215 0.46448466
-0.1157586 0.059713744 0.46433005
-0.11532614 0.059702963 0.46426633
-0.11486768 0.059678592 0.4640969
-0.1144097 0.059654307 0.46392798
-0.11395469 0.059631396 0.46376973
-0.11353971 0.059629336 0.46377364
-0.11308236 0.059604935 0.46360371
-0.11264199 0.059589341 0.46350217
-0.11220114 0.059573371 0.46339774
-0.11173058 0.059541456 0.46316919
-0.11132179 0.059542347 0.46319574
-0.11088125 0.059526198 0.46308973
-0.11042714 0.059502617 0.46292582
-0.11000802 0.059497789 0.4629077
-0.1095491 0.059471313 0.46272117
-0.10905705 0.059426587 0.46239254
-0.10861735 0.059410162 0.46228406
-0.10818719 0.059398849 0.46221533
-0.10773283 0.059374113 0.46204206
-0.10724015 0.059327986 0.46170223
-0.10682738 0.059325889 0.46170503
-0.10638588 0.059307754 0.46158296
-0.10594909 0.059292119 0.46148026
-0.10501231 0.059224837 0.46099439
-0.10459512 0.059219796 0.46097398
-0.10417087 0.059210692 0.46092194
-0.10368517 0.059166461 0.46059632
-0.10328611 0.059171516 0.46065432
-0.1028156 0.059135519 0.46039265
-0.10236194 0.05910895 0.46020439
-0.10193211 0.059096001 0.46012205
-0.1015 0.059081621 0.4600285
-0.10103669 0.059048884 0.45979196
-0.10059865 0.059030708 0.45966876
-0.10019673 0.059033673 0.45971009
-0.099769175 0.059021499 0.45963347
-0.099268824 0.058965981 0.45921925
-0.098835051 0.058949716 0.45911068
-0.098372251 0.058915935 0.45886561
-0.097946703 0.058904275 0.45879272
-0.097540446 0.058904167 0.45880979
-0.097088121 0.058876127 0.45860919
-0.096687958 0.058879618 0.45865417
-0.096242696 0.058855552 0.45848444
-0.094899736 0.058777694 0.45793065
-0.094468869 0.058761735 0.45782378
-0.094051786 0.058754258 0.45778292
-0.093600906 0.058725499 0.45757625
-0.093202643 0.058729656 0.4576259
-0.092807144 0.058735598 0.45768946
-0.092400745 0.058734663 0.4576993
-0.091992766 0.058732711 0.45770124
-0.088064812 0.058544077 0.45638219
-0.087488748 0.058428906 0.45550078
-0.087100685 0.058438811 0.45559436
-0.086684935 0.058430143 0.45554313
-0.08627297 0.058423959 0.45551118
-0.085811198 0.058383819 0.45521441
-0.12806536 0.060691237 0.46812338
-0.12762739 0.060680546 0.46806219
-0.1272144 0.060681701 0.46809238
-0.12676185 0.060663927 0.46797648
-0.12631787 0.06065017 0.46789145
-0.12585902 0.060629144 0.4677504
-0.12540577 0.060610678 0.46762905
-0.1250618 0.0606451 0.46791565
-0.12469004 0.060666222 0.46809968
-0.12170146 0.060419653 0.46632212
-0.12123147 0.060391575 0.46612614
-0.12079196 0.060378548 0.46604621
-0.12031553 0.060346905 0.46582261
-0.11987159 0.060331404 0.46572348
-0.11945627 0.060330253 0.46573511
-0.11897907 0.060297739 0.46550453
-0.11859015 0.060309868 0.46561864
-0.11811797 0.060279623 0.46540546
-0.11671109 0.060192555 0.46479404
-0.11625634 0.060170464 0.46464369
-0.11581694 0.060156196 0.46455365
-0.11541523 0.060161483 0.46461454
-0.1149104 0.060112856 0.46425903
-0.11446336 0.060094222 0.46413511
-0.11403663 0.06008615 0.46409273
-0.11357835 0.060061343 0.46392098
-0.11312783 0.060040474 0.46377963
-0.11271533 0.060039707 0.46379349
-0.11221144 0.059990071 0.46342978
-0.11177941 0.059978627 0.46336105
-0.11133508 0.059960488 0.46324053
-0.11089213 0.059942942 0.46312463
-0.11045107 0.059926298 0.46301553
-0.10999081 0.059899081 0.4628247
-0.10953123 0.059872031 0.46263513
-0.10908809 0.059853796 0.46251357
-0.10864943 0.059837889 0.46240997
-0.10821999 0.059826966 0.46234483
-0.10777973 0.059809953 0.46223253
-0.10728877 0.059764568 0.46190098
-0.10687808 0.059763718 0.4619135
-0.10638847 0.059718568 0.46158355
-0.1059826 0.059720252 0.46161556
-0.1046228 0.059644327 0.46108529
-0.10419969 0.059635885 0.46103877
-0.10373294 0.05960229 0.46079782
-0.10329467 0.059584875 0.4606818
-0.10287985 0.059580892 0.46066961
-0.1024342 0.059558954 0.46051854
-0.1019772 0.059530225 0.46031481
-0.10154872 0.059517965 0.46023849
-0.10111982 0.059505377 0.46015951
-0.1006599 0.059474345 0.45993787
-0.10022619 0.059458621 0.45983452
-0.099793054 0.059443109 0.45973271
-0.0993414 0.059416387 0.45954418
-0.098909348 0.059401222 0.45944497
-0.098445274 0.059366629 0.45919538
-0.09801171 0.059350219 0.45908642
-0.097582825 0.059336521 0.45899832
-0.097160339 0.059326604 0.45893949
-0.096741274 0.05931871 0.45889622
-0.096260667 0.059272859 0.45855922
-0.095856406 0.059273832 0.45858431
-0.095442981 0.059269112 0.45856544
-0.094969243 0.05922674 0.45825517
-0.094530202 0.059205744 0.45811015
-0.094097964 0.059188843 0.45799676
-0.093646079 0.059159383 0.45778617
-0.093199328 0.059132922 0.45759866
-0.092795812 0.059133798 0.45762265
-0.092390157 0.059133288 0.45763594
-0.092005409 0.059146233 0.45775318
-0.091580585 0.059133403 0.45767096
-0.091172263 0.059131179 0.45767069
-0.090782233 0.059140839 0.45776239
-0.090331711 0.059111003 0.45754835
-0.089902669 0.059095021 0.45744142
-0.089460999 0.059070557 0.45726877
-0.089016259 0.059043828 0.45707855
-0.088032722 0.058926694 0.45620483
-0.087549433 0.058873016 0.45580572
-0.087133355 0.058864251 0.45575422
-0.086730972 0.058864698 0.45577401
-0.086310036 0.058852497 0.45569581
-0.12816012 0.061152488 0.4684597
-0.12770104 0.061131757 0.46832216
-0.12723665 0.061108358 0.46816409
-0.12681161 0.061103757 0.46815005
-0.12636383 0.061088126 0.46805149
-0.12588339 0.061056565 0.46783075
-0.12079945 0.060796205 0.46606478
-0.12032764 0.060766697 0.46585917
-0.11986214 0.060740177 0.4656764
-0.11949658 0.060764309 0.46588188
-0.1190533 0.060748931 0.46578449
-0.11861374 0.060735367 0.46570086
-0.11816753 0.060718294 0.46559033
-0.11769814 0.06068914 0.46538708
-0.11725606 0.060673915 0.46529064
-0.11681063 0.060656846 0.46517992
-0.11637042 0.060642373 0.46508914
-0.11591829 0.060621563 0.46494967
-0.11545802 0.060596336 0.46477628
-0.11497443 0.060558647 0.46450722
-0.11453656 0.060544852 0.46442139
-0.11404456 0.060502246 0.46411449
-0.11363567 0.060503583 0.46414459
-0.11319809 0.060489591 0.46405709
-0.11277972 0.060485806 0.46404785
-0.11225415 0.060424287 0.46359557
-0.11181284 0.060407829 0.46348906
-0.11137779 0.060394663 0.46340764
-0.1109262 0.06037239 0.46325627
-0.1104959 0.060361587 0.46319291
-0.11001411 0.060322464 0.46291217
-0.10959557 0.060317859 0.4628962
-0.10915986 0.06030374 0.46280721
-0.10870598 0.06027944 0.46264005
-0.10826159 0.060260233 0.46251187
-0.10779668 0.060229417 0.46229455
-0.10734887 0.060207956 0.46214902
-0.10688244 0.060175844 0.4619216
-0.10647615 0.060177486 0.46195325
-0.10603599 0.060159925 0.46183738
-0.10557865 0.060132422 0.46164525
-0.10515548 0.060124267 0.46160147
-0.10467381 0.060082458 0.46129933
-0.10422862 0.060061354 0.46115601
-0.10380881 0.060054753 0.46112406
-0.10338051 0.060043182 0.46105382
-0.10292713 0.060016885 0.4608705
-0.10247758 0.05999263 0.46070275
-0.10207792 0.059997495 0.46075863
-0.1015846 0.059947141 0.46039033
-0.10114687 0.059929308 0.46027172
-0.10070331 0.05990788 0.46012542
-0.10025529 0.059883591 0.45995715
-0.099845238 0.059881888 0.45996225
-0.099409141 0.05986448 0.45984668
-0.098958425 0.059838098 0.45966208
-0.098507367 0.059811287 0.45947412
-0.098071419 0.059793465 0.45935521
-0.097629026 0.059771553 0.4592047
-0.09720888 0.05976313 0.45915782
-0.096770279 0.059743252 0.45902285
-0.096329562 0.059721891 0.45887643
-0.095866002 0.059686128 0.4586193
-0.095436186 0.059671156 0.45852187
-0.095024049 0.059667155 0.45850867
-0.094609357 0.059661519 0.45848277
-0.094169989 0.059640199 0.45833632
-0.093724474 0.059614792 0.4581584
-0.093249686 0.059570454 0.45783496
-0.092794918 0.05953858 0.45760721
-0.092382073 0.059533447 0.45758486
-0.091984257 0.059537999 0.45763692
-0.091586962 0.05954292 0.45769179
-0.091161869 0.059529737 0.45760745
-0.09075164 0.059526183 0.45759708
-0.090306289 0.059499465 0.45740852
-0.089841768 0.059459809 0.45712045
-0.089446276 0.059465699 0.45718244
-0.088988885 0.059430297 0.45692691
-0.088057749 0.059347503 0.45632344
-0.087636992 0.05933588 0.45625049
-0.087167025 0.059290674 0.45591921
-0.08678557 0.05930553 0.45604983
-0.08631289 0.059257895 0.45569977
-0.085962683 0.059294295 0.45599589
-0.12727921 0.061544959 0.46831042
-0.12689438 0.061559908 0.46844536
-0.1264368 0.061539542 0.46831152
-0.12608765 0.061571982 0.46857956
-0.12571831 0.061594762 0.46877399
-0.11995964 0.061203454 0.46604472
-0.11951995 0.061189968 0.46596256
-0.11911733 0.061195415 0.46602452
-0.11862346 0.061153878 0.46572858
-0.11823553 0.061166849 0.46584773
-0.11774585 0.061127096 0.46556526
-0.11728913 0.061104223 0.46541131
-0.11685807 0.061094604 0.46535832
-0.11638016 0.061060354 0.46511754
-0.115941 0.061046243 0.46503019
-0.11548366 0.061022438 0.46486893
-0.11507864 0.061026212 0.46491766
-0.11458485 0.060982756 0.46460658
-0.11412515 0.060957197 0.46443179
-0.11365257 0.06092456 0.464203
-0.11325246 0.060930669 0.46426937
-0.11282361 0.060921308 0.46421781
-0.11186346 0.060846642 0.46368822
-0.11144108 0.060840398 0.46366027
-0.11095764 0.060800653 0.46337691
-0.11050984 0.060780201 0.46324056
-0.11008745 0.060773645 0.46321005
-0.10962703 0.060745947 0.46301836
-0.10918936 0.060730711 0.46292156
-0.10875513 0.060717274 0.46283844
-0.1082892 0.060685977 0.4626191
-0.10787634 0.060684275 0.46262538
-0.10746531 0.060683616 0.46263951
-0.1069594 0.06062917 0.46224344
-0.10652103 0.060612731 0.46213716
-0.10606455 0.060585823 0.46195096
-0.10561159 0.060560718 0.46177849
-0.10518969 0.060553305 0.46174082
-0.10473933 0.060529388 0.46157727
-0.10428157 0.060500991 0.4613795
-0.10386201 0.060494613 0.46134952
-0.10341138 0.060470019 0.4611806
-0.10299117 0.060463097 0.46114641
-0.10255183 0.060444843 0.46102569
-0.10210754 0.060423508 0.46088144
-0.1016313 0.060383022 0.46059108
-0.10119436 0.060365662 0.46047696
-0.1007705 0.060355984 0.46042144
-0.10030718 0.060322508 0.46018431
-0.099877343 0.060308963 0.46009919
-0.09943857 0.060289904 0.45997187
-0.099008583 0.060276031 0.45988411
-0.098574288 0.060259413 0.4597753
-0.098102793 0.060219817 0.45949116
-0.097674549 0.060206559 0.45940784
-0.097244784 0.060192246 0.45931643
-0.096821085 0.060181584 0.45925283
-0.096368417 0.06015275 0.45905051
-0.095884271 0.060103942 0.45869568
-0.095478319 0.060103938 0.45871323
-0.095024601 0.060073741 0.45850027
-0.094640896 0.060087733 0.45862454
-0.094211541 0.06007275 0.45852754
-0.093777023 0.060054321 0.45840424
-0.093299404 0.060008012 0.45806798
-0.092849359 0.059979115 0.45786458
-0.092396244 0.059947968 0.45764402
-0.091994375 0.059949938 0.45767614
-0.091574229 0.059939977 0.4576171
-0.091160551 0.059934177 0.45758975
-0.090704396 0.059900269 0.45734778
-0.090297014 0.059898414 0.4573504
-0.089859128 0.059876215 0.4571977
-0.089429416 0.059859283 0.4570851
-0.089008078 0.059847839 0.45701438
-0.087661274 0.059756421 0.45636576
-0.08721707 0.059728622 0.45616984
-0.08678478 0.05970877 0.45603451
-0.086417265 0.059733503 0.45623964
-0.12695226 0.062004454 0.4686487
-0.12655419 0.06201319 0.46873593
-0.12622362 0.062055185 0.46907449
-0.12589574 0.06209879 0.46942517
-0.11958074 0.06163507 0.466189
-0.11913694 0.061619379 0.46609074
-0.11874549 0.061630744 0.4661971
-0.11829578 0.061611854 0.46607456
-0.11733018 0.061538953 0.46556363
-0.11691643 0.061538469 0.46558017
-0.11643033 0.061499756 0.46530744
-0.1160082 0.061494675 0.46528912
-0.11557052 0.061481297 0.46520793
-0.11511377 0.06145763 0.46504888
-0.11460912 0.06140814 0.46469438
-0.11417093 0.061394028 0.46460748
-0.11371871 0.061372243 0.46446246
-0.113306 0.061371688 0.46447814
-0.11287975 0.06136379 0.46443808
-0.11241362 0.061334059 0.46423283
-0.11193338 0.061296389 0.46396732
-0.11149709 0.061282597 0.46388254
-0.11104497 0.061259974 0.46373087
-0.11057527 0.061227445 0.46350411
-0.11016218 0.061226141 0.4635137
-0.10973733 0.061218262 0.46347344
-0.10921076 0.061153363 0.46300149
-0.10879957 0.061152831 0.46301675
-0.10835997 0.061136276 0.46291062
-0.10793776 0.061129428 0.46287799
-0.10745549 0.061088394 0.46258637
-0.1070143 0.061070483 0.46246985
-0.10656837 0.06104973 0.46233165
-0.10611884 0.061026737 0.46217653
-0.10568348 0.061011747 0.46208194
-0.10526282 0.061005164 0.46205097
-0.10481481 0.060982618 0.46189898
-0.10436954 0.0609615 0.46175775
-0.1039074 0.060930308 0.46154022
-0.10345614 0.060905289 0.46136934
-0.10303646 0.060898736 0.46133822
-0.10262629 0.060897775 0.46134949
-0.10215984 0.060863271 0.46110657
-0.10171847 0.060843494 0.46097517
-0.10126624 0.060817041 0.46079305
-0.1008191 0.060793433 0.4606325
-0.10035914 0.06076188 0.46041164
-0.099950075 0.060761012 0.46042326
-0.09948945 0.060728662 0.46019623
-0.099052608 0.060710624 0.46007758
-0.098647453 0.060711935 0.46010554
-0.098151103 0.060656905 0.4597064
-0.097727254 0.060646404 0.45964471
-0.097306028 0.060637452 0.45959467
-0.096865475 0.060616333 0.45945236
-0.096413068 0.060587585 0.45925215
-0.09597297 0.060566366 0.45910892
-0.095512882 0.060532287 0.45886818
-0.095068708 0.060508061 0.45870203
-0.09464515 0.060496796 0.45863411
-0.094238222 0.060496114 0.45864627
-0.093805045 0.060478494 0.45853007
-0.093367659 0.060458008 0.45839196
-0.092921138 0.060431398 0.45820743
-0.092440702 0.060382396 0.45785305
-0.092033751 0.060381185 0.45786092
-0.091617674 0.060373947 0.45782304
-0.091205984 0.060369544 0.45780662
-0.090762585 0.060344029 0.45763001
-0.090333425 0.060327791 0.45752364
-0.08985664 0.060279451 0.45717379
-0.089464322 0.060287602 0.45725235
-0.089030944 0.060268037 0.45712054
-0.088615648 0.060260579 0.45708057
-0.088191226 0.060246818 0.45699275
-0.087708771 0.060193118 0.4566018
-0.087272927 0.060171045 0.45645073
-0.086821221 0.06013779 0.45621476
-0.086478144 0.060179811 0.45654976
-0.11920365 0.062067993 0.46634111
-0.11878091 0.062063221 0.46632558
-0.11832368 0.062040322 0.46617389
-0.11790865 0.062039457 0.46618769
-0.11739056 0.061984181 0.46579257
-0.11694327 0.061966024 0.46567637
-0.11651785 0.061959378 0.46564654
-0.1160616 0.061936218 0.46549261
-0.11560649 0.061913509 0.46534202
-0.11520128 0.061917461 0.46539173
-0.11418977 0.061816599 0.46467343
-0.1137717 0.061813254 0.46466812
-0.113318 0.061790459 0.46451658
-0.11288387 0.061778203 0.46444422
-0.11246368 0.061773531 0.46442878
-0.11201883 0.061755214 0.46431074
-0.11156482 0.061731696 0.4641535
-0.11109795 0.061700869 0.46394131
-0.11062185 0.061664667 0.46368858
-0.11023176 0.061676316 0.4637956
-0.10973473 0.061627995 0.46345159
-0.1093512 0.061643295 0.46358606
-0.10882098 0.061575711 0.46309704
-0.10840006 0.061569683 0.46307096
-0.10797329 0.061560281 0.46301943
-0.10754317 0.061548896 0.46295291
-0.10709037 0.061524387 0.46278766
-0.10615917 0.061459992 0.46234125
-0.10572314 0.061444603 0.46224439
-0.10529888 0.061435968 0.46219823
-0.10484289 0.061408684 0.46201178
-0.10439721 0.061387241 0.46186921
-0.10397135 0.061377332 0.46181333
-0.10351693 0.061350409 0.46162939
-0.1030705 0.061328039 0.46147963
-0.10262174 0.061304096 0.46131799
-0.10217781 0.061282851 0.4611766
-0.10176474 0.061280034 0.4611738
-0.10129187 0.061241034 0.46089861
-0.10081991 0.061202273 0.46062517
-0.10042109 0.061207779 0.46068484
-0.099989071 0.061193004 0.46059182
-0.09952426 0.061157964 0.46034616
-0.099091567 0.061142448 0.46024743
-0.098665737 0.06113106 0.46017969
-0.098227158 0.061111648 0.46005151
-0.097766437 0.061078243 0.45981786
-0.097357512 0.061077055 0.45982671
-0.09691976 0.061057687 0.45969871
-0.096452147 0.061019268 0.45942712
-0.096035585 0.061012961 0.45939729
-0.095582053 0.060983013 0.45918936
-0.095127858 0.060952388 0.45897627
-0.094710723 0.060945347 0.45894065
-0.094316058 0.060952764 0.45901388
-0.093829349 0.060900494 0.45863762
-0.09338408 0.060874805 0.4584614
-0.092973687 0.06087172 0.45845535
-0.092497103 0.060825072 0.45812115
-0.092107385 0.060835399 0.45821601
-0.091661833 0.060808774 0.45803246
-0.091229767 0.060790893 0.45791474
-0.090802081 0.06077579 0.45781785
-0.090339534 0.060737111 0.45754331
-0.089901626 0.060714729 0.45739144
-0.089471862 0.060697671 0.45727959
-0.089057982 0.060691275 0.45724809
-0.088629417 0.060674779 0.4571403
-0.088219635 0.060671039 0.45712867
-0.087745741 0.060622979 0.45678297
-0.087287158 0.060585096 0.45651388
-0.086891443 0.060590703 0.45657241
-0.086472608 0.06058016 0.45650923
-0.11922237 0.062491924 0.46640369
-0.11884204 0.062509447 0.46655485
-0.11838414 0.062486153 0.46640134
-0.11793058 0.06246499 0.46626365
-0.11744097 0.062424533 0.46598187
-0.11701696 0.062418766 0.46595904
-0.11654795 0.062388878 0.46575606
-0.11610579 0.062373195 0.46565908
-0.1156946 0.062374096 0.46568587
-0.11522417 0.062342964 0.46547341
-0.11380554 0.062244181 0.46479553
-0.1134015 0.062248562 0.46484801
-0.11299375 0.062250923 0.46488544
-0.11251301 0.062212959 0.4646216
-0.11207349 0.062197577 0.46452639
-0.11160801 0.06216763 0.46432236
-0.11116772 0.062151551 0.46422178
-0.11069126 0.062115043 0.46396858
-0.11027455 0.062111914 0.4639647
-0.10979339 0.062072344 0.46368843
-0.10937895 0.062070325 0.46369272
-0.10843728 0.062001761 0.46321905
-0.10803326 0.062005438 0.46326566
-0.10756756 0.061973609 0.46304697
-0.10712663 0.061955862 0.46293342
-0.10670704 0.061950363 0.46291134
-0.10626909 0.061934117 0.46280894
-0.10579186 0.061894774 0.46253383
-0.10534514 0.061873045 0.4623903
-0.10489707 0.061850347 0.46223944
-0.10448274 0.061847452 0.46223655
-0.10400227 0.061805211 0.46193954
-0.10359845 0.061808381 0.46198183
-0.10310441 0.061757538 0.46162039
-0.10268942 0.061753832 0.46161118
-0.10222812 0.061722122 0.46139261
-0.10181304 0.061718185 0.46138158
-0.10133552 0.061676208 0.46108612
-0.10091794 0.061670527 0.46106195
-0.10048475 0.061655216 0.46096569
-0.10001955 0.061620072 0.46072108
-0.099575885 0.061597951 0.46057376
-0.099152997 0.061588556 0.46052158
-0.098701157 0.061561026 0.4603337
-0.098269336 0.061545804 0.46023783
-0.097803853 0.061509296 0.45998266
