# .PCD v0.7 - Point Cloud Data file format
VERSION 0.7
FIELDS x y z
SIZE 4 4 4
TYPE F F F
COUNT 1 1 1
WIDTH 1372
HEIGHT 1
VIEWPOINT 0 0 0 1 0 0 0
POINTS 1372
DATA ascii
-0.11291955 0.010410096 0.45367444
-0.11248911 0.010407412 0.45357856
-0.11204623 0.010403554 0.4534314
-0.11157143 0.010396694 0.45315334
-0.11118072 0.010397649 0.45321584
-0.11074971 0.010394829 0.45311376
-0.11028647 0.010388953 0.45287833
-0.10984805 0.010385381 0.45274332
-0.10943121 0.01038383 0.45269638
-0.10898884 0.010379834 0.45254281
-0.10856064 0.010377167 0.45244706
-0.10810263 0.010371619 0.45222566
-0.10767247 0.01036871 0.45211929
-0.10727071 0.010368528 0.45213169
-0.10677508 0.010359235 0.45174676
-0.10639528 0.010361154 0.45185068
-0.10591247 0.010353016 0.45151603
-0.10552388 0.010354064 0.45158184
-0.10506033 0.010347735 0.45132592
-0.104646 0.010346225 0.45128012
-0.10421132 0.010342685 0.45114565
-0.10378193 0.010339643 0.45103288
-0.10335892 0.010337219 0.45094693
-0.10293089 0.010334267 0.45083803
-0.10250439 0.01033145 0.45073488
-0.10207263 0.010328081 0.45060751
-0.10165308 0.010325922 0.450533
-0.10123301 0.010323694 0.45045531
-0.10082603 0.010322792 0.45043543
-0.10041641 0.010321608 0.45040324
-0.10000154 0.010319874 0.45034692
-0.099598907 0.010319394 0.45034534
-0.099189907 0.010318248 0.45031461
-0.098780416 0.010317042 0.4502812
-0.09837696 0.010316459 0.45027491
-0.098029949 0.010321815 0.45052773
-0.12453955 0.010915786 0.45745632
-0.1235579 0.010900686 0.45686814
-0.12312156 0.010897886 0.45677298
-0.12271627 0.010897824 0.4567925
-0.12222194 0.010889826 0.45647946
-0.12177408 0.010885932 0.45633832
-0.12135689 0.010884762 0.45631132
-0.12090974 0.010880889 0.45617092
-0.12047162 0.010877804 0.45606357
-0.11999944 0.010871612 0.4558259
-0.1195669 0.010868984 0.45573753
-0.11912147 0.010865163 0.4555991
-0.11871259 0.01086466 0.45559976
-0.11825549 0.010859725 0.45541453
-0.11779776 0.0108547 0.45522544
-0.11738441 0.010853743 0.45520693
-0.11692126 0.010848159 0.45499429
-0.11649866 0.010846312 0.45493835
-0.11607081 0.010843962 0.45486122
-0.1156214 0.010839575 0.45469859
-0.11517252 0.010835208 0.45453674
-0.11475641 0.010833903 0.4545033
-0.11430406 0.010829155 0.45432535
-0.11385192 0.010824394 0.45414686
-0.11340534 0.010820132 0.45398909
-0.11294376 0.0108144 0.45376974
-0.11254216 0.010814393 0.45379046
-0.11208858 0.010809373 0.45360079
-0.11165392 0.010806149 0.45348638
-0.11125533 0.010806404 0.453518
-0.11079494 0.010800638 0.45329681
-0.1102891 0.010790383 0.45288715
-0.10990905 0.010792405 0.45299274
-0.10944535 0.010786198 0.45275283
-0.10901487 0.010783232 0.45264894
-0.10861165 0.01078295 0.45265761
-0.10816911 0.010778747 0.45250171
-0.1077323 0.010775087 0.4523685
-0.10728865 0.010770714 0.45220527
-0.10684972 0.010766784 0.45206055
-0.1064347 0.010765241 0.45201606
-0.10599476 0.010761159 0.45186484
-0.10555752 0.010757321 0.45172378
-0.10513251 0.010754704 0.45163399
-0.10470288 0.010751593 0.45152336
-0.10429301 0.010750497 0.45149729
-0.10379341 0.010740106 0.45108077
-0.10340324 0.010741001 0.45113826
-0.10295658 0.010736015 0.45094857
-0.10254035 0.010734174 0.45089102
-0.10207453 0.010727107 0.45061383
-0.10166803 0.010726245 0.4505972
-0.10124641 0.010723773 0.45051292
-0.10083207 0.010722058 0.45046034
-0.10041301 0.010719825 0.45038593
-0.1000041 0.01071866 0.45035642
-0.099599428 0.010717945 0.45034564
-0.099180706 0.010715705 0.45027077
-0.098775983 0.010714966 0.45025894
-0.098368347 0.010713904 0.45023346
-0.097956873 0.010712413 0.45018989
-0.097554728 0.010711935 0.45018879
-0.097180799 0.010714565 0.45031831
-0.12501217 0.011327727 0.45767874
-0.12454346 0.011321976 0.45746878
-0.12414575 0.011322664 0.45751894
-0.1236303 0.011312585 0.45713389
-0.12319338 0.011309647 0.45703739
-0.1227423 0.011305386 0.45688742
-0.12230151 0.011302049 0.45677468
-0.12185557 0.011298213 0.45664173
-0.12142974 0.011296222 0.45658326
-0.12095514 0.011289664 0.45634019
-0.12055185 0.011289742 0.45636526
-0.12008528 0.011283874 0.45614997
-0.11963523 0.011279524 0.45599598
-0.11920708 0.011277216 0.45592448
-0.11875577 0.011272697 0.45576349
-0.11831618 0.011269259 0.45564625
-0.11783413 0.011261743 0.45536396
-0.11745141 0.0112637 0.45546472
-0.11699905 0.011258969 0.45529497
-0.11654264 0.011253816 0.45510805
-0.1161298 0.011252848 0.45509034
-0.11567699 0.011247987 0.45491517
-0.11523797 0.011244438 0.45479295
-0.11479351 0.011240331 0.45464817
-0.11432321 0.011233657 0.45439941
-0.1139111 0.011232673 0.45438087
-0.11346702 0.011228519 0.45423391
-0.11302554 0.011224595 0.45409623
-0.11256696 0.011218939 0.45388842
-0.11213847 0.01121625 0.45380065
-0.11170042 0.011212584 0.45367321
-0.11128233 0.011210902 0.45362598
-0.11086535 0.011209321 0.45358285
-0.11044719 0.011207608 0.45353428
-0.10998849 0.011201752 0.45331806
-0.10950862 0.011193692 0.45301253
-0.10907201 0.01119001 0.45288411
-0.10865542 0.011188364 0.45283797
-0.10819305 0.011181973 0.45259976
-0.10779634 0.011182347 0.45263535
-0.10732125 0.011174562 0.4523406
-0.10692342 0.011174792 0.45237023
-0.10648672 0.011170949 0.45223489
-0.10603738 0.011165745 0.4520444
-0.10561816 0.011163686 0.45198119
-0.10516374 0.011157876 0.45176601
-0.10473868 0.01115515 0.45167565
-0.10432106 0.011153198 0.45161662
-0.10386305 0.011146897 0.4513813
-0.10343046 0.011143286 0.45125493
-0.10300943 0.011140897 0.45117795
-0.10260271 0.011140042 0.45116311
-0.10215668 0.011134897 0.45097438
-0.10171744 0.011130456 0.45081413
-0.10128132 0.011126322 0.45066616
-0.10084481 0.011122113 0.45051518
-0.10043196 0.011120488 0.45046878
-0.099998251 0.011116534 0.45032796
-0.099600807 0.011116596 0.45034975
-0.099178985 0.011113927 0.45026088
-0.098774001 0.01111313 0.45024779
-0.098355681 0.011110822 0.45017338
-0.097952664 0.011110228 0.45016843
-0.097545631 0.011109175 0.45014471
-0.097141474 0.01110844 0.45013392
-0.09676642 0.011111044 0.45025828
-0.12545255 0.011737041 0.45778161
-0.12502398 0.011734884 0.45771986
-0.12460167 0.011733302 0.45768049
-0.12414271 0.011728248 0.45750564
-0.12373681 0.01172819 0.45752564
-0.12325242 0.011720666 0.45725435
-0.12278748 0.011714949 0.45705354
-0.12237026 0.011713762 0.45702931
-0.12192632 0.011710004 0.45690477
-0.12147754 0.011705752 0.45676085
-0.12101785 0.011700417 0.45657468
-0.12056283 0.0116955 0.45640472
-0.12014675 0.011694341 0.45638141
-0.11969258 0.011689452 0.45621246
-0.11928148 0.011688753 0.45620698
-0.11878758 0.011679906 0.45588341
-0.1183501 0.011676568 0.45577478
-0.11790739 0.011672688 0.45564497
-0.1174764 0.011669945 0.45555949
-0.11702663 0.011665312 0.45540017
-0.11660505 0.011663467 0.45534962
-0.11617369 0.011660628 0.45526025
-0.11570764 0.011654274 0.45503354
-0.11528978 0.011652749 0.45499533
-0.11486674 0.011650684 0.45493603
-0.11437907 0.01164203 0.45461935
-0.11396307 0.011640635 0.45458603
-0.11352184 0.011636644 0.45445126
-0.11305595 0.011630088 0.4542163
-0.11265245 0.011629926 0.45423099
-0.11219127 0.011623786 0.45401219
-0.11174791 0.011619456 0.45386395
-0.11133568 0.011618344 0.45384133
-0.11089804 0.011614562 0.45371446
-0.11044164 0.011608781 0.45350933
-0.1100435 0.011609104 0.45354265
-0.10957532 0.011602013 0.45328629
-0.10912252 0.011596506 0.45309168
-0.10870109 0.011594304 0.45302618
-0.10828035 0.011592157 0.45296279
-0.10783992 0.011587883 0.45281616
-0.10739859 0.011583478 0.45266441
-0.10698166 0.011581683 0.45261452
-0.1065281 0.011575893 0.45240849
-0.10608298 0.011570979 0.45223665
-0.10562938 0.011565101 0.45202705
-0.10523353 0.011565525 0.45206368
-0.10480441 0.011562283 0.45195696
-0.10436549 0.011557931 0.45180675
-0.10395668 0.011556893 0.45178607
-0.10347581 0.011547804 0.45145059
-0.10307926 0.011548091 0.45148164
-0.10261942 0.011541263 0.4512344
-0.1022191 0.011541102 0.45124778
-0.10174739 0.011532849 0.4509446
-0.10131391 0.011528881 0.45080903
-0.10087663 0.011524447 0.45065513
-0.1004464 0.011520787 0.45053139
-0.10004485 0.011520401 0.45053566
-0.099605903 0.011515688 0.45037064
-0.099195778 0.011514283 0.45033491
-0.098772071 0.011511285 0.4502368
-0.098364696 0.011510173 0.45021239
-0.097947054 0.011507846 0.45014045
-0.09754765 0.011507653 0.45015183
-0.097138196 0.011506266 0.45011654
-0.096745312 0.011506839 0.45015785
-0.096337534 0.011505637 0.45012966
-0.095948234 0.011506645 0.4501878
-0.095591523 0.011511583 0.45039973
-0.12507245 0.012145679 0.45789513
-0.12465445 0.01214448 0.45787224
-0.12421138 0.01214082 0.45775655
-0.12374751 0.012135098 0.45756304
-0.12333307 0.0121342 0.45755145
-0.12281362 0.012122932 0.45714864
-0.12243358 0.012125396 0.45726371
-0.12196668 0.012119245 0.45705381
-0.12152866 0.012115933 0.45695096
-0.12108319 0.012111853 0.45681903
-0.12065531 0.012109512 0.45675263
-0.1202041 0.012104806 0.45659709
-0.1197368 0.012098443 0.45637888
-0.11930032 0.012095162 0.45627686
-0.11889467 0.012094995 0.45629227
-0.11840562 0.012086311 0.45598638
-0.1179511 0.012081107 0.45581168
-0.11754569 0.012080915 0.45582601
-0.11708845 0.012075378 0.45563859
-0.11666575 0.012073373 0.45558447
-0.11621723 0.012068677 0.45542869
-0.11576014 0.012063053 0.45523784
-0.1153499 0.012062291 0.45523041
-0.11485758 0.012052909 0.45489761
-0.11442665 0.012049926 0.45480624
-0.11400989 0.01204842 0.45477059
-0.11357547 0.01204503 0.45466375
-0.11311278 0.01203861 0.45444241
-0.11270608 0.012038121 0.454445
-0.11227864 0.012035407 0.45436352
-0.11178651 0.012025714 0.4540185
-0.11134753 0.012021692 0.45388746
-0.11092722 0.012019662 0.45383161
-0.11050697 0.012017623 0.45377538
-0.11010697 0.01201778 0.45380202
-0.10964559 0.012011216 0.45357478
-0.1091656 0.012002556 0.45326835
-0.10875233 0.012001196 0.45323747
-0.10832293 0.011998041 0.45313877
-0.10788362 0.011993757 0.45299745
-0.10744721 0.011989768 0.45286709
-0.10702549 0.011987395 0.45279774
-0.10655531 0.011979554 0.45252183
-0.10612427 0.011976072 0.45241046
-0.105691 0.011972311 0.45228851
-0.10526201 0.011969008 0.45218378
-0.10485033 0.011967657 0.45215273
-0.10438738 0.01196042 0.45189926
-0.10399152 0.011960845 0.4519352
-0.10355669 0.011956773 0.45180118
-0.10306994 0.011946652 0.45143855
-0.10266262 0.011945697 0.45142213
-0.10225397 0.011944577 0.45139945
-0.10179055 0.011937028 0.45113373
-0.10140873 0.011939023 0.45122868
-0.10093907 0.011930652 0.45093176
-0.10052972 0.011929375 0.45090288
-0.10009462 0.011925017 0.4507575
-0.099635683 0.011917775 0.45050302
-0.099209152 0.011914366 0.45039338
-0.0987904 0.011911866 0.45031807
-0.098363258 0.011908332 0.45020354
-0.097939789 0.011905217 0.45010477
-0.097535774 0.011904449 0.45009476
-0.097133942 0.011903944 0.45009455
-0.096731864 0.011903404 0.450093
-0.096329115 0.011902777 0.45008808
-0.095935903 0.011903327 0.45012766
-0.095535643 0.011903006 0.45013416
-0.095135652 0.011902714 0.45014176
-0.094770171 0.011906755 0.45031321
-0.12694047 0.012576235 0.45868981
-0.1264835 0.012571214 0.4585292
-0.12603462 0.012566967 0.45839676
-0.12563512 0.012567631 0.45844346
-0.12512296 0.012556997 0.45807791
-0.12465627 0.012550869 0.45787668
-0.12425182 0.01255099 0.45790339
-0.12377718 0.012543998 0.45767054
-0.12336177 0.012542982 0.45765567
-0.12293789 0.012541096 0.457609
-0.12244069 0.012531693 0.45728803
-0.12202332 0.012530426 0.45726386
-0.12157993 0.01252647 0.45714149
-0.12113918 0.012522761 0.45702809
-0.12070631 0.012519843 0.45694351
-0.12026955 0.012516501 0.45684341
-0.11978204 0.012507837 0.45654902
-0.11936001 0.012505977 0.45650288
-0.11892504 0.012502744 0.45640659
-0.11842932 0.01249308 0.45607543
-0.11802073 0.012492571 0.45607853
-0.11759008 0.012489717 0.45599592
-0.11715095 0.012485938 0.45587948
-0.11670109 0.012480988 0.45572022
-0.1162462 0.012475464 0.45553991
-0.11582233 0.01247324 0.45548013
-0.11536506 0.012467393 0.4552879
-0.11493003 0.012463917 0.45518222
-0.11450686 0.012461709 0.45512283
-0.11408775 0.012459925 0.45507887
-0.11365192 0.012456299 0.4549675
-0.11317381 0.012447996 0.4546853
-0.11272641 0.012443023 0.45452467
-0.11230556 0.012440958 0.45447019
-0.11184577 0.012434548 0.45425689
-0.11142563 0.012432515 0.45420349
-0.11101764 0.012431828 0.45419922
-0.11052457 0.012421576 0.45384538
-0.11011656 0.012420842 0.45383924
-0.10968965 0.012417964 0.45375469
-0.10922532 0.012410814 0.45351401
-0.10876182 0.012403704 0.45327473
-0.10837901 0.012405779 0.45337099
-0.10793087 0.012400365 0.45319355
-0.10748683 0.012395383 0.45303178
-0.10709909 0.012396881 0.45310682
-0.10662363 0.012388196 0.45280963
-0.10616582 0.012381506 0.45258528
-0.10571986 0.012376152 0.45240965
-0.1053187 0.012376023 0.45242503
-0.10491742 0.012375878 0.45243973
-0.10446129 0.012369238 0.45221692
-0.1040239 0.012364776 0.45207363
-0.10356355 0.012357538 0.45182884
-0.10315379 0.012356304 0.45180348
-0.10272701 0.012353015 0.45170292
-0.10229481 0.012349045 0.4515774
-0.10184518 0.012342933 0.45137349
-0.1014186 0.012339576 0.45127022
-0.10097744 0.012334413 0.45110086
-0.10057059 0.012333416 0.45108381
-0.10012037 0.012327072 0.45087111
-0.09970475 0.012324955 0.45081297
-0.09924344 0.01231715 0.45054668
-0.098848872 0.012317599 0.45058224
-0.098400123 0.012311272 0.45036992
-0.097954296 0.012305262 0.45016909
-0.097546838 0.012304042 0.45014343
-0.097127676 0.012301332 0.45006317
-0.096722528 0.012300381 0.45004719
-0.096324816 0.01230037 0.45006561
-0.095917076 0.012299075 0.45003691
-0.095513292 0.012298279 0.45002645
-0.095115364 0.012298233 0.45004341
-0.094721906 0.012298767 0.45008147
-0.094343297 0.012301243 0.45019057
-0.12744999 0.012993774 0.4590362
-0.12699495 0.012988839 0.45888439
-0.12655638 0.012985561 0.45879114
-0.12608854 0.01297925 0.4585906
-0.12567402 0.012978406 0.45858318
-0.12518595 0.012969933 0.45830619
-0.12479805 0.01297182 0.45839521
-0.12427937 0.012960081 0.45800266
-0.1238528 0.012957903 0.45794788
-0.12338183 0.012951047 0.45772779
-0.12295139 0.012948415 0.45765692
-0.12250771 0.012944371 0.45753604
-0.12206344 0.012940233 0.45741186
-0.12165228 0.01293959 0.45741117
-0.12120271 0.012934847 0.45726544
-0.12074634 0.012929343 0.45709273
-0.12031868 0.012926885 0.45702773
-0.11987871 0.012923084 0.4569152
-0.11940832 0.012915967 0.45668533
-0.1189883 0.012914267 0.45664698
-0.11849605 0.012904694 0.45633015
-0.11807963 0.012903338 0.45630378
-0.11763438 0.012898814 0.45616537
-0.11718035 0.012893291 0.45599157
-0.11676574 0.012892086 0.45597041
-0.11631516 0.012886883 0.45580781
-0.11583324 0.012878162 0.45552069
-0.11544366 0.012879684 0.45559582
-0.11499972 0.012875127 0.45545593
-0.11454348 0.012869156 0.45526594
-0.11410874 0.012865571 0.45516026
-0.11368365 0.01286305 0.45509219
-0.1132317 0.012857464 0.45491558
-0.11278851 0.012852833 0.45477274
-0.11235525 0.012849307 0.45466891
-0.1118988 0.012843093 0.45446995
-0.11146821 0.012839812 0.4543747
-0.11104249 0.012837074 0.45429856
-0.11059911 0.012832263 0.45414904
-0.11016447 0.012828439 0.45403436
-0.10974016 0.012825792 0.45396131
-0.1092563 0.012816139 0.45364022
-0.10890393 0.0128219 0.45386463
-0.1084111 0.012811103 0.45350289
-0.10796075 0.012805264 0.45331663
-0.10755683 0.012804911 0.45332444
-0.10711986 0.012800604 0.45319226
-0.10665966 0.012793479 0.45296025
-0.10623836 0.012790986 0.45289212
-0.10580553 0.012787078 0.4527739
-0.10534055 0.012779241 0.45251644
-0.10496736 0.012782524 0.45265269
-0.10447364 0.012771098 0.452268
-0.10407588 0.01277136 0.45229712
-0.10360423 0.01276252 0.45200387
-0.10319213 0.012760978 0.45196903
-0.10277656 0.012758993 0.45191839
-0.10233714 0.012754017 0.45176181
-0.10188439 0.012747337 0.45154476
-0.10146771 0.012745137 0.45148635
-0.10103016 0.012740288 0.45133403
-0.10061754 0.012738554 0.45129201
-0.10020483 0.012736796 0.45124909
-0.099795863 0.012735502 0.45122251
-0.099296391 0.012722603 0.45078465
-0.098874405 0.012719565 0.45069623
-0.098444849 0.012715527 0.45057219
-0.098030098 0.012713377 0.450515
-0.097566143 0.012704801 0.45023006
-0.097161539 0.012703916 0.45021763
-0.09673427 0.012700047 0.45009938
-0.096320197 0.012697888 0.45004159
-0.095911138 0.012696374 0.45000666
-0.095513828 0.012696409 0.45002651
-0.095110781 0.012695679 0.4500193
-0.094715334 0.012695962 0.45004782
-0.094315343 0.012695636 0.45005473
-0.093924411 0.012696531 0.45010489
-0.093552053 0.012699955 0.45024467
-0.12845576 0.013421219 0.4596765
-0.12792702 0.013408499 0.45926344
-0.12752256 0.013408767 0.45929524
-0.12703219 0.013399974 0.45901662
-0.12662686 0.013400125 0.45904428
-0.12617128 0.013394943 0.45888919
-0.12570366 0.013388443 0.45868897
-0.12526709 0.013385219 0.45860088
-0.12480252 0.013378976 0.45840928
-0.12435417 0.013374434 0.45827594
-0.12388914 0.013368062 0.45807984
-0.12349948 0.01336981 0.45816192
-0.12300936 0.013360657 0.45787039
-0.12253947 0.013353647 0.45765224
-0.1221448 0.013354816 0.45771438
-0.12173007 0.013353792 0.4577013
-0.12123892 0.013344353 0.4573997
-0.12077738 0.013338116 0.45720786
-0.12035912 0.013336635 0.45717895
-0.11988293 0.013328704 0.45692885
-0.11949008 0.013330016 0.45699561
-0.11903148 0.013323978 0.4568103
-0.11857912 0.0133186 0.45664757
-0.1181567 0.013316559 0.45659924
-0.11766637 0.013306824 0.45628703
-0.11726812 0.013307471 0.45633072
-0.11681415 0.013301778 0.45615697
-0.11634082 0.013293833 0.45590594
-0.11593018 0.013293024 0.45589954
-0.11549656 0.013289563 0.45580214
-0.11504646 0.013284176 0.45563865
-0.11454584 0.013272895 0.45527291
-0.11415758 0.013274601 0.4553526
-0.11371063 0.013269472 0.45519775
-0.11330241 0.013268841 0.45519719
-0.11286846 0.013265183 0.45509267
-0.11236275 0.013253034 0.4546968
-0.11195059 0.013251873 0.45467785
-0.11150668 0.013246929 0.45452908
-0.11112221 0.013249039 0.45462221
-0.11065437 0.013241187 0.45437354
-0.11019388 0.013234161 0.45415312
-0.10976935 0.013231418 0.4540796
-0.10933451 0.013227408 0.45396253
-0.1089081 0.013224394 0.45387957
-0.1084763 0.013220698 0.45377317
-0.10803845 0.013216234 0.45364037
-0.10760034 0.013211707 0.45350534
-0.10717143 0.01320828 0.453408
-0.10671459 0.013201372 0.45319107
-0.10627378 0.013196403 0.45304066
-0.10584645 0.013193077 0.45294657
-0.10543872 0.013192177 0.45293573
-0.10501365 0.013189093 0.45284986
-0.10456422 0.013182915 0.45265761
-0.10409395 0.013174051 0.45237315
-0.10370347 0.013175257 0.45243439
-0.10323476 0.013166496 0.45215327
-0.10281342 0.013163731 0.45207801
-0.10237631 0.013158917 0.45193231
-0.1019494 0.013155382 0.45183048
-0.10150897 0.013150066 0.45166746
-0.10105945 0.013143528 0.4514623
-0.10062982 0.013139537 0.45134458
-0.10023226 0.013139716 0.45137009
-0.099818364 0.013137748 0.45132178
-0.099354289 0.013129133 0.45104498
-0.098888606 0.013120235 0.45075843
-0.098497756 0.013121235 0.45081186
-0.098074816 0.013117949 0.45071802
-0.097653121 0.013114807 0.450629
-0.097213224 0.013109182 0.45045465
-0.096782573 0.013104763 0.45032161
-0.096335977 0.013098141 0.45011282
-0.095917255 0.013095269 0.45003283
-0.095511533 0.013094155 0.45001322
-0.095108651 0.013093424 0.45000666
-0.094711438 0.013093472 0.45002681
-0.094311222 0.013093102 0.45003256
-0.093921438 0.013094184 0.45008817
-0.093526006 0.013094482 0.45011678
-0.093125626 0.013094089 0.45012155
-0.092767537 0.013099667 0.45033151
-0.092346564 0.013096372 0.45023644
-0.12894312 0.013837771 0.45993665
-0.12843762 0.013827237 0.45960915
-0.12800963 0.013825006 0.45955762
-0.12756734 0.013821212 0.45945409
-0.12711795 0.013816623 0.45932406
-0.12664707 0.01380966 0.45911512
-0.12620583 0.013805897 0.45901242
-0.12576935 0.01380263 0.4589262
-0.12529832 0.013795538 0.45871279
-0.12488325 0.013794581 0.45870331
-0.12442185 0.013788486 0.45852289
-0.12400587 0.0137874 0.45850903
-0.12351449 0.013777897 0.45821515
-0.12307784 0.013774456 0.45812285
-0.1226438 0.013771283 0.45803943
-0.12219062 0.013765937 0.45788363
-0.12172437 0.013759075 0.45767742
-0.12131585 0.013758716 0.45768744
-0.12083099 0.013749667 0.45740834
-0.12040679 0.013747485 0.45735759
-0.11995484 0.013742107 0.45720047
-0.11950035 0.013736404 0.45703244
-0.1190687 0.013733295 0.45695072
-0.11863922 0.013730414 0.45687655
-0.11819935 0.013726311 0.4567616
-0.11778223 0.013724827 0.45673379
-0.11733415 0.013719714 0.4565852
-0.11685335 0.013710728 0.45630756
-0.1164056 0.013705571 0.45615736
-0.11596887 0.013701679 0.4560492
-0.11552451 0.013696856 0.45590994
-0.11508522 0.013692602 0.45578963
-0.11465999 0.013689999 0.45572418
-0.11421599 0.013685126 0.45558313
-0.11374953 0.01367752 0.455351
-0.11331245 0.013673406 0.45523503
-0.11288765 0.013670747 0.45516753
-0.11248755 0.013671073 0.45519933
-0.11200836 0.013661754 0.45490995
-0.11157202 0.013657615 0.45479295
-0.11114793 0.013654949 0.45472494
-0.11068393 0.013647344 0.45449239
-0.11026372 0.013645102 0.45443842
-0.10981366 0.013639137 0.45426038
-0.10937964 0.013635128 0.4541474
-0.10894799 0.013631386 0.45404324
-0.10850829 0.013626605 0.45390445
-0.10806272 0.013621049 0.45373976
-0.10764931 0.013619521 0.45370921
-0.10718982 0.013612129 0.45348325
-0.10675766 0.013608165 0.45337141
-0.10632125 0.013603631 0.45324048
-0.10590082 0.013601112 0.45317668
-0.10548489 0.013599154 0.45313147
-0.10505814 0.013595783 0.45303914
-0.10462149 0.0135911 0.452903
-0.10419454 0.013587644 0.45280772
-0.10371876 0.013577771 0.4524985
-0.1033133 0.013577062 0.45249465
-0.10286178 0.013570272 0.45228806
-0.1024362 0.013566865 0.45219412
-0.10196331 0.01355714 0.45188951
-0.1015908 0.013560738 0.45202899
-0.1011482 0.013554972 0.45185623
-0.10067625 0.013545211 0.45155028
-0.10025953 0.013542834 0.45149028
-0.099820204 0.013537372 0.45132747
-0.099412203 0.013536132 0.45130533
-0.098974638 0.013530839 0.45114803
-0.09855219 0.013527581 0.45105845
-0.098082073 0.013517723 0.45074877
-0.097686067 0.013518043 0.45077842
-0.097272925 0.013515985 0.45072865
-0.096837021 0.013510734 0.4505724
-0.09639591 0.01350471 0.45039025
-0.095967159 0.013500375 0.45026436
-0.095523849 0.013493947 0.45006862
-0.095115595 0.013492439 0.45003691
-0.094706327 0.013490774 0.4499999
-0.094312675 0.013491329 0.45003685
-0.093906865 0.013490144 0.45001572
-0.093518384 0.013491446 0.4500775
-0.093116261 0.013490786 0.45007372
-0.092736498 0.013493371 0.45017824
-0.092341311 0.013493726 0.45020819
-0.091968328 0.013497343 0.45034698
-0.12900999 0.014253384 0.46017271
-0.12851103 0.014243288 0.45986938
-0.12805068 0.014237421 0.45970258
-0.12764879 0.014238035 0.45974499
-0.12717961 0.014231124 0.45954436
-0.12669902 0.01422289 0.45930097
-0.12628178 0.014221735 0.45928612
-0.12580836 0.014214229 0.45906609
-0.12537475 0.014211184 0.45899016
-0.12495191 0.014209345 0.45895302
-0.12447255 0.014201045 0.45870724
-0.12404475 0.014198592 0.45865023
-0.12356945 0.014190671 0.45841652
-0.12315624 0.01418985 0.45841214
-0.12269971 0.014184016 0.45824575
-0.12225086 0.014179033 0.45810685
-0.12179922 0.014173694 0.45795634
-0.12136417 0.014170256 0.45786718
-0.12093475 0.014167454 0.45779854
-0.1204607 0.014159389 0.45755979
-0.12001169 0.014154224 0.45741469
-0.11958347 0.014151481 0.45734781
-0.11913627 0.014146468 0.4572075
-0.11868841 0.01414134 0.45706344
-0.118257 0.014138146 0.45698181
-0.11777239 0.014128548 0.45669311
-0.11736473 0.014128147 0.45670167
-0.11691085 0.014122157 0.4565295
-0.11644878 0.014115138 0.45632401
-0.11601681 0.014111729 0.45623517
-0.11557007 0.014106493 0.45608717
-0.11516411 0.014106219 0.45609951
-0.11473928 0.01410362 0.45603675
-0.11428916 0.014097884 0.45587242
-0.11381869 0.014089589 0.45562527
-0.11340432 0.014088204 0.45560154
-0.11294586 0.014081312 0.45539966
-0.11251396 0.014077697 0.45530364
-0.11207783 0.014073523 0.45518956
-0.11163318 0.014068244 0.45503962
-0.11116087 0.014059429 0.45477527
-0.11077555 0.014061593 0.45486602
-0.11029857 0.014052098 0.4545795
-0.10985125 0.014046322 0.45441326
-0.10944977 0.01404639 0.454436
-0.10898084 0.014037768 0.45417759
-0.10856472 0.014035909 0.45413792
-0.1081057 0.014028472 0.45391762
-0.10769661 0.014027484 0.45390597
-0.10724377 0.014020765 0.45370886
-0.10682978 0.014019098 0.45367515
-0.10635649 0.014009604 0.45338807
-0.10593345 0.014006685 0.45331365
-0.10547762 0.01399939 0.45309761
-0.10507051 0.013998535 0.45308986
-0.10465404 0.013996417 0.45304129
-0.10423364 0.013993757 0.45297506
-0.10379151 0.013988147 0.45281327
-0.10330742 0.013976818 0.45246628
-0.10290594 0.013976621 0.4524796
-0.10247037 0.013971773 0.45234227
-0.10203786 0.01396731 0.45221731
-0.10161206 0.01396373 0.45212093
-0.10118493 0.01395994 0.45201766
-0.1007314 0.013952464 0.45179498
-0.10036781 0.013957433 0.45197526
-0.099934883 0.013952766 0.45184335
-0.099531382 0.013952183 0.45184368
-0.09914092 0.013953433 0.45190334
-0.096899331 0.013918282 0.45085964
-0.096454956 0.013911646 0.45066345
-0.096018262 0.013906069 0.4505015
-0.095554858 0.01389656 0.45021206
-0.095129468 0.013892526 0.45009992
-0.094726779 0.013891784 0.4500944
-0.094317831 0.013890117 0.45005885
-0.093907893 0.013888286 0.4500179
-0.093515933 0.013889113 0.45006302
-0.093109854 0.013887841 0.45004007
-0.092716262 0.013888428 0.45007727
-0.092318632 0.013888413 0.45009497
-0.0919431 0.013891736 0.45022073
-0.091584221 0.013897616 0.45042935
-0.12947451 0.014668237 0.46034884
-0.12904602 0.014665915 0.46029866
-0.12858592 0.014659972 0.4601348
-0.12814292 0.01465595 0.46003115
-0.12768973 0.01465073 0.45988989
-0.12722854 0.014644557 0.45971861
-0.12678872 0.014640812 0.45962361
-0.12628172 0.014629262 0.45928341
-0.12589383 0.01463148 0.45937544
-0.12540948 0.014622463 0.45911473
-0.12499525 0.014621591 0.45910966
-0.12453565 0.01461539 0.45893723
-0.12406449 0.014607787 0.45872068
-0.12362286 0.014603623 0.45861208
-0.12317315 0.014598474 0.45847249
-0.12278147 0.014600191 0.45854849
-0.12228607 0.014589547 0.45823625
-0.12189185 0.01459094 0.45830199
-0.12139333 0.014579819 0.45797461
-0.12096017 0.014576497 0.45789221
-0.12053318 0.014573902 0.45783249
-0.12012053 0.014573028 0.45782685
-0.11964601 0.014564616 0.45758435
-0.11919599 0.014559143 0.45743409
-0.1187544 0.014554661 0.45731494
-0.11831266 0.014550135 0.4571943
-0.11783025 0.014540555 0.45691484
-0.11741564 0.014539307 0.45689714
-0.11696655 0.014533766 0.45674446
-0.1165092 0.014527156 0.45655814
-0.11610913 0.014527666 0.45659551
-0.11563741 0.014519185 0.45635027
-0.11522203 0.014517745 0.45632628
-0.11477144 0.014511841 0.45616192
-0.11433225 0.014507342 0.45604166
-0.11386286 0.014498967 0.45579943
-0.11343579 0.014495941 0.45572534
-0.11299106 0.01449063 0.45557931
-0.11256424 0.01448758 0.45550442
-0.11211269 0.014481318 0.4553284
-0.11168203 0.01447772 0.45523608
-0.11123034 0.01447136 0.45505685
-0.1108176 0.014470038 0.45503604
-0.1103329 0.014459278 0.45471829
-0.10990857 0.014456378 0.45464775
-0.10951532 0.01445756 0.45470551
-0.10904144 0.014448068 0.45442742
-0.10860343 0.014443278 0.45429718
-0.1081636 0.014438208 0.4541581
-0.10775398 0.014437148 0.45414507
-0.10730291 0.014430506 0.4539564
-0.10685217 0.014423857 0.45376748
-0.10642867 0.01442085 0.45369306
-0.10601443 0.014419082 0.45365751
-0.10552438 0.014406948 0.4532958
-0.10511963 0.014406414 0.45329899
-0.10469225 0.014402763 0.45320401
-0.10426695 0.01439937 0.45311713
-0.10381342 0.014392039 0.45290619
-0.10338774 0.014388524 0.45281535
-0.10295024 0.014383332 0.45267165
-0.10251739 0.014378753 0.45254716
-0.10211196 0.014378 0.45254299
-0.10165106 0.014369396 0.45229173
-0.10120434 0.014362739 0.45210165
-0.10076085 0.014356493 0.45192435
-0.10039517 0.014361324 0.45209578
-0.10001488 0.014364095 0.45220229
-0.096496642 0.014316496 0.45085549
-0.096012063 0.014303651 0.45046967
-0.095611237 0.014303229 0.45047498
-0.095200136 0.014301258 0.45043153
-0.094760709 0.014295 0.45025289
-0.094358049 0.014294259 0.45024797
-0.093914926 0.014287353 0.45004886
-0.093508542 0.014286005 0.45002472
-0.093107991 0.014285541 0.45002833
-0.092710897 0.014285604 0.45004851
-0.092313282 0.014285588 0.45006609
-0.091929466 0.014287716 0.45015123
-0.091553152 0.014291034 0.45027381
-0.12994836 0.015084494 0.46055681
-0.12954323 0.015084857 0.4605906
-0.12907453 0.015077796 0.46039769
-0.12862805 0.015073297 0.46028295
-0.1281819 0.015068807 0.46016848
-0.12770551 0.015060722 0.45994416
-0.12729844 0.015060783 0.45996857
-0.12685598 0.015056649 0.45986474
-0.12640472 0.015051439 0.45972809
-0.12593608 0.01504412 0.45952696
-0.12546621 0.015036607 0.45931977
-0.12503493 0.015033683 0.45925277
-0.12460589 0.015031012 0.45919341
-0.12414579 0.015024561 0.45901865
-0.1237046 0.015020368 0.45891267
-0.1232461 0.015014036 0.45874134
-0.12279735 0.015008855 0.45860514
-0.12234614 0.015003338 0.4584586
-0.12192326 0.015001273 0.45841745
-0.12148537 0.014997339 0.45831919
-0.12101811 0.01498974 0.45810887
-0.12059088 0.014987065 0.45804897
-0.1201234 0.014979355 0.45783511
-0.11968714 0.0149755 0.45773903
-0.11924055 0.014970318 0.45760238
-0.11879006 0.014964613 0.45744959
-0.11834702 0.014959808 0.4573243
-0.11790554 0.01495517 0.4572041
-0.11748782 0.014953524 0.45717525
-0.11700251 0.014943236 0.45688218
-0.11661345 0.014945211 0.45696393
-0.11616254 0.014939244 0.45680287
-0.11565842 0.01492637 0.45643052
-0.115282 0.014929943 0.45656103
-0.1148009 0.014919939 0.45627627
-0.11440649 0.01492117 0.45633504
-0.11389281 0.014906798 0.45591658
-0.11347414 0.014904804 0.45587665
-0.11306635 0.014904231 0.45588014
-0.11259069 0.014894675 0.45560876
-0.11217917 0.014893565 0.45559567
-0.1117546 0.014890708 0.45552915
-0.11130024 0.014883849 0.45534009
-0.11083528 0.014875518 0.4551059
-0.11042723 0.014874789 0.45510432
-0.10995891 0.014865909 0.45485318
-0.10950823 0.014859359 0.45467329
-0.10910606 0.014859363 0.45469397
-0.10863402 0.014849822 0.45442238
-0.10822621 0.014849018 0.45441821
-0.10780519 0.014846393 0.45435816
-0.10732625 0.01483574 0.45405239
-0.10691921 0.014834983 0.45404947
-0.10645401 0.014826122 0.45379838
-0.1060486 0.014825548 0.45380098
-0.10559034 0.014817558 0.45357642
-0.10514563 0.014811415 0.45340833
-0.10472688 0.014808897 0.45335114
-0.1042824 0.014802705 0.45318148
-0.10387032 0.014801082 0.45315161
-0.10342358 0.014794493 0.45296958
-0.10300554 0.01479197 0.45291203
-0.10256305 0.014785904 0.45274594
-0.10212841 0.014780927 0.45261309
-0.1016891 0.014775232 0.45245823
-0.10129111 0.014775521 0.45248649
-0.10086992 0.014772414 0.45241073
-0.10050447 0.014777478 0.4525851
-0.10017895 0.014788477 0.45294133
-0.09520907 0.014701052 0.45047095
-0.094797753 0.014698983 0.45042604
-0.094397999 0.014698698 0.45043579
-0.093944438 0.014689995 0.45018744
-0.093518525 0.014685563 0.4500699
-0.093101546 0.014682499 0.4499943
-0.092699215 0.014681732 0.44998893
-0.092310905 0.014683186 0.45005164
-0.091913968 0.014683277 0.4500725
-0.091528721 0.014685244 0.45015079
-0.091140375 0.014686728 0.45021421
-0.090757236 0.014689066 0.45030379
-0.090325624 0.01468355 0.45015246
-0.13000554 0.015500134 0.46075675
-0.12959713 0.015500136 0.46077955
-0.12917466 0.015498453 0.46075225
-0.12872773 0.015493814 0.46063697
-0.12822407 0.015482296 0.46031713
-0.12777098 0.015476829 0.46017718
-0.12737215 0.015477923 0.4602322
-0.12688899 0.015468743 0.45998171
-0.12642778 0.01546219 0.45980927
-0.1260308 0.015463472 0.45986983
-0.12557572 0.015457612 0.45971793
-0.12510966 0.015450359 0.45952451
-0.12466411 0.015445601 0.45940524
-0.12421101 0.015439872 0.45925707
-0.12377378 0.015436083 0.45916653
-0.12334266 0.015433037 0.45909807
-0.12289277 0.015427615 0.45895883
-0.12237816 0.015414001 0.45857587
-0.12196468 0.015413079 0.45857042
-0.12152176 0.015408419 0.45845374
-0.12109207 0.01540541 0.45838612
-0.12066279 0.015402433 0.4583194
-0.12018675 0.015393448 0.45807379
-0.11975585 0.015390205 0.45799902
-0.11928684 0.015382021 0.4577772
-0.11891951 0.015386944 0.45794535
-0.11842144 0.015374923 0.45760915
-0.11795606 0.015367078 0.45739725
-0.11750668 0.015361271 0.45724589
-0.11709367 0.015360197 0.4572354
-0.11662688 0.015352035 0.45701379
-0.11617175 0.015345355 0.45683634
-0.11576129 0.015344551 0.45683369
-0.1153104 0.015338367 0.45667079
-0.11488749 0.01533587 0.45661765
-0.11445459 0.015332019 0.4565241
-0.11396555 0.015320593 0.45620498
-0.11354856 0.015318806 0.45617285
-0.11308138 0.015310213 0.45593792
-0.11266774 0.015308832 0.45591769
-0.11220233 0.015300383 0.45568696
-0.11177038 0.015296451 0.45559067
-0.11134668 0.015293625 0.45552728
-0.11092203 0.015290646 0.45545927
-0.11046007 0.015282485 0.45523685
-0.11000561 0.015275305 0.45504355
-0.10958753 0.015273143 0.45499969
-0.10912099 0.015264189 0.4547534
-0.10872178 0.015264618 0.45478663
-0.10828593 0.01525989 0.45466614
-0.10785344 0.0152556 0.45455864
-0.10738698 0.015246456 0.45430645
-0.10696429 0.015243481 0.45423803
-0.10654286 0.015240665 0.45417422
-0.1060887 0.015233126 0.45396969
-0.10564099 0.015226461 0.45379114
-0.10524177 0.015226762 0.45382005
-0.10479405 0.015220018 0.453639
-0.10434567 0.015213132 0.45345357
-0.10395028 0.015213944 0.45349759
-0.10347507 0.015203036 0.45319223
-0.10303293 0.015196921 0.4530296
-0.10259555 0.015191464 0.45288649
-0.10220085 0.015192308 0.45293128
-0.10176472 0.015186978 0.45279184
-0.10139404 0.01519141 0.45294341
-0.1009617 0.015186603 0.45281953
-0.095191367 0.015096697 0.45038432
-0.094814666 0.015100072 0.45050353
-0.094414145 0.015099668 0.45050988
-0.093995914 0.015096416 0.45043126
-0.093554683 0.015089426 0.450241
-0.093143754 0.015087286 0.45019537
-0.092720099 0.015083059 0.45008737
-0.092307329 0.015080571 0.45003128
-0.091912277 0.015080972 0.45006129
-0.091525771 0.015082782 0.45013332
-0.091131657 0.015083351 0.45016825
-0.090751298 0.01508621 0.45027143
-0.090363413 0.015087838 0.45033786
-0.089974716 0.015089345 0.45040059
-0.13102287 0.015933516 0.46141446
-0.13007624 0.015917787 0.46100461
-0.12965693 0.015916478 0.46098939
-0.12921908 0.015912879 0.46090788
-0.12873647 0.01590373 0.46066546
-0.12832935 0.015903877 0.46069232
-0.12786356 0.01589673 0.46050787
-0.12743656 0.015894376 0.46046221
-0.12693931 0.015883215 0.46016136
-0.12650511 0.015879897 0.46008772
-0.12609352 0.015879409 0.46009591
-0.12563379 0.015872832 0.45992774
-0.1251588 0.015864279 0.45970222
-0.12472327 0.015860692 0.45962048
-0.12427553 0.015855519 0.45949277
-0.12382723 0.015850242 0.45936206
-0.12339146 0.015846541 0.45927688
-0.1229151 0.015837584 0.45903942
-0.12247216 0.015832888 0.45892531
-0.12202296 0.01582735 0.45878676
-0.12157994 0.01582258 0.45867041
-0.12114166 0.015818393 0.45857099
-0.12069508 0.015813095 0.4584392
-0.12023917 0.015806535 0.45827079
-0.11979241 0.015801135 0.45813602
-0.11936577 0.015798362 0.45807731
-0.11890036 0.015790422 0.45786873
-0.11843051 0.015781837 0.45764139
-0.11799292 0.015777504 0.45753729
-0.1175684 0.015774898 0.4574832
-0.11715566 0.015773859 0.45747453
-0.11667755 0.015763981 0.45720947
-0.11625579 0.015761677 0.45716396
-0.11581485 0.015756745 0.45704222
-0.11537892 0.015752465 0.45693925
-0.11493783 0.015747445 0.45681489
-0.11446942 0.015738633 0.45658037
-0.1140138 0.015731527 0.45639527
-0.11362149 0.015733134 0.45646295
-0.1131521 0.015724042 0.45622018
-0.11269058 0.015715985 0.4560073
-0.11228613 0.015715854 0.45602438
-0.11182948 0.015708392 0.4558287
-0.11136859 0.015700279 0.455614
-0.11096874 0.015700743 0.45564818
-0.11052753 0.015695337 0.45551193
-0.11007126 0.015687745 0.45531222
-0.10964035 0.015683725 0.45521614
-0.10916337 0.015673062 0.45492709
-0.10877043 0.015674429 0.45498726
-0.10832716 0.015668528 0.45483631
-0.10790658 0.015665878 0.45477968
-0.10746086 0.015659545 0.45461613
-0.1069956 0.015650304 0.45436808
-0.1065804 0.015648346 0.45433137
-0.10611655 0.015639201 0.45408595
-0.10570333 0.015637482 0.45405599
-0.10528295 0.015634682 0.45399472
-0.10485693 0.015631022 0.45390832
-0.1044391 0.015628558 0.45385665
-0.10394844 0.015615135 0.45348662
-0.10352106 0.015611149 0.45339066
-0.10309973 0.015608054 0.45332041
-0.10269415 0.015607324 0.45331883
-0.10224544 0.015600009 0.45312595
-0.10187589 0.01560476 0.45328349
-0.10146209 0.015602748 0.45324448
-0.10107511 0.015604859 0.45332518
-0.0948494 0.015504216 0.45066559
-0.094438404 0.015502106 0.45062265
-0.094039112 0.015501908 0.45063528
-0.093612574 0.015497196 0.45051661
-0.093186297 0.015492489 0.450398
-0.092751622 0.015486343 0.45023745
-0.092330724 0.015482448 0.45014235
-0.091919638 0.015480175 0.45009434
-0.091521069 0.015480001 0.45010725
-0.091130272 0.015481143 0.45015839
-0.090741083 0.01548257 0.45021775
-0.09035375 0.01548433 0.45028675
-0.089961089 0.015485186 0.45032939
-0.089589387 0.015489676 0.45047763
-0.13152023 0.016354125 0.4616988
-0.13108614 0.016351035 0.46163443
-0.13065226 0.016347954 0.46157029
-0.13012175 0.016332727 0.46116307
-0.12969217 0.016330108 0.4611119
-0.12924378 0.016325101 0.46099317
-0.12881255 0.016322235 0.46093488
-0.12836093 0.016316757 0.46080282
-0.12791406 0.016311856 0.46068689
-0.12750123 0.016311271 0.460693
-0.12702571 0.016302643 0.46047175
-0.12657255 0.016296837 0.46033016
-0.12612189 0.016291315 0.46019658
-0.12565888 0.016284157 0.46001673
-0.1252134 0.01627923 0.45989987
-0.12475059 0.016272014 0.45971829
-0.12432929 0.016270181 0.45968872
-0.12385177 0.016260955 0.45945019
-0.12339403 0.016254276 0.45928356
-0.12297663 0.016252883 0.45926628
-0.12252053 0.016246349 0.45910367
-0.12205499 0.016238516 0.4589043
-0.12163235 0.016236357 0.45886523
-0.12120875 0.016234057 0.45882207
-0.12074397 0.016226204 0.45862201
-0.12032679 0.01622472 0.45860183
-0.11983749 0.016213467 0.45830551
-0.11941123 0.016210698 0.45824888
-0.11895438 0.016203737 0.45807382
-0.11854142 0.016202735 0.45806706
-0.11805523 0.016191676 0.45777604
-0.11762705 0.01618853 0.45770854
-0.11720311 0.016185947 0.45765689
-0.11673637 0.016177416 0.45743707
-0.11630048 0.016173111 0.45733675
-0.11585835 0.016167907 0.4572109
-0.11540544 0.016161159 0.45704132
-0.11495412 0.016154589 0.45687664
-0.11452358 0.016150901 0.45679349
-0.11409761 0.016147833 0.4567278
-0.11365503 0.016142385 0.45659474
-0.11319146 0.016133906 0.4563759
-0.11277045 0.016131455 0.4563275
-0.11233442 0.01612683 0.45621756
-0.11187804 0.016119242 0.45602369
-0.11145225 0.016116019 0.4559533
-0.11097837 0.016105797 0.45568475
-0.11056881 0.016104868 0.45567915
-0.11013189 0.016099932 0.45556006
-0.10969108 0.016094388 0.45542377
-0.10921469 0.016083565 0.45513794
-0.10881629 0.01608419 0.45517612
-0.10839339 0.016081182 0.45511138
-0.1079248 0.016071353 0.4548535
-0.10751455 0.01607017 0.45484024
-0.10704745 0.016060447 0.45458525
-0.10665108 0.016061302 0.45462966
-0.10616693 0.016048897 0.45429856
-0.10577454 0.01605032 0.45435885
-0.10530278 0.016039664 0.45407721
-0.1048508 0.016031951 0.45387876
-0.10446231 0.016033923 0.45395449
-0.10400977 0.016026046 0.45375121
-0.1036005 0.016024796 0.45373559
-0.10316327 0.016019197 0.45359674
-0.1027212 0.016012799 0.45343521
-0.10230149 0.01600985 0.45337129
-0.10191587 0.016012238 0.45345837
-0.10150308 0.016010357 0.45342454
-0.10118066 0.01602277 0.45379552
-0.094508007 0.015912386 0.45095176
-0.094068721 0.015905468 0.45077407
-0.093671896 0.015905704 0.45079908
-0.093241401 0.015900198 0.4506613
-0.092795506 0.01589201 0.45044738
-0.092351615 0.015884098 0.45024115
-0.091959484 0.015885053 0.45028636
-0.091537312 0.01588081 0.45018402
-0.091129653 0.015879057 0.45015225
-0.090736203 0.015879774 0.45019045
-0.090354823 0.015882621 0.45028895
-0.089955389 0.015882308 0.4502978
-0.089575991 0.015885543 0.45040718
-0.13157107 0.016770508 0.4618744
-0.13114282 0.016768109 0.46183115
-0.13065337 0.016757844 0.46157128
-0.13024828 0.016758373 0.46160859
-0.12977558 0.016750181 0.46140561
-0.12929089 0.016740376 0.46115828
-0.12885205 0.016736474 0.46107334
-0.12841666 0.016732989 0.46099997
-0.1279759 0.016728783 0.46090668
-0.12755236 0.01672681 0.46087486
-0.12706101 0.016715903 0.46059674
-0.12662616 0.016712384 0.4605222
-0.12618335 0.016707785 0.46041784
-0.12568344 0.016695574 0.46010372
-0.12526429 0.016694045 0.46008384
-0.12478738 0.016684784 0.45985088
-0.12437013 0.016683465 0.45983675
-0.12394393 0.016680935 0.45978916
-0.12345327 0.016669681 0.45950109
-0.12305529 0.016670913 0.45955709
-0.12257432 0.016660867 0.45930228
-0.12212219 0.016654693 0.45915398
-0.12171255 0.016654288 0.4591648
-0.12122597 0.016643319 0.45888424
-0.12079934 0.016640536 0.45882937
-0.12033527 0.016632559 0.45863116
-0.119922 0.016631575 0.45862573
-0.1194919 0.016628237 0.45855546
-0.11899044 0.016614918 0.45820972
-0.1185896 0.016615603 0.45825022
-0.11814587 0.016610261 0.45812449
-0.11763753 0.01659577 0.4577463
-0.11726061 0.016599784 0.45787844
-0.11674495 0.016584115 0.45746768
-0.1163389 0.016583966 0.45748484
-0.11592617 0.016582858 0.45747554
-0.1154749 0.01657621 0.45731339
-0.11500841 0.016567323 0.45708942
-0.11458894 0.01656517 0.45705116
-0.11414213 0.016559036 0.45690301
-0.1136878 0.016551765 0.45672339
-0.1132641 0.016548917 0.45666578
-0.11281893 0.016542898 0.45652062
-0.1123925 0.016539596 0.4564504
-0.11194532 0.016533207 0.45629483
-0.11148465 0.016524773 0.45608282
-0.11106985 0.016523097 0.45605731
-0.11061738 0.01651579 0.45587623
-0.11015826 0.016507428 0.45566607
-0.10971071 0.016500749 0.45550224
-0.10929143 0.016498284 0.45545474
-0.10886379 0.016494537 0.45537171
-0.1084227 0.01648872 0.45523146
-0.10799484 0.016484877 0.45514566
-0.10755637 0.016479379 0.45501411
-0.10710466 0.016471803 0.45482516
-0.10666528 0.016466074 0.45468709
-0.10623649 0.016461944 0.45459315
-0.10577267 0.016452333 0.45434779
-0.10538231 0.016454119 0.45441705
-0.10492593 0.016445572 0.45420092
-0.10448394 0.016439222 0.45404541
-0.10410973 0.016443528 0.4541842
-0.10363182 0.016431428 0.4538697
-0.10318556 0.016424268 0.45369163
-0.10276858 0.016421735 0.45364124
-0.10231408 0.016413165 0.45342404
-0.10194437 0.016418181 0.45358208
-0.1015429 0.016418098 0.4535993
-0.10123112 0.016432578 0.45401871
-0.094540045 0.016316768 0.45110148
-0.094139703 0.016316449 0.45111105
-0.093675643 0.016305041 0.45081395
-0.093293168 0.016307797 0.45090836
-0.092844129 0.016298888 0.45068026
-0.092383683 0.016287895 0.45039433
-0.091977067 0.016286338 0.4503693
-0.091570936 0.016284855 0.45034626
-0.091145433 0.016279895 0.45022702
-0.090744942 0.016279381 0.45023066
-0.090348974 0.016279679 0.45025668
-0.089959435 0.016281139 0.45031482
-0.089564323 0.016281603 0.45034531
-0.089180879 0.016284201 0.45043477
-0.088801779 0.016287621 0.45054692
-0.13121024 0.017186943 0.46206561
-0.13072792 0.017177397 0.46183172
-0.13029076 0.017173741 0.4617562
-0.12983598 0.01716773 0.46161732
-0.12940724 0.017165137 0.46157032
-0.12891005 0.017153423 0.46127793
-0.1284869 0.017151516 0.46124923
-0.12799604 0.017140526 0.46097621
-0.12758602 0.017140327 0.46099344
-0.12712823 0.017133694 0.46083745
-0.12667403 0.017127499 0.46069324
-0.12622958 0.017122589 0.46058357
-0.12583201 0.017124025 0.46064454
-0.12532564 0.017110614 0.46030614
-0.12489049 0.017106878 0.46022785
-0.12443363 0.017100129 0.46006852
-0.12398048 0.017093848 0.45992172
-0.12354582 0.017090086 0.45984256
-0.12308663 0.017082894 0.45967108
-0.12263817 0.017077148 0.45953852
-0.12219679 0.017072352 0.45943144
-0.121741 0.017065505 0.45926911
-0.1213235 0.017063996 0.45925036
-0.12080645 0.017048432 0.4588533
-0.12041491 0.017050533 0.45893165
-0.11994419 0.017041398 0.45870754
-0.11953355 0.017040771 0.45871228
-0.11907507 0.017033286 0.45853254
-0.11864724 0.017030157 0.45846987
-0.11817157 0.017020116 0.45822105
-0.11775577 0.017018657 0.45820332
-0.11728244 0.017008845 0.45796058
-0.11683834 0.01700322 0.45783052
-0.11638717 0.016996525 0.45767158
-0.11596046 0.016993368 0.45760781
-0.11552837 0.016989395 0.45752209
-0.11507568 0.016982352 0.45735368
-0.11463405 0.016976904 0.457228
-0.11415742 0.016966213 0.45696115
-0.11372413 0.016961908 0.45686626
-0.11326594 0.016953848 0.45667008
-0.11286791 0.016954765 0.45671576
-0.11238437 0.016942799 0.45641425
-0.11198717 0.016943811 0.45646235
-0.11155131 0.016938958 0.45635241
-0.11110879 0.016933057 0.45621407
-0.11062641 0.016921017 0.4559103
-0.11021761 0.016920183 0.45590845
-0.10978449 0.016915595 0.45580542
-0.10932277 0.016906554 0.4555822
-0.10886874 0.016898636 0.45538932
-0.10845089 0.016896298 0.45534664
-0.10800863 0.016890125 0.45520061
-0.10765257 0.016897436 0.4554179
-0.10715273 0.016882151 0.45502612
-0.10671055 0.016875869 0.45487696
-0.10630093 0.016874705 0.45486569
-0.10585567 0.016867857 0.45470116
-0.10540138 0.016859513 0.45449615
-0.10497041 0.016854847 0.45439032
-0.10451467 0.016846154 0.45417577
-0.10413764 0.016850131 0.45430279
-0.10366403 0.016838446 0.45400754
-0.10323329 0.016833669 0.45389837
-0.10278453 0.016825898 0.4537085
-0.1023623 0.016822431 0.45363456
-0.10198452 0.016826266 0.45375752
-0.1015848 0.016826503 0.4537833
-0.10126939 0.016840758 0.45418715
-0.094608977 0.016727945 0.45142719
-0.094190449 0.016724441 0.45135102
-0.09373565 0.016714444 0.45109951
-0.093310073 0.016709592 0.4509868
-0.092904225 0.016708249 0.45096874
-0.092439964 0.016696347 0.45066553
-0.092014849 0.016691437 0.45055106
-0.09159185 0.016686872 0.45044583
-0.091177888 0.016683921 0.45038408
-0.090769336 0.016681938 0.45034841
-0.090353072 0.016678518 0.45027384
-0.089961 0.01667955 0.45031944
-0.089560658 0.016679054 0.45032367
-0.089176677 0.01668161 0.45041031
-0.088778384 0.016681502 0.45042494
-0.088412829 0.016687572 0.45060632
-0.13256697 0.017614137 0.46243975
-0.13218082 0.017617326 0.46254635
-0.13120437 0.017596371 0.46204191
-0.13081121 0.017598592 0.46212295
-0.13031548 0.017586974 0.46184072
-0.12989791 0.01758587 0.46183443
-0.12946329 0.017582446 0.46176723
-0.12901215 0.017576749 0.46164018
-0.12854342 0.017568609 0.46144903
-0.12805329 0.017557487 0.46117941
-0.1276211 0.017554259 0.46111712
-0.12717803 0.017549511 0.4610149
-0.12671392 0.017541818 0.46083525
-0.12628418 0.017538855 0.46077976
-0.12581588 0.017530495 0.46058246
-0.12538113 0.017526772 0.46050692
-0.1249195 0.017519254 0.46033168
-0.12451033 0.01751907 0.46034899
-0.12400999 0.017506015 0.46002808
-0.12358581 0.01750366 0.45998836
-0.12314072 0.017498318 0.45986998
-0.12272281 0.017496815 0.45985258
-0.12224197 0.0174863 0.45959818
-0.121811 0.017482875 0.45953009
-0.12136391 0.017477103 0.45940024
-0.12091384 0.017470863 0.45925808
-0.12044151 0.017461356 0.45902991
-0.12002151 0.017459396 0.45900011
-0.11952932 0.017446883 0.45869288
-0.11909293 0.017442459 0.45859823
-0.11867785 0.017441139 0.45858508
-0.11825564 0.017438754 0.45854396
-0.11777591 0.017427845 0.45827857
-0.11734393 0.01742395 0.45819756
-0.11692091 0.017421363 0.45815095
-0.11644487 0.017410832 0.45789534
-0.11601464 0.017407099 0.45781842
-0.1155545 0.01739884 0.45762244
-0.11513263 0.017396301 0.45757684
-0.11469766 0.01739176 0.45747855
-0.11425811 0.01738649 0.45736098
-0.11382168 0.017381659 0.45725495
-0.11332305 0.017367262 0.4568972
-0.11289489 0.017363599 0.45682171
-0.11247208 0.017360738 0.45676726
-0.11203226 0.017355219 0.45664296
-0.11160251 0.017351229 0.45655867
-0.11117404 0.017347407 0.45647886
-0.11069951 0.017336344 0.45620838
-0.1102585 0.01733047 0.45607442
-0.10984711 0.017329225 0.45606217
-0.10935879 0.017315792 0.45572913
-0.1089641 0.017317139 0.45578501
-0.10850262 0.017307838 0.45556059
-0.10808142 0.017304922 0.45550418
-0.10764094 0.017298885 0.45536551
-0.1071754 0.017288761 0.45511919
-0.10678158 0.017290173 0.45517647
-0.1063405 0.017283915 0.45503184
-0.10591583 0.017280286 0.45495632
-0.10544828 0.017269608 0.45469517
-0.10503405 0.017267613 0.4546625
-0.10458571 0.017259974 0.4544813
-0.10414188 0.017253023 0.45431805
-0.10370265 0.017246785 0.45417351
-0.10326882 0.0172414 0.45405132
-0.10285855 0.017239917 0.45403197
-0.10242066 0.01723378 0.45388988
-0.1020148 0.017233007 0.45388901
-0.10163339 0.017236372 0.45399711
-0.10128997 0.017246233 0.4542762
-0.10091195 0.017250257 0.45440158
-0.094220243 0.017129054 0.45149052
-0.093783818 0.017122196 0.45132804
-0.093363971 0.017118318 0.45124403
-0.092920355 0.017110031 0.45104373
-0.09251681 0.017109083 0.45103684
-0.092076227 0.017101245 0.45084831
-0.091641493 0.017094433 0.45068666
