# .PCD v0.7 - Point Cloud Data file format
VERSION 0.7
FIELDS x y z
SIZE 4 4 4
TYPE F F F
COUNT 1 1 1
WIDTH 1360
HEIGHT 1
VIEWPOINT 0 0 0 1 0 0 0
POINTS 1360
DATA ascii
0.082134806 -0.017316755 0.46542472
0.082518175 -0.01731094 0.46525103
0.082932591 -0.017311661 0.46525303
0.083343223 -0.017311588 0.46523356
0.083743319 -0.017309338 0.46515551
0.084115975 -0.017301466 0.46492639
0.084518626 -0.017299809 0.46486416
0.084971093 -0.017308315 0.46507505
0.085392147 -0.017310375 0.46511254
0.085815758 -0.017312927 0.4651632
0.11575148 -0.017060008 0.45683372
0.11607692 -0.017048307 0.45649853
0.11633514 -0.017026849 0.45590204
0.11674886 -0.017028222 0.45591679
0.11709101 -0.017019181 0.45565274
0.117487 -0.017018002 0.45559913
0.11791041 -0.017020786 0.45565161
0.1182688 -0.017014202 0.45545322
0.1186728 -0.017014196 0.45543092
0.11905115 -0.017010527 0.45531052
0.11942775 -0.017006636 0.4551841
0.11981366 -0.017004089 0.45509371
0.12016699 -0.016996952 0.45488045
0.12054114 -0.016992796 0.4547469
0.12091842 -0.01698911 0.45462587
0.1213088 -0.016987281 0.45455456
0.12167189 -0.016981658 0.45438161
0.12211603 -0.016987342 0.45451128
0.12248369 -0.01698239 0.45435625
0.12284567 -0.016976679 0.45418099
0.12324537 -0.016976206 0.45414576
0.12361939 -0.016972207 0.45401615
0.12396752 -0.016964691 0.45379254
0.12439822 -0.016968487 0.4538714
0.12473276 -0.016959187 0.45359999
0.12514189 -0.016960051 0.45360038
0.12549803 -0.016953753 0.45340922
0.12589286 -0.016952705 0.45335844
0.12628838 -0.016951755 0.45331025
0.12666209 -0.016947893 0.4531841
0.12700303 -0.016939688 0.45294183
0.12735556 -0.016933072 0.45274207
0.12779821 -0.016938444 0.4528628
0.12816265 -0.016933447 0.45270628
0.12855899 -0.016932681 0.45266286
0.12892681 -0.016928179 0.45251945
0.12931085 -0.016925825 0.4524335
0.12975325 -0.016931102 0.45255148
0.071416408 -0.016996151 0.46836856
0.071831822 -0.016996654 0.46836695
0.072243325 -0.016996235 0.4683398
0.072664857 -0.016998162 0.46837732
0.073061831 -0.016994359 0.46825674
0.073449261 -0.016988389 0.46807647
0.073849939 -0.016985532 0.4679819
0.074236155 -0.0169794 0.46779701
0.07462652 -0.01697428 0.46763995
0.075053759 -0.016977554 0.4677141
0.075437218 -0.016970949 0.46751592
0.075849503 -0.01697086 0.46749732
0.076212257 -0.016959751 0.46717498
0.076626144 -0.016960079 0.46716771
0.077000476 -0.016951693 0.46692032
0.077440284 -0.016957739 0.46707031
0.077826172 -0.016951973 0.46689495
0.078224123 -0.016948879 0.46679315
0.078619681 -0.016945304 0.46667796
0.078995094 -0.016937448 0.46644485
0.079403378 -0.016936682 0.46640694
0.079807609 -0.016935065 0.46634555
0.08018104 -0.016926959 0.4661054
0.080590777 -0.016926564 0.46607748
0.080967739 -0.016919326 0.46586108
0.081382863 -0.016920093 0.46586505
0.081779562 -0.016917041 0.46576378
0.082198635 -0.016918622 0.46579
0.082567513 -0.016909912 0.46553284
0.082960188 -0.016906135 0.46541142
0.083364747 -0.016904803 0.4653573
0.08374165 -0.016897907 0.46514991
0.084157713 -0.016898939 0.4651607
0.084567308 -0.016898666 0.46513551
0.084977649 -0.016898546 0.4651145
0.085443877 -0.016909491 0.46539786
0.1158065 -0.016662734 0.45705408
0.11606341 -0.016641458 0.45644858
0.11636374 -0.016626531 0.45601732
0.11678206 -0.016628513 0.45604962
0.11715806 -0.016624473 0.45591688
0.11753297 -0.016620306 0.45578054
0.11792268 -0.016618256 0.45570219
0.11836048 -0.01662297 0.45580938
0.11871603 -0.016616141 0.45559996
0.11907408 -0.016609706 0.45540136
0.11948168 -0.016610205 0.45539275
0.11986054 -0.016606716 0.45527488
0.12024885 -0.016604559 0.45519346
0.12060007 -0.016597308 0.45497233
0.1209759 -0.01659348 0.45484507
0.12134801 -0.016589172 0.45470455
0.12177194 -0.016591955 0.45475838
0.12213621 -0.016586613 0.45458949
0.12252938 -0.016585218 0.45452878
0.12289015 -0.016579462 0.45434853
0.12327819 -0.01657741 0.45426971
0.1236748 -0.016576523 0.45422277
0.12404685 -0.016572354 0.45408601
0.12441426 -0.016567601 0.453933
0.12477431 -0.016561899 0.45375413
0.1251519 -0.01655855 0.45363972
0.12551013 -0.016552676 0.45345595
0.12594604 -0.016557047 0.45355299
0.12633771 -0.016555594 0.45349032
0.12670815 -0.016551374 0.453352
0.12703329 -0.016541287 0.45305276
0.12747753 -0.016546719 0.45317864
0.12786351 -0.01654458 0.45309716
0.12820069 -0.016536159 0.45284367
0.12858996 -0.016534487 0.45277488
0.12899444 -0.016534775 0.45275974
0.12936455 -0.016530672 0.45262438
0.12975512 -0.016529199 0.45256099
0.07144551 -0.016589435 0.46856302
0.07186465 -0.016590748 0.46858463
0.072274439 -0.0165899 0.46854511
0.072681263 -0.016588388 0.46848673
0.073093563 -0.016588133 0.46846378
0.073488727 -0.016584011 0.46833158
0.07386452 -0.01657559 0.4680779
0.074273899 -0.016574759 0.46803853
0.07467261 -0.016571568 0.46793237
0.075077705 -0.016569821 0.46786702
0.075484417 -0.016568447 0.46781206
0.075868651 -0.016562181 0.46761897
0.076277755 -0.016561382 0.46758008
0.076676764 -0.016558414 0.46747991
0.077056691 -0.016551377 0.46726483
0.07746312 -0.016550077 0.46721163
0.0778386 -0.016542213 0.4669731
0.078227006 -0.016537163 0.46681389
0.078647897 -0.016539002 0.46684906
0.079031229 -0.016532958 0.46666175
0.079419494 -0.016528007 0.4665052
0.079823516 -0.016526369 0.46644202
0.080239721 -0.016527256 0.4664501
0.08062043 -0.01652086 0.46625254
0.081007019 -0.016515728 0.46609062
0.081399612 -0.016511865 0.46596447
0.081798449 -0.0165093 0.46587485
0.082206197 -0.016508553 0.46583647
0.082595147 -0.016504053 0.46569216
0.083009571 -0.016504664 0.46569198
0.083392717 -0.016499083 0.46551695
0.083770111 -0.016492423 0.4653115
0.084202833 -0.016496664 0.46541357
0.0845704 -0.016488165 0.46515611
0.08498545 -0.016488958 0.46516073
0.085396066 -0.016488887 0.46514094
0.085919447 -0.016510487 0.46573234
0.11544785 -0.016263919 0.45726383
0.11580471 -0.016257098 0.45705014
0.11607669 -0.016238449 0.45650393
0.11643277 -0.01623165 0.45629093
0.11682278 -0.016229618 0.45621178
0.1172219 -0.016228855 0.45616832
0.11756314 -0.016220111 0.45590058
0.11798515 -0.01622254 0.45594668
0.11833244 -0.01621471 0.45570448
0.11874676 -0.016216084 0.45572096
0.11913282 -0.016213605 0.45562911
0.11952484 -0.016211951 0.45556036
0.11989541 -0.016207406 0.45541042
0.12027964 -0.016204735 0.45531303
0.1206322 -0.016197827 0.4550966
0.12104943 -0.016199619 0.45512462
0.12139378 -0.016191678 0.45487911
0.12180161 -0.016192229 0.45487216
0.12218984 -0.016190182 0.45479214
0.12255754 -0.016185433 0.45463622
0.12297767 -0.016187618 0.45467511
0.12331332 -0.016178707 0.45440218
0.12367728 -0.016173553 0.45423487
0.12413277 -0.016180364 0.45440352
0.12444559 -0.016168594 0.45405033
0.1248161 -0.016164372 0.45390904
0.12522787 -0.016165502 0.45391807
0.12557942 -0.016158877 0.45370924
0.12597458 -0.016157886 0.45365873
0.12636401 -0.016156171 0.45358771
0.12672853 -0.016151289 0.45342785
0.12710315 -0.016147725 0.45330489
0.1274845 -0.016145032 0.45320636
0.12789649 -0.016146224 0.45321691
0.12823592 -0.016138278 0.45297092
0.12865983 -0.016140981 0.45302379
0.12901537 -0.016135113 0.45283616
0.12937951 -0.016130358 0.45267966
0.12982923 -0.016136263 0.45282236
0.13029408 -0.016144013 0.4530167
0.071462534 -0.016179647 0.46867821
0.071893558 -0.016183583 0.46877667
0.072286151 -0.016178869 0.46862456
0.072703071 -0.016179625 0.46863076
0.073107608 -0.016177632 0.4685573
0.073491141 -0.016171036 0.46835053
0.073918328 -0.016174067 0.46842241
0.07431028 -0.016169397 0.46827129
0.074699141 -0.016164113 0.46810222
0.075122558 -0.01616632 0.46815002
0.075488329 -0.016156165 0.46783981
0.075901903 -0.016156295 0.46782738
0.076297298 -0.016152576 0.46770337
0.076689869 -0.016148305 0.46756333
0.077095293 -0.016146766 0.46750242
0.077512354 -0.016147671 0.46751204
0.077888452 -0.016140075 0.46727559
0.078261778 -0.016131992 0.46702492
0.078672126 -0.01613158 0.46699637
0.07907062 -0.016128756 0.46689782
0.079452626 -0.016122617 0.46670327
0.079847373 -0.016119111 0.46658486
0.080258809 -0.016118996 0.46656457
0.08065185 -0.016115202 0.4664377
0.081056379 -0.016113734 0.46637809
0.081429765 -0.016106116 0.46614048
0.081825539 -0.016102983 0.46603262
0.082247987 -0.016105104 0.4660767
0.08263506 -0.016100314 0.46592066
0.083023325 -0.016095798 0.46577257
0.083416581 -0.016092293 0.4656536
0.08382903 -0.016092505 0.46564218
0.08420784 -0.016086286 0.46544468
0.084605865 -0.016083783 0.46535456
0.085013486 -0.016083118 0.46531761
0.085464261 -0.016090587 0.46551582
0.085889533 -0.016093202 0.46557358
0.1155374 -0.015870672 0.45762154
0.11581233 -0.015852761 0.45708326
0.11611358 -0.015838565 0.45665202
0.11649369 -0.015835188 0.45653275
0.11690499 -0.015836058 0.45653579
0.11724403 -0.015827168 0.45625746
0.11762058 -0.015823385 0.45612636
0.11799064 -0.015818756 0.45597088
0.11838035 -0.015816787 0.455892
0.11876089 -0.015813608 0.45577821
0.11916412 -0.015813462 0.45575178
0.11955281 -0.015811393 0.45566991
0.11993914 -0.015809027 0.45557946
0.12031852 -0.015805766 0.45546317
0.12071566 -0.015804848 0.45541435
0.12106553 -0.015797772 0.45518807
0.12145268 -0.015795587 0.45510277
0.12181779 -0.015790563 0.45493555
0.12222613 -0.015791155 0.45493016
0.12260598 -0.015788075 0.4548189
0.12299865 -0.015786661 0.4547556
0.12339608 -0.015785864 0.4547101
0.12373518 -0.015777636 0.45445043
0.12412226 -0.015775556 0.45436794
0.12452985 -0.01577609 0.45436066
0.1248996 -0.015771843 0.45421562
0.12526265 -0.015766777 0.45404702
0.12561186 -0.01576001 0.45382938
0.1260502 -0.015764432 0.45393392
0.12638433 -0.015755832 0.45366353
0.12683569 -0.01576186 0.45381418
0.12716928 -0.015753256 0.45354357
0.12753466 -0.015748631 0.45338753
0.12793525 -0.01574837 0.45335716
0.1283078 -0.015744673 0.45322773
0.1287187 -0.015745688 0.45323396
0.12908456 -0.015741205 0.45308191
0.12947391 -0.015739601 0.45301273
0.12987278 -0.015739167 0.45297715
0.13032396 -0.015745051 0.45312336
0.071505897 -0.015775474 0.4689661
0.071919471 -0.015775425 0.46894914
0.072328225 -0.015774325 0.4689008
0.072732538 -0.015772276 0.46882418
0.073130012 -0.015768772 0.46870434
0.073535144 -0.015766948 0.46863437
0.073945567 -0.015766276 0.46859851
0.07433863 -0.01576193 0.46845338
0.07474263 -0.015759937 0.46837813
0.075135693 -0.015755674 0.46823531
0.075524904 -0.01575065 0.46806988
0.075913459 -0.015745549 0.46790203
0.076317035 -0.015743596 0.4678278
0.07674031 -0.015745711 0.46787423
0.077125736 -0.015740078 0.46769038
0.077507064 -0.015733672 0.46748358
0.077919863 -0.015733687 0.46746743
0.078310095 -0.015729172 0.46731669
0.078691162 -0.015722871 0.46711275
0.079098433 -0.015721845 0.46706548
0.079502866 -0.015720267 0.46700177
0.079887278 -0.015714766 0.46682143
0.080295593 -0.015713999 0.46678174
0.080687426 -0.01571003 0.46664682
0.081072487 -0.015704794 0.46647409
0.081485003 -0.015704896 0.46646005
0.081890278 -0.015703613 0.46640465
0.0822808 -0.015699528 0.46626604
0.082648538 -0.015691156 0.46599996
0.083057135 -0.015690586 0.4659656
0.083453313 -0.015687687 0.46586204
0.083869174 -0.015688494 0.46586847
0.084258445 -0.015684348 0.46572769
0.084642097 -0.015679199 0.46555716
0.085055873 -0.015679654 0.4655529
0.08550103 -0.015685862 0.46571937
0.085874878 -0.015678991 0.46549743
0.086396664 -0.015699068 0.46607554
0.086800508 -0.015697621 0.46601456
0.11553036 -0.015463867 0.45759669
0.11586587 -0.015454495 0.45729747
0.11612789 -0.015435425 0.45671126
0.11655927 -0.015438916 0.45679262
0.11692656 -0.015433925 0.45662299
0.11727067 -0.01542592 0.4563641
0.11769658 -0.015428692 0.45642406
0.1180284 -0.015419153 0.45611975
0.11844952 -0.015421305 0.45616129
0.1188243 -0.015417426 0.45602441
0.11921004 -0.015414996 0.45593032
0.11956339 -0.015408405 0.45571312
0.11997902 -0.015409861 0.4557339
0.12035791 -0.015406599 0.45561513
0.12073448 -0.015403068 0.45548835
0.12107696 -0.015395221 0.45523396
0.1215077 -0.015398615 0.45531186
0.12186694 -0.015392952 0.45512202
0.12223992 -0.015389057 0.45498434
0.12261875 -0.015385922 0.45486918
0.12305702 -0.015390241 0.45497429
0.12341445 -0.015384452 0.45478061
0.12379225 -0.015381237 0.45466289
0.12419078 -0.015380607 0.45462164
0.12455566 -0.015375826 0.45445767
0.12492829 -0.01537203 0.45432279
0.12532124 -0.015370752 0.45426226
0.12565981 -0.01536283 0.45400542
0.12607139 -0.01536386 0.45401305
0.12646043 -0.015362143 0.4539395
0.12687081 -0.015363024 0.45394263
0.12724996 -0.015360125 0.45383412
0.12759368 -0.015352982 0.4536002
0.12796886 -0.015349659 0.45347902
0.12832302 -0.01534384 0.4532842
0.12874442 -0.01534608 0.45332736
0.1291433 -0.015345621 0.45329079
0.12948409 -0.015338287 0.45305112
0.071934238 -0.015364589 0.46904874
0.072336689 -0.01536216 0.46895903
0.072760552 -0.015364283 0.46900812
0.073149785 -0.015359108 0.46883443
0.073543042 -0.01535483 0.46868807
0.073978424 -0.015359347 0.46881005
0.074385129 -0.015357892 0.46874973
0.074758887 -0.015349691 0.46848336
0.075161465 -0.015347459 0.4683992
0.07556691 -0.01534584 0.46833354
0.075947896 -0.015339296 0.46811765
0.076343462 -0.015335749 0.46799311
0.076733008 -0.015331039 0.46783307
0.077135995 -0.015329051 0.46775594
0.077551514 -0.015329561 0.46775496
0.077947661 -0.015326257 0.46763757
0.078334026 -0.01532107 0.46746272
0.07873214 -0.015318228 0.46735927
0.079133451 -0.015316034 0.46727553
0.079542026 -0.015315257 0.46723503
0.079942748 -0.01531299 0.46714893
0.080321491 -0.015306551 0.46693552
0.080702506 -0.015300613 0.46673733
0.081106238 -0.015299018 0.46667159
0.081490666 -0.015293819 0.46649578
0.081911251 -0.015295419 0.46652737
0.082320884 -0.015294968 0.46649638
0.082684338 -0.01528599 0.46620515
0.08307758 -0.015282577 0.46608356
0.083500013 -0.01528454 0.46612597
0.083868459 -0.015276653 0.46586782
0.084283896 -0.015277355 0.46587163
0.084671266 -0.01527299 0.46572083
0.085085459 -0.015273483 0.46571812
0.085501097 -0.015274228 0.46572298
0.085963562 -0.015283291 0.46598142
0.086336702 -0.015276461 0.46575522
0.086822517 -0.01528954 0.46613595
0.11523794 -0.015072853 0.45807195
0.11554901 -0.015060459 0.45767343
0.11587101 -0.015049572 0.45732069
0.11621577 -0.015041704 0.45705971
0.11657663 -0.015035974 0.45686358
0.11698214 -0.015036017 0.45684293
0.11731923 -0.015027296 0.45655596
0.11773859 -0.015029136 0.45658979
0.1180828 -0.015021406 0.45633286
0.11850796 -0.015023989 0.45638916
0.11888273 -0.015020188 0.45625156
0.1192425 -0.015014525 0.45605731
0.1196455 -0.015014325 0.45602897
0.11998844 -0.015006614 0.45577252
0.12038337 -0.015005434 0.45571437
0.12078751 -0.015005407 0.45569119
0.12115037 -0.015000269 0.45551279
0.12153912 -0.01499836 0.45543239
0.12188704 -0.014991441 0.45519984
0.12228384 -0.014990562 0.45515063
0.12271708 -0.014994136 0.45523667
0.12309095 -0.014990458 0.45510247
0.12346072 -0.014986309 0.45495391
0.12382559 -0.014981593 0.45478812
0.12420785 -0.014979004 0.45468688
0.12461066 -0.014978901 0.4546611
0.12499421 -0.014976493 0.45456529
0.12536436 -0.0149725 0.45442131
0.12571664 -0.014966402 0.4542135
0.12613426 -0.014968099 0.4542422
0.12649842 -0.014963458 0.45407856
0.12687948 -0.014960845 0.45397639
0.12727723 -0.014960205 0.45393407
0.12765579 -0.014957321 0.45382369
0.12801367 -0.01495204 0.45364055
0.12840326 -0.014950485 0.4535704
0.12878236 -0.014947725 0.45346361
0.12916751 -0.014945677 0.4533785
0.12955749 -0.014944201 0.4533107
0.13004096 -0.014953483 0.45356911
0.07197085 -0.014958121 0.46929073
0.072376199 -0.014956315 0.46921843
0.072781071 -0.01495443 0.46914369
0.073176801 -0.014950698 0.46901086
0.073583312 -0.014949198 0.46894798
0.073993854 -0.014948528 0.46891108
0.074386954 -0.014944363 0.46876448
0.074782006 -0.014940632 0.46863148
0.075188674 -0.014939251 0.46857205
0.075578116 -0.014934483 0.46840629
0.075966686 -0.014929591 0.46823665
0.076367512 -0.014927151 0.46814382
0.076767415 -0.014924554 0.46804604
0.077173948 -0.01492327 0.46798933
0.077581495 -0.014922193 0.46793905
0.077979274 -0.014919258 0.46783045
0.078372836 -0.014915552 0.46769756
0.078759536 -0.014910586 0.46752515
0.079160281 -0.014908315 0.46743718
0.079554841 -0.014904911 0.46731356
0.079944238 -0.014900576 0.46716076
0.080356002 -0.014900436 0.46713936
0.080740273 -0.014895223 0.46695891
0.081145182 -0.014893852 0.46689883
0.081528559 -0.014888562 0.46671584
0.081936911 -0.014887865 0.46667674
0.082324356 -0.014883394 0.46651927
0.082737185 -0.014883534 0.46650624
0.083118752 -0.014878076 0.46631774
0.083515115 -0.014875305 0.46621338
0.083901063 -0.014870717 0.46605206
0.084318407 -0.014871712 0.46606556
0.084722392 -0.014870351 0.46600521
0.085106306 -0.014865499 0.46583539
0.085518911 -0.014865677 0.46582317
0.085946143 -0.014868386 0.46589014
0.086343497 -0.014865925 0.46579507
0.086823255 -0.014877608 0.46614307
0.087237298 -0.01487797 0.46613634
0.115228 -0.014665349 0.45803523
0.11557991 -0.014658473 0.45779866
0.11583162 -0.014638981 0.45716804
0.11627629 -0.014643929 0.4573006
0.11660809 -0.014634674 0.45698965
0.11699702 -0.014632628 0.45690379
0.11739088 -0.014631214 0.45683753
0.11773436 -0.01462355 0.4565762
0.11814824 -0.014624651 0.45658851
0.11854365 -0.014623468 0.45652941
0.11890681 -0.014618327 0.45634675
0.11930365 -0.014617348 0.45629394
0.11967099 -0.014612771 0.45612884
0.12005606 -0.014610384 0.45603207
0.12043391 -0.01460714 0.45590848
0.12083211 -0.014606372 0.45586219
0.12118659 -0.014600346 0.45565167
0.1215616 -0.014596825 0.45551938
0.12192887 -0.014592398 0.4553588
0.1223784 -0.014597815 0.45550534
0.12269454 -0.014587333 0.45515579
0.12311751 -0.014589584 0.45520344
0.12347625 -0.01458423 0.45501384
0.12388422 -0.014584711 0.45500618
0.12426263 -0.014581718 0.45489013
0.12465346 -0.014580196 0.45481998
0.12500125 -0.014573663 0.45459354
0.1254058 -0.014573772 0.4545742
0.12581061 -0.014573911 0.45455575
0.12615226 -0.014566754 0.45430973
0.12654993 -0.01456609 0.45426613
0.12696446 -0.014567366 0.45428309
0.12734179 -0.014564379 0.45416701
0.12767911 -0.014556848 0.45390931
0.1280743 -0.01455594 0.45385811
0.12849613 -0.014558056 0.45390108
0.12884949 -0.014552427 0.45370257
0.12918608 -0.014544946 0.45344633
0.1295933 -0.014545438 0.45343861
0.13004987 -0.014551448 0.45360288
0.071989343 -0.014547573 0.46941456
0.072406963 -0.014548258 0.46942106
0.072785631 -0.014541156 0.4691762
0.073209308 -0.014543072 0.46922234
0.073614396 -0.014541298 0.46914926
0.074008279 -0.01453734 0.4690057
0.074415825 -0.014536097 0.46894962
0.074805111 -0.014531317 0.46877939
0.07520514 -0.014528667 0.46867782
0.07562466 -0.014529789 0.46869788
0.075996205 -0.014521735 0.46842182
0.076405279 -0.014520897 0.46837851
0.076796547 -0.014516703 0.46822685
0.077199303 -0.014514714 0.4681462
0.077604122 -0.014513131 0.46807867
0.077993341 -0.014508661 0.46791798
0.078403801 -0.014508171 0.46788549
0.078796409 -0.014504398 0.46774712
0.0791936 -0.014501505 0.46763703
0.079592012 -0.014498864 0.46753499
0.079971626 -0.014492843 0.46732399
0.080388464 -0.014493595 0.46733123
0.080777466 -0.014489346 0.46717718
0.081168607 -0.014485523 0.46703678
0.081563666 -0.014482432 0.46691996
0.081964239 -0.014480349 0.4668355
0.08236216 -0.014477817 0.46673661
0.082769625 -0.01447698 0.46669224
0.083168417 -0.014474643 0.46659946
0.083541438 -0.014467865 0.46636343
0.083940357 -0.014465616 0.46627337
0.084359132 -0.014466795 0.46629372
0.084729984 -0.014459785 0.46605009
0.085144743 -0.014460296 0.46604881
0.085569844 -0.014462553 0.4661037
0.085968368 -0.014460316 0.46601367
0.086420394 -0.014467056 0.46621296
0.086808607 -0.014463102 0.46606746
0.087248921 -0.014467824 0.46620151
0.11494535 -0.014274478 0.45855233
0.11525489 -0.014262471 0.45814484
0.11554016 -0.014247559 0.45764396
0.11589682 -0.01424152 0.4574281
0.11627962 -0.014238726 0.45731643
0.11667819 -0.014237873 0.45726708
0.11702876 -0.014231189 0.45703042
0.11744028 -0.014231943 0.45703256
0.11780937 -0.01422756 0.45686978
0.11817888 -0.01422326 0.45670962
0.11855634 -0.014219943 0.45658097
0.11895897 -0.014219658 0.45654961
0.11934904 -0.014217878 0.45647025
0.11972589 -0.01421454 0.45634082
0.12014098 -0.01421575 0.45635736
0.1205038 -0.014210786 0.45617571
0.12090637 -0.014210526 0.45614499
0.12125719 -0.014204211 0.45591986
0.12161431 -0.014198666 0.4557195
0.12202515 -0.014199412 0.45572099
0.1223999 -0.014195968 0.45558798
0.12272614 -0.014186939 0.45527568
0.12316945 -0.014191457 0.45539811
0.12355584 -0.014189409 0.45530978
0.12393571 -0.014186626 0.4551979
0.12430639 -0.014182815 0.45505294
0.12469377 -0.014180927 0.45496967
0.12507232 -0.014178049 0.45485464
0.12543769 -0.014173701 0.45469242
0.12579846 -0.014168864 0.45451447
0.12619483 -0.014168052 0.4544656
0.12661482 -0.01416989 0.45450172
0.12695859 -0.014163212 0.45426467
0.12740621 -0.014168125 0.45439935
0.1277453 -0.014160978 0.45414722
0.12814751 -0.014160846 0.45412007
0.12851305 -0.014156679 0.45396343
0.12884621 -0.014148981 0.4536936
0.12927227 -0.014151501 0.45375139
0.12963592 -0.014147194 0.45359024
0.13013195 -0.014157317 0.45389169
0.071982183 -0.014131775 0.46937099
0.072442986 -0.014140878 0.46965775
0.072836109 -0.014136741 0.46950465
0.073229447 -0.014132694 0.46935454
0.073651433 -0.014134191 0.46938843
0.074053511 -0.014131868 0.46929541
0.074455336 -0.014129527 0.46920168
0.07484033 -0.014124033 0.46900323
0.075249471 -0.014123132 0.46895722
0.075647503 -0.014120164 0.46884254
0.076048136 -0.014117715 0.46874493
0.076445401 -0.014114669 0.46862751
0.07683982 -0.014111132 0.46849373
0.077230796 -0.014107005 0.46834025
0.077635162 -0.014105354 0.46826896
0.07802733 -0.014101517 0.46812496
0.078430936 -0.014099774 0.46805048
0.078816697 -0.01409486 0.46787059
0.079221219 -0.014093334 0.46780318
0.079612479 -0.014089475 0.46765825
0.080003075 -0.014085541 0.46751076
0.080436938 -0.014089225 0.46761602
0.080820531 -0.014084112 0.46742928
0.081192136 -0.014076972 0.46717519
0.08159896 -0.014075979 0.46712503
0.081996806 -0.014073454 0.467024
0.082396626 -0.014071291 0.46693495
0.082782649 -0.014066804 0.46676865
0.083195478 -0.014066897 0.46675426
0.083585903 -0.014063217 0.46661466
0.083983012 -0.014060693 0.46651331
0.084392048 -0.014060181 0.46647868
0.084789 -0.014057668 0.46637762
0.085162051 -0.014051238 0.46614653
0.085572928 -0.014051081 0.46612346
0.085959017 -0.014046872 0.46596596
0.086412072 -0.014053595 0.46617103
0.086841755 -0.014056472 0.46624839
0.087244637 -0.014055003 0.46618155
0.087685131 -0.01405958 0.46631518
0.11494968 -0.013868361 0.4585723
0.11524697 -0.013855221 0.45811602
0.1155346 -0.01384102 0.45762461
0.11591777 -0.013838318 0.45751342
0.11630207 -0.013835774 0.45740736
0.11673798 -0.013839362 0.45750406
0.11707909 -0.013831727 0.45722967
0.11746955 -0.013829955 0.45714906
0.11786677 -0.013828988 0.457095
0.11824529 -0.013825841 0.45696887
0.11859123 -0.013818919 0.45671797
0.11899138 -0.01381834 0.45667663
0.11940104 -0.013818864 0.45667171
0.11975256 -0.013812678 0.45644507
0.12016812 -0.013813897 0.45646304
0.1205235 -0.013808212 0.45625287
0.12094518 -0.013810134 0.45629403
0.12130645 -0.01380517 0.45610762
0.12166297 -0.013799701 0.45590448
0.1220711 -0.013800101 0.45589525
0.12245456 -0.013797718 0.45579401
0.12285555 -0.01379732 0.45575833
0.12317424 -0.013787711 0.45541841
0.12360065 -0.013790185 0.45547748
0.12396369 -0.013785594 0.45530325
0.12437052 -0.013785887 0.45529026
0.12477249 -0.013785641 0.45525944
0.12511861 -0.013779246 0.45502555
0.12550116 -0.013776889 0.45492497
0.12586379 -0.013772372 0.45475301
0.12625344 -0.013770826 0.45467919
0.1266572 -0.013770826 0.45465633
0.1270296 -0.013767427 0.45452124
0.12743147 -0.013767231 0.45449191
0.12779447 -0.013762856 0.45432451
0.12817211 -0.013760075 0.45420977
0.12857054 -0.013759538 0.45416906
0.12897845 -0.013760012 0.4541617
0.1293571 -0.013757375 0.45405167
0.12974142 -0.013755353 0.45396185
0.13016231 -0.013757208 0.45400003
0.072445616 -0.013726757 0.46967784
0.0728449 -0.0137239 0.46956438
0.073277026 -0.013727227 0.46966252
0.073670037 -0.01372323 0.46950996
0.074089743 -0.013724224 0.46952808
0.074478611 -0.013719525 0.46935135
0.074880719 -0.013717303 0.46925932
0.075285807 -0.013715649 0.46918657
0.075671785 -0.01371055 0.46899599
0.076067604 -0.01370728 0.46886793
0.076462165 -0.013703819 0.46873325
0.076859988 -0.013700978 0.46861964
0.077266298 -0.013699668 0.46855846
0.077643663 -0.013693272 0.46832314
0.07805711 -0.013693272 0.46830657
0.078440055 -0.013687948 0.46810785
0.07887622 -0.013691919 0.46822694
0.079237886 -0.013682984 0.46790454
0.079625733 -0.013678636 0.46773908
0.080027834 -0.013676772 0.46765843
0.080430172 -0.013674966 0.46757969
0.080854058 -0.013676824 0.46762612
0.081240006 -0.013672276 0.46745351
0.081647329 -0.013671356 0.46740487
0.08203797 -0.013667664 0.46726137
0.082451731 -0.013667841 0.46725008
0.082828827 -0.013661969 0.46703199
0.083223321 -0.013659009 0.46691337
0.083597399 -0.013652747 0.46668172
0.083998933 -0.013651005 0.46660468
0.084424429 -0.013653157 0.46666059
0.084802985 -0.013647731 0.46645746
0.085206792 -0.013646406 0.46639434
0.085587196 -0.013641359 0.46620405
0.086004898 -0.013642278 0.46621755
0.086430624 -0.013644456 0.46627399
0.08687266 -0.013649175 0.46641719
0.087277234 -0.013647991 0.46635866
0.087695219 -0.013648906 0.46637172
0.11496448 -0.013463438 0.45863393
0.11526873 -0.01345149 0.4582051
0.11557586 -0.013439962 0.45779058
0.115999 -0.013441955 0.4578366
0.11638778 -0.013439969 0.45774704
0.11675511 -0.013435527 0.45757377
0.11713555 -0.013432617 0.45745268
0.11754463 -0.013433005 0.4574438
0.11788993 -0.01342612 0.45718735
0.1182805 -0.013424426 0.45710751
0.1186358 -0.013418751 0.45689213
0.11906444 -0.013421383 0.45695958
0.11943056 -0.013416972 0.45678717
0.11981768 -0.013414943 0.4566958
0.1201705 -0.0134091 0.4564746
0.12059017 -0.013410728 0.45650774
0.12096517 -0.013407396 0.45637196
0.12133728 -0.013403768 0.45622605
0.12172081 -0.013401421 0.45612371
0.1220983 -0.013398425 0.45599928
0.12249476 -0.013397523 0.45594612
0.12290638 -0.013398281 0.45594937
0.12327904 -0.013394802 0.4558084
0.12365872 -0.013392102 0.45569393
0.12404086 -0.013389689 0.45558918
0.12440281 -0.013385116 0.45541096
0.12479738 -0.013384071 0.45535272
0.12517919 -0.01338167 0.4552483
0.12557444 -0.013380716 0.45519307
0.12591909 -0.013374395 0.45495525
0.12633543 -0.013375702 0.45497689
0.12668762 -0.013370231 0.45476797
0.12706226 -0.013367157 0.45464057
0.12745835 -0.013366351 0.45459026
0.12783974 -0.013364013 0.45448786
0.12821722 -0.013361285 0.45437211
0.12862031 -0.01336123 0.45434725
0.12898567 -0.013357271 0.45418963
0.12935749 -0.013354001 0.45405543
0.12980625 -0.013358671 0.45419112
0.13016203 -0.013353773 0.45400152
0.072466515 -0.013315962 0.46981624
0.072891094 -0.01331779 0.46986508
0.073296204 -0.013316061 0.46978834
0.073711187 -0.013316136 0.46977511
0.074114278 -0.013314072 0.46968645
0.074523382 -0.013313105 0.46963638
0.074906282 -0.013307494 0.4694224
0.075317807 -0.013307003 0.46938899
0.075697497 -0.013300921 0.46915826
0.07608974 -0.013297099 0.46900722
0.076493472 -0.013295317 0.46892804
0.076899804 -0.013294002 0.46886531
0.077301249 -0.01329186 0.46877331
0.077685215 -0.013286753 0.46857667
0.078100652 -0.013287053 0.46857068
0.078492016 -0.013283275 0.46842077
0.078897811 -0.013281967 0.46835795
0.079261325 -0.01327359 0.46804577
0.079681918 -0.013274812 0.468072
0.08010412 -0.013276285 0.46810701
0.080455601 -0.013266084 0.46773034
0.080872968 -0.013266794 0.46773833
0.081263393 -0.013263099 0.4675909
0.081666626 -0.013261522 0.46751815
0.082073972 -0.013260625 0.46746927
0.082463712 -0.013256907 0.46732086
0.082846157 -0.013252058 0.46713257
0.08322937 -0.013247378 0.46695018
0.083629936 -0.013245494 0.46686623
0.084035404 -0.013244399 0.46681005
0.084430099 -0.013241626 0.46669471
0.084822334 -0.013238499 0.46656674
0.085225709 -0.013237128 0.46650067
0.085635409 -0.013236749 0.46646947
0.086036168 -0.013234999 0.46638989
0.086437464 -0.013233346 0.46631369
0.086873397 -0.013236988 0.46642399
0.087273613 -0.013235178 0.46634206
0.087711848 -0.013239122 0.46646291
0.088120788 -0.013238629 0.4664273
0.11495312 -0.013055439 0.45859116
0.11526503 -0.013044722 0.45819294
0.11564883 -0.013042189 0.45808208
0.11603314 -0.013039732 0.45797387
0.11639725 -0.013035028 0.45778677
0.11679311 -0.013033901 0.45772523
0.11717068 -0.013030746 0.45759243
0.1175274 -0.013025302 0.45737925
0.11796913 -0.013029286 0.45749697
0.11830933 -0.013022065 0.45722139
0.11871328 -0.013021888 0.45719299
0.11908015 -0.013017659 0.45702234
0.11947708 -0.013016732 0.45696756
0.11984994 -0.0130132 0.45682129
0.12025688 -0.013013376 0.4568052
0.12063019 -0.013009924 0.45666173
0.12106793 -0.013013422 0.45676211
0.12139302 -0.013004829 0.45643812
0.12176196 -0.013000974 0.45628032
0.12215098 -0.012999281 0.45619848
0.12250017 -0.012993374 0.45596868
0.12291241 -0.012994174 0.45597422
0.12331864 -0.012994332 0.4559572
0.12369733 -0.012991597 0.45583865
0.12407172 -0.012988431 0.45570493
0.12447176 -0.012987962 0.4556658
0.12484001 -0.012984187 0.45551071
0.12521084 -0.012980704 0.45536578
0.125617 -0.012980897 0.4553498
0.12600183 -0.012978888 0.45525655
0.12631431 -0.012969465 0.45490322
0.1267091 -0.012968528 0.45484751
0.12711553 -0.012968782 0.4548336
0.12751 -0.012967818 0.45477685
0.12788856 -0.012965248 0.45466378
0.12825373 -0.012961339 0.45450377
0.12865332 -0.012960923 0.45446622
0.12904246 -0.01295946 0.4543919
0.12945092 -0.012959939 0.45438567
0.12979868 -0.012954359 0.45416698
0.07248155 -0.012903882 0.46991652
0.072920054 -0.012908103 0.47005454
0.073333926 -0.012907941 0.4700329
0.073721334 -0.01290315 0.46984264
0.074119501 -0.012900283 0.46972233
0.074532531 -0.012900022 0.46969688
0.074925795 -0.01289636 0.46954751
0.075336941 -0.012895798 0.46951094
0.075728416 -0.012891896 0.46935272
0.076123573 -0.012888659 0.46921861
0.076532602 -0.01288779 0.46917069
0.076924935 -0.012884137 0.46902132
0.077330895 -0.012882792 0.4689559
0.077724032 -0.012879336 0.4688136
0.078115031 -0.012875564 0.4686597
0.078520052 -0.012874131 0.46859089
0.078908838 -0.012870065 0.46842614
0.079326756 -0.01287077 0.46843502
0.07970611 -0.012865238 0.46821687
0.080096684 -0.012861569 0.46806639
0.080492452 -0.012858764 0.46794736
0.080892511 -0.012856672 0.46785408
0.081296653 -0.012855246 0.46778509
0.08169914 -0.012853573 0.46770707
0.082100876 -0.012851798 0.4676252
0.082490556 -0.012848166 0.46747571
0.082878523 -0.012844303 0.46731779
0.083305456 -0.012846487 0.46737978
0.083682291 -0.012840959 0.46716121
0.084077522 -0.012838299 0.46704683
0.084461644 -0.012833974 0.46687183
0.08486928 -0.012833246 0.46682763
0.085247755 -0.012828139 0.46662405
0.085653096 -0.012827103 0.46656856
0.086050265 -0.012824859 0.46646902
0.086471125 -0.012826149 0.46649799
0.086889006 -0.012826989 0.4665105
0.087305903 -0.012827674 0.4665173
0.087748744 -0.012832148 0.46666184
0.088148326 -0.012830283 0.46657577
0.11434057 -0.012671005 0.4594433
0.11465896 -0.012661186 0.45906553
0.11497374 -0.012651039 0.45867583
0.11530649 -0.012642934 0.45836014
0.11568068 -0.012639414 0.45821071
0.1160735 -0.012637947 0.45813563
0.11645973 -0.012635774 0.4580349
0.11683931 -0.012632896 0.45790866
0.1172152 -0.012629641 0.45776868
0.1176034 -0.012627731 0.45767742
0.11798893 -0.012625549 0.45757625
0.11834902 -0.012620667 0.45737723
0.11873494 -0.012618565 0.45727885
0.1191088 -0.012615198 0.45713463
0.11954744 -0.012618693 0.45723906
0.11991392 -0.012614571 0.45706752
0.12027746 -0.01261017 0.45688576
0.1206677 -0.01260859 0.45680609
0.12109584 -0.012610964 0.45686978
0.12147561 -0.012608302 0.45675096
0.12181264 -0.012601239 0.45647264
0.12221882 -0.01260135 0.45645419
0.12254944 -0.012593698 0.45615447
0.12296967 -0.012595271 0.45618898
0.1233515 -0.012592914 0.45608103
0.12374787 -0.012592052 0.45602724
0.12414034 -0.012590801 0.45595929
0.12447558 -0.012583772 0.45568207
0.12484931 -0.012580667 0.45554698
0.12527089 -0.012582387 0.45558652
0.12565631 -0.012580475 0.45549458
0.12601393 -0.012575804 0.45530269
0.12637611 -0.012571612 0.45512807
0.12679629 -0.0125732 0.45516276
0.12718353 -0.012571523 0.45507914
0.12756816 -0.012569597 0.45498654
0.12792335 -0.012564793 0.45478976
0.12829691 -0.012561819 0.45465907
0.12871601 -0.012563306 0.45468995
0.1290766 -0.012559091 0.45451441
0.12950402 -0.012561386 0.45457441
0.12994346 -0.012564826 0.45467585
0.072513476 -0.012494541 0.47012621
0.072939895 -0.012496526 0.47018525
0.073350653 -0.012495819 0.47014287
0.07375484 -0.012494006 0.47005886
0.074160114 -0.012492398 0.46998245
0.074557133 -0.012489424 0.46985462
0.074952245 -0.012486164 0.46971598
0.075375833 -0.012487659 0.46975607
0.075756498 -0.012482064 0.46952945
0.076167189 -0.012481452 0.46949017
0.076569751 -0.012479519 0.46940115
0.076959386 -0.012475514 0.46923414
0.077346511 -0.012471145 0.46905333
0.077770635 -0.012472757 0.46909744
0.078139089 -0.01246547 0.4688068
0.078548349 -0.012464734 0.46876249
0.078955337 -0.012463649 0.46870494
0.079347946 -0.012460316 0.46856281
0.079751678 -0.012458755 0.46848723
0.080126829 -0.012452767 0.46824521
0.080539905 -0.012452706 0.46822587
0.080941096 -0.012450816 0.46813777
0.081335239 -0.012447868 0.46800977
0.081687361 -0.012438551 0.46764231
0.082119495 -0.012441448 0.46773398
0.082530349 -0.012441109 0.46770388
0.082932279 -0.012439434 0.46762353
0.083312608 -0.012434551 0.46742254
0.083718725 -0.012433547 0.46736729
0.084105685 -0.01242972 0.46720585
0.084502466 -0.012427376 0.46710008
0.084903486 -0.012425675 0.46701846
0.085313298 -0.012425272 0.46698549
0.085669547 -0.012417108 0.46666083
0.086080119 -0.012416855 0.46663344
0.086484656 -0.012415742 0.46657363
0.086897202 -0.012415782 0.46655712
0.087311327 -0.012416046 0.46654895
0.08773911 -0.01241824 0.46661326
0.088188268 -0.012423426 0.46678981
0.088585123 -0.012421228 0.46668896
0.11401664 -0.012272597 0.45980364
0.11432999 -0.012262488 0.45940316
0.1146599 -0.01225422 0.45907167
0.11494482 -0.012241216 0.45856279
0.1153824 -0.012244509 0.45866427
0.11572988 -0.012238247 0.45840791
0.11610181 -0.012234607 0.45824966
0.1165071 -0.012234494 0.45822352
0.11685286 -0.012228156 0.45796415
0.11727019 -0.012229322 0.45798582
0.11767276 -0.012228944 0.45794967
0.11802515 -0.012223375 0.457719
0.11841088 -0.012221284 0.45761859
0.11878602 -0.012218118 0.45747787
0.11918689 -0.012217609 0.45743668
0.11955839 -0.012214105 0.45728323
0.11994413 -0.012212073 0.45718491
0.1203526 -0.012212362 0.45717347
0.12071717 -0.01220821 0.45699567
0.12110822 -0.012206754 0.45691881
0.12150624 -0.012206007 0.45686844
0.12188326 -0.012203163 0.45673954
0.12223165 -0.01219748 0.4565044
0.1226071 -0.012194526 0.45637137
0.12301003 -0.012194316 0.45634094
0.12335954 -0.012188829 0.45611304
0.12375864 -0.012188261 0.4560692
0.12416305 -0.012188218 0.45604494
0.12456612 -0.012188044 0.4560158
0.1249532 -0.012186312 0.4559283
0.12526952 -0.012177709 0.45558378
0.12566842 -0.012177168 0.45554078
0.12604417 -0.012174391 0.45541409
0.12643105 -0.012172705 0.45532823
0.12682518 -0.012171724 0.45526871
0.12718271 -0.012167248 0.45507839
0.12758347 -0.012166925 0.45504344
0.12799104 -0.012167249 0.45503262
0.1283716 -0.012165011 0.45492598
0.12871216 -0.012159007 0.45467854
0.12917253 -0.012164327 0.45485443
0.12955377 -0.012162182 0.45475119
0.072947651 -0.012082721 0.47023788
0.073378056 -0.012085265 0.47032118
0.073788427 -0.0120845 0.47027558
0.074202351 -0.012084322 0.47025278
0.074595742 -0.012080821 0.47010055
0.074973464 -0.012074834 0.46985155
0.075368144 -0.012071631 0.46971083
0.075768448 -0.012069357 0.46960616
0.076179989 -0.012068885 0.46957162
0.076582961 -0.012067074 0.46948481
0.07699763 -0.01206711 0.46946985
0.07739985 -0.012065209 0.4693794
0.077761881 -0.012057095 0.46904722
0.078195475 -0.012060102 0.46914765
0.078564897 -0.012053235 0.46886384
0.07895568 -0.012049698 0.46870953
0.07938654 -0.012052284 0.46879333
0.079761721 -0.012046431 0.46854883
0.080160111 -0.012044126 0.46844229
0.080563277 -0.01204256 0.46836436
0.080968753 -0.012041353 0.46830031
0.081350319 -0.01203662 0.46809915
0.081729904 -0.012031642 0.46788836
0.082160316 -0.012034161 0.46796909
0.082546763 -0.012030244 0.46779943
0.08294744 -0.012028432 0.4677116
0.083332926 -0.012024445 0.46753913
0.083743177 -0.012024052 0.46750635
0.084149882 -0.012023157 0.46745396
0.08454369 -0.012020438 0.4673306
0.084940359 -0.012018149 0.46722388
0.085348807 -0.01201754 0.46718243
0.085732006 -0.012013398 0.46700358
0.086112626 -0.012008937 0.46681225
0.086505577 -0.012006231 0.46668905
0.086913295 -0.012005588 0.46664605
0.087323837 -0.012005339 0.46661833
0.087762788 -0.012008981 0.46674171
0.088171348 -0.01200845 0.46670282
0.088624805 -0.012014007 0.46690056
0.08906959 -0.012018346 0.46705073
0.11402032 -0.011865299 0.45982078
0.11439762 -0.011862154 0.45967719
0.11462873 -0.011843927 0.45894912
0.11500461 -0.011840735 0.45880362
0.11537033 -0.011836522 0.45861861
0.11578447 -0.011837287 0.45862645
0.11614271 -0.011832353 0.45841336
0.11652779 -0.011830179 0.45830721
0.11693542 -0.0118303 0.45828995
0.11728816 -0.011824886 0.45805824
0.1177222 -0.011827677 0.45814431
0.11805514 -0.011820327 0.45783752
0.11848796 -0.011822994 0.4579187
0.11883449 -0.011817061 0.45766678
0.11918337 -0.011811402 0.45742542
0.11961355 -0.01181381 0.45749646
0.1200017 -0.011812064 0.45740658
0.12034392 -0.011805826 0.45714274
0.12075999 -0.011806848 0.45715997
0.12112296 -0.01180269 0.45697662
0.12149961 -0.011799886 0.45684567
0.12192321 -0.011801648 0.45689145
0.12228975 -0.011797893 0.4567236
0.12270613 -0.011798953 0.45674217
0.1229993 -0.0117882 0.45630336
0.12340672 -0.011788427 0.45628965
0.12378826 -0.011786193 0.45618054
0.12421008 -0.011787795 0.45621991
0.12457975 -0.011784451 0.45606786
0.12496709 -0.011782796 0.45598114
0.12536857 -0.011782479 0.45594618
0.12574142 -0.011779483 0.45580754
0.12612318 -0.011777338 0.45570168
0.12649113 -0.011773922 0.45554677
0.12689438 -0.011773802 0.45551926
0.12727834 -0.011771902 0.45542282
0.12762575 -0.011766639 0.45519635
0.12806027 -0.011769416 0.45528087
0.12844154 -0.011767298 0.455176
0.12881772 -0.011764728 0.4550536
0.129197 -0.011762457 0.45494276
0.12960669 -0.011762959 0.45493913
0.072965175 -0.011670385 0.47035334
0.073388614 -0.01167172 0.47039136
0.073807977 -0.011672394 0.47040275
0.074191876 -0.011667484 0.47018898
0.074623749 -0.01167013 0.47027963
0.075027801 -0.011668419 0.47019464
0.075410031 -0.011663353 0.4699744
0.075813219 -0.011661566 0.46988621
0.076206528 -0.011658286 0.4697378
0.076611206 -0.011656772 0.46966049
0.076986879 -0.011650883 0.46940687
0.077421844 -0.011653982 0.46951529
0.077809423 -0.011649955 0.46933651
0.078225724 -0.011650247 0.46933165
0.078630969 -0.011648898 0.46926069
0.078997597 -0.011641871 0.46896091
0.079420216 -0.011643128 0.46899471
0.07979098 -0.011636807 0.46872324
0.080202498 -0.011636463 0.46869248
0.080596812 -0.01163364 0.4685618
0.080988176 -0.011630423 0.46841517
0.081378482 -0.011627086 0.46826369
0.081786118 -0.011626247 0.46821269
0.082193524 -0.011625384 0.46816069
0.082591899 -0.011623258 0.46805772
0.083011046 -0.011624063 0.46807274
0.083394878 -0.011619937 0.46788913
0.083772801 -0.011615034 0.46767423
0.084162682 -0.011611829 0.46752757
0.084547348 -0.011607938 0.46735328
0.084962524 -0.011608252 0.46734825
0.085367948 -0.01160724 0.46728966
0.085757978 -0.011604152 0.46714753
0.086154148 -0.01160192 0.46703979
0.08654689 -0.011599252 0.46691439
0.086952619 -0.01159834 0.46685967
0.08733806 -0.011594742 0.46669674
0.087750092 -0.011594693 0.46667662
0.088196017 -0.011599101 0.46683583
0.08859805 -0.011597723 0.4667621
0.089043349 -0.011601993 0.46691555
0.089514352 -0.011609558 0.46720159
0.11400823 -0.011456391 0.45977423
0.11435474 -0.011450276 0.45950714
0.11465462 -0.011439551 0.45905504
0.11508215 -0.011441592 0.45911518
0.11544891 -0.011437599 0.45893314
0.1158032 -0.011432404 0.45870286
0.11618192 -0.011429645 0.4585703
0.11657041 -0.011427867 0.45847699
0.11697422 -0.011427597 0.45844421
0.11735431 -0.011425017 0.45831874
0.11776997 -0.011425907 0.45833242
0.11814516 -0.011422877 0.4581888
0.11851216 -0.011419082 0.45801443
0.11886778 -0.011414217 0.45779714
0.11926975 -0.011413821 0.45775911
0.11961451 -0.011407971 0.45750231
0.12001902 -0.011407841 0.45747483
0.12042659 -0.011408001 0.45745891
0.12081603 -0.011406447 0.4573743
0.12121359 -0.011405669 0.45732075
0.1215578 -0.011399891 0.45706666
0.12199613 -0.01140295 0.45716688
0.12232837 -0.011396103 0.45686993
0.12272827 -0.011395586 0.45682669
0.12308031 -0.011390642 0.456606
0.12347451 -0.011389619 0.45654243
0.12385391 -0.011387242 0.45642459
0.12426244 -0.011387551 0.45641434
0.12465383 -0.01138629 0.45634115
0.12502182 -0.011382908 0.45618293
0.1253852 -0.01137913 0.45600879
0.12580442 -0.011380427 0.456038
0.12616786 -0.011376685 0.45586529
0.12651885 -0.011371847 0.45564866
0.12690285 -0.011369999 0.4555518
0.1273154 -0.011370711 0.45555747
0.12766333 -0.011365668 0.45533249
0.12807961 -0.011366719 0.45535171
0.12845317 -0.011363987 0.4552193
0.12886402 -0.011364558 0.45521921
0.12928221 -0.011365771 0.45524481
0.12968788 -0.011365881 0.45522612
0.073409967 -0.011259713 0.47053069
0.073836192 -0.011261391 0.47058499
0.074257746 -0.011262341 0.47060886
0.074634299 -0.011256495 0.47034857
0.075052425 -0.011256946 0.4703514
0.075444862 -0.011253562 0.47019392
0.075847313 -0.0112517 0.47009999
0.076260678 -0.011251468 0.47007403
0.076650724 -0.011247818 0.4699052
0.077041708 -0.011244342 0.46974361
0.077433772 -0.011241062 0.4695901
0.077838078 -0.011239581 0.46951178
0.078247264 -0.011238818 0.46946332
0.078642905 -0.011236129 0.46933436
0.079035632 -0.011233053 0.46918911
0.079433545 -0.011230743 0.46907583
0.079826288 -0.011227728 0.46893308
0.080221646 -0.011225111 0.46880686
0.08062581 -0.011223746 0.4687328
0.0810294 -0.011222316 0.46865603
0.081423424 -0.01121958 0.46852472
0.081796497 -0.011214 0.4682745
0.082232781 -0.011217101 0.46838668
0.082612574 -0.0112125 0.46817732
0.08299613 -0.011208455 0.46799102
0.083406538 -0.011208058 0.46795702
0.083814189 -0.011207297 0.46790767
0.084214538 -0.011205569 0.46781799
0.084592037 -0.011200834 0.46760267
0.084982857 -0.0111979 0.46746248
0.085395105 -0.011197804 0.46744066
0.085777417 -0.011193803 0.46725583
0.086197816 -0.011194785 0.4672789
0.086570248 -0.011189558 0.46704277
0.086970516 -0.011187961 0.46695811
0.087362327 -0.011185297 0.46682882
0.087766416 -0.011184221 0.46676582
0.088214204 -0.011188699 0.46693444
0.088608369 -0.011186365 0.46681875
0.089065984 -0.011192027 0.46703666
0.089493677 -0.01119389 0.467096
0.11401125 -0.011049032 0.45978856
0.11436725 -0.011044049 0.4595595
0.11470176 -0.011037033 0.45924586
0.11506177 -0.011032511 0.45903602
0.11544436 -0.01103018 0.45891717
0.11584475 -0.011029559 0.45886952
0.11623186 -0.011027683 0.45876953
0.11658822 -0.011022912 0.4585492
0.11698827 -0.01102229 0.45850137
0.1173818 -0.011021061 0.45842826
0.11779477 -0.011021659 0.45843109
0.11817744 -0.011019426 0.45831612
0.11854381 -0.011015694 0.45813879
0.11890248 -0.011011276 0.45793292
0.11928821 -0.011009384 0.45783207
0.11965107 -0.0110054 0.45764419
0.12007364 -0.011006919 0.45768508
0.12051721 -0.011010344 0.45780525
0.12276141 -0.010993057 0.45695212
0.12312461 -0.010989274 0.45677233
0.12349203 -0.010985894 0.45660928
0.12392201 -0.01098808 0.45667759
0.12428463 -0.0109843 0.45649785
0.12465717 -0.010981417 0.45635539
0.12506229 -0.010981414 0.45633262
0.12545729 -0.010980527 0.45627302
0.12585588 -0.010979956 0.4562265
0.12621638 -0.010976077 0.45604259
0.12660991 -0.010975085 0.45597857
0.1269739 -0.010971548 0.45580882
0.12736712 -0.010970552 0.45574456
0.12776698 -0.01097013 0.45570415
0.128126 -0.010966216 0.45551863
0.12851711 -0.010965064 0.45544788
0.12890509 -0.010963654 0.45536634
0.073436752 -0.010848266 0.47070476
0.073845521 -0.010847295 0.47064686
0.074247368 -0.010845325 0.47054544
0.074672937 -0.01084682 0.47059438
0.075085178 -0.010846375 0.47055906
0.075474389 -0.010842625 0.47038028
0.075880378 -0.010841316 0.47030726
0.076295994 -0.010841386 0.47029412
0.076673068 -0.010836008 0.47004452
0.07706292 -0.010832485 0.46987531
0.07748083 -0.010832921 0.46987778
0.077865154 -0.010828683 0.46967742
0.078276411 -0.010828216 0.46964058
0.078665122 -0.01082465 0.46946928
0.079067059 -0.010822932 0.46937805
0.079480432 -0.010822788 0.46935502
0.079876259 -0.010820269 0.46922895
0.080276266 -0.01081834 0.46912837
0.080646701 -0.010812465 0.4688566
0.081066594 -0.010813247 0.46887347
0.08146324 -0.010810936 0.46875614
0.081865601 -0.010809403 0.46867245
0.08226943 -0.010808078 0.46859774
0.082646467 -0.010803264 0.46837175
0.083051011 -0.010802074 0.46830279
0.083448179 -0.010799942 0.46819291
0.083832465 -0.010796173 0.46801201
0.084249578 -0.010796648 0.46801499
0.084626429 -0.010791981 0.46779504
0.085032828 -0.01079111 0.46773961
0.085412674 -0.010786896 0.46753916
0.085828044 -0.010787183 0.46753386
0.086225234 -0.010785198 0.46742985
0.086624771 -0.010783521 0.46733925
0.087008178 -0.010779862 0.46716261
0.087398261 -0.01077706 0.4670231
0.087809868 -0.010776926 0.46699914
0.088220157 -0.010776632 0.46696821
0.088632792 -0.010776628 0.4669497
0.089059114 -0.010778277 0.46700287
0.089474544 -0.010778599 0.46699846
0.089939281 -0.010784833 0.46724999
0.113664 -0.010647023 0.46005654
0.11399599 -0.010639946 0.45972914
0.11437204 -0.010637016 0.45958087
0.11471011 -0.010630587 0.45928141
0.11512381 -0.010631188 0.45928559
0.11550616 -0.0106289 0.45916492
0.11587308 -0.010625212 0.45898384
0.1162887 -0.010625999 0.45899594
0.11665775 -0.010622542 0.45882466
0.11705716 -0.010621862 0.45877337
0.11744667 -0.010620293 0.45868358
0.11783912 -0.010619 0.45860568
0.11824049 -0.010618514 0.45856267
0.11862004 -0.01061608 0.45843548
0.11901762 -0.01061527 0.45837831
0.11935976 -0.010609539 0.45810866
0.11980915 -0.010613346 0.45825085
0.12401738 -0.010590802 0.45703101
0.12432956 -0.01058284 0.45666483
0.1247034 -0.010580161 0.45652661
0.12510416 -0.010579777 0.45648736
0.1254878 -0.010577952 0.45638591
0.12585701 -0.010574926 0.45623261
0.12626719 -0.01057535 0.45622817
0.1266662 -0.01057484 0.45618331
0.12704244 -0.010572437 0.45605686
0.1273911 -0.010567759 0.45583224
0.12777154 -0.010565743 0.45572239
0.12816459 -0.010564776 0.45565781
0.12859568 -0.010566941 0.4557282
0.12894325 -0.010562253 0.45550305
0.073885605 -0.010437439 0.47090462
0.074306168 -0.010438141 0.47092041
0.074714549 -0.010437133 0.47085896
0.075098097 -0.010432686 0.47064233
0.075507 -0.010431791 0.47058582
0.075896449 -0.010428232 0.47040915
0.076314062 -0.01042856 0.47040772
0.076713942 -0.010426476 0.4702974
0.077099241 -0.010422441 0.47009903
0.077493817 -0.010419697 0.46995884
0.077889569 -0.010417142 0.46982703
0.078315005 -0.010418559 0.46987438
0.078699932 -0.0104146 0.46967924
0.079092301 -0.010411665 0.46953014
0.079497725 -0.010410469 0.46945941
0.079904065 -0.010409404 0.46939453
0.080308206 -0.010408065 0.46931723
0.080708914 -0.010406298 0.46922055
0.081105456 -0.010404013 0.46910048
0.081512421 -0.010403082 0.46904138
0.081861466 -0.010394805 0.46865103
0.082284443 -0.010395953 0.46868551
0.082679503 -0.010393579 0.4685612
0.083056577 -0.010388978 0.46833643
0.083491422 -0.010391614 0.46843776
0.083859913 -0.010386006 0.46816748
0.084256791 -0.01038395 0.46805722
0.084661409 -0.010382864 0.46799067
0.085078172 -0.010383272 0.46799126
0.08546453 -0.01037998 0.4678252
0.085856386 -0.010377385 0.46769044
0.086257651 -0.010375948 0.46760777
0.086639702 -0.010372224 0.46742195
0.087035708 -0.010370198 0.4673126
0.087422296 -0.010367072 0.46715373
0.087828182 -0.010366254 0.46709871
0.08822912 -0.010364863 0.46701786
0.088631332 -0.010363634 0.46694419
0.089073472 -0.010367064 0.46708035
0.089508191 -0.010369601 0.46717626
0.089923546 -0.010369881 0.46717042
0.09034197 -0.010370511 0.46718031
0.090771966 -0.010372458 0.46724939
0.11333947 -0.010246675 0.46041849
0.1136101 -0.010234288 0.45984036
0.11403399 -0.010235748 0.45988435
0.11438677 -0.010230836 0.45964196
0.1147707 -0.010228737 0.45952594
