# .PCD v0.7 - Point Cloud Data file format
VERSION 0.7
FIELDS x y z
SIZE 4 4 4
TYPE F F F
COUNT 1 1 1
WIDTH 1375
HEIGHT 1
VIEWPOINT 0 0 0 1 0 0 0
POINTS 1375
DATA ascii
0.011571923 0.065228216 0.33704346
0.011867712 0.065217294 0.33698422
0.01216521 0.065216064 0.33697501
0.012449624 0.065146431 0.33661231
0.012754409 0.065184154 0.33680424
0.013047125 0.065159872 0.33667576
0.014180899 0.064903148 0.33533657
0.015093119 0.065003626 0.33584562
0.015392654 0.065015368 0.33590278
0.015689854 0.065016985 0.33590755
0.015980789 0.064993069 0.33578035
0.016249266 0.064880341 0.33519435
0.016543919 0.064874299 0.33515936
0.016836043 0.064858735 0.33507517
0.017131096 0.064854771 0.33505088
0.017427789 0.064857066 0.33505881
0.017724741 0.064860225 0.33507115
0.018020891 0.064860389 0.33506799
0.018310105 0.064835988 0.33493787
0.018606858 0.064838633 0.33494738
0.018887568 0.064786159 0.33467212
0.019181695 0.064780615 0.33463925
0.019472124 0.064762957 0.33454368
0.019768054 0.064763822 0.33454382
0.020058786 0.0647479 0.33445713
0.020349937 0.064733766 0.33437964
0.020642465 0.064724356 0.33432648
0.020926557 0.06468913 0.33413991
0.021208698 0.064648934 0.33392763
0.021499837 0.064636901 0.33386078
0.021794548 0.064635776 0.3338502
0.022083428 0.064617619 0.33375162
0.022374243 0.064605534 0.33368433
0.022667237 0.064599961 0.33365062
0.02295726 0.064586192 0.33357447
0.023239642 0.064551532 0.33339041
0.023522168 0.064518139 0.33321285
0.023813762 0.064510129 0.33316633
0.024115454 0.064529337 0.33326033
0.024399411 0.064501204 0.33310974
0.024683584 0.0644743 0.33296546
0.024959158 0.064425826 0.33270979
0.025254242 0.064428262 0.33271691
0.025545213 0.064420275 0.33267012
0.025834287 0.064407721 0.33259979
0.026109539 0.064361393 0.33235496
0.026409386 0.064376049 0.33242497
0.026699824 0.064367689 0.33237609
0.02697528 0.064323798 0.33214363
0.027263088 0.064309977 0.33206648
0.02756151 0.06432122 0.33211866
0.02785863 0.064329222 0.33215404
0.028127113 0.064271621 0.33185062
0.028415477 0.06426017 0.33178544
0.028706234 0.064254299 0.33174902
0.028993458 0.064240724 0.33167279
0.029284684 0.064236201 0.33164322
0.029567275 0.064213023 0.33151728
0.02985486 0.06420102 0.331449
0.030133961 0.064171188 0.33128864
0.030429156 0.064175874 0.3313064
0.030717203 0.06416554 0.33124658
0.031005451 0.06415581 0.33118981
0.031292222 0.06414324 0.33111835
0.031585071 0.064143248 0.33111173
0.031851884 0.064090863 0.33083463
0.032135881 0.064073697 0.33073929
0.032414109 0.064045422 0.33058655
0.032695945 0.064024746 0.33047298
0.03298419 0.064016856 0.33042532
0.033276025 0.064016022 0.33041403
0.033553652 0.063988104 0.33026293
0.033843145 0.06398309 0.33023
0.034128264 0.063969977 0.33015522
0.034409694 0.063950218 0.33004609
0.034689534 0.063927867 0.32992348
0.034975838 0.063917696 0.32986376
0.035250042 0.063885771 0.32969168
0.035538942 0.063880786 0.32965854
0.03583486 0.063888393 0.3296904
0.036112398 0.063863359 0.32955375
0.036390793 0.063840248 0.32942694
0.036674839 0.063827321 0.32935268
0.036946576 0.063793354 0.32916975
0.037251268 0.063816369 0.32928085
0.037525117 0.063786611 0.32911953
0.037802655 0.063763514 0.32899261
0.038074575 0.06373138 0.32881898
0.038378727 0.06375327 0.32892403
0.038659398 0.063736126 0.32882762
0.038933188 0.06370797 0.32867438
0.039222669 0.063705713 0.32865471
0.039502278 0.06368757 0.32855305
0.039781123 0.063668482 0.32844642
0.040061481 0.063652068 0.32835358
0.040343247 0.063638113 0.32827333
0.040629186 0.063630886 0.32822779
0.040903635 0.063605897 0.32809058
0.041186929 0.063594915 0.32802552
0.041471642 0.063586265 0.32797247
0.041754063 0.063574247 0.32790202
0.042030789 0.06355378 0.32778794
0.042324249 0.063558728 0.32780483
0.042585921 0.063516192 0.32757685
0.042858336 0.063490145 0.32743382
0.043145306 0.063485868 0.32740304
0.043428298 0.063475832 0.32734254
0.043708205 0.063461453 0.32725954
0.043978274 0.063433066 0.3271043
0.044265937 0.063430257 0.32708094
0.044549223 0.063421272 0.32702559
0.044828191 0.063406274 0.32693931
0.045119215 0.063408419 0.32694128
0.045390468 0.063382931 0.32680079
0.045674782 0.063375883 0.32675529
0.045962278 0.063373312 0.32673281
0.046249133 0.0633699 0.32670599
0.046536084 0.063366659 0.32667997
0.046828557 0.063370921 0.32669264
0.047107466 0.063356891 0.32661089
0.0473959 0.063355781 0.32659572
0.047683358 0.063353367 0.32657382
0.047996446 0.063384831 0.32672647
0.0482518 0.06334015 0.32648653
0.048517901 0.063310012 0.32632157
0.048802827 0.063304633 0.3262842
0.049110204 0.063328281 0.32639638
0.049366578 0.063286267 0.32617009
0.049639504 0.063265838 0.32605499
0.04990942 0.063241832 0.32592142
0.050181322 0.063220605 0.32580212
0.050457504 0.063204989 0.3257117
0.050707854 0.063157365 0.32545632
0.05097625 0.063132629 0.32531884
0.051214624 0.063071199 0.32499224
0.05149591 0.063063011 0.32493997
0.051771186 0.063047595 0.32485038
0.052046176 0.063031994 0.32475984
0.052331172 0.063028619 0.32473224
0.0047500785 0.065898523 0.33899304
0.0050482959 0.065882303 0.3389082
0.0053471755 0.065876052 0.33887458
0.0056467499 0.065878563 0.33888596
0.0059457049 0.065873966 0.33886069
0.0062411851 0.065833144 0.33864903
0.0065399795 0.065829411 0.33862814
0.0068367859 0.065806873 0.33851039
0.0071327351 0.065778308 0.33836165
0.007433637 0.065795884 0.33845013
0.0077308933 0.065781064 0.33837199
0.0080274381 0.065761529 0.33826947
0.0083210133 0.065719925 0.33805341
0.008618705 0.065712601 0.33801356
0.0089171985 0.06571167 0.33800659
0.009209957 0.065669909 0.33778948
0.009506302 0.065655522 0.33771321
0.0098008681 0.065630108 0.33758011
0.010101483 0.065645501 0.33765683
0.010397562 0.065631367 0.33758166
0.010690875 0.065601051 0.33742318
0.010985495 0.065580182 0.33731323
0.011277765 0.065546758 0.33713865
0.01157527 0.065544702 0.3371253
0.011874182 0.065550506 0.33715233
0.012169939 0.065539032 0.33709049
0.012466662 0.065533184 0.3370575
0.01276701 0.065546222 0.33712158
0.013060944 0.065526471 0.337017
0.014173392 0.065164767 0.33514398
0.014482371 0.065222599 0.3354381
0.014788864 0.065267146 0.33566383
0.017431283 0.065166123 0.33511129
0.017730026 0.065175667 0.33515641
0.018029187 0.065186404 0.33520758
0.018323272 0.065178744 0.33516413
0.018612312 0.065153658 0.33503097
0.018900743 0.065127261 0.33489105
0.019189041 0.065101221 0.33475289
0.019478226 0.065078937 0.33463401
0.019776685 0.06508784 0.33467543
0.020070301 0.065080777 0.33463469
0.020360537 0.065063111 0.33453938
0.020646654 0.065032989 0.33437997
0.020933306 0.065005369 0.33423337
0.021225514 0.06499552 0.33417809
0.021524088 0.065005183 0.33422306
0.021804415 0.064960212 0.33398706
0.022085292 0.064918071 0.33376557
0.022387899 0.064940065 0.33387375
0.022680536 0.064932942 0.3338322
0.022964988 0.064902872 0.33367261
0.023248458 0.064870805 0.33350274
0.023535216 0.064848609 0.33338353
0.0238306 0.06485045 0.33338782
0.024116769 0.064827465 0.33326444
0.024409467 0.064822368 0.33323297
0.024694918 0.06479837 0.33310431
0.024981925 0.064778984 0.33299926
0.025269624 0.064761825 0.33290562
0.025559871 0.064751506 0.33284706
0.025841156 0.064718977 0.33267432
0.026119316 0.064679444 0.33246547
0.026421541 0.064699724 0.33256406
0.026717082 0.064703353 0.33257702
0.026992287 0.064658202 0.33233917
0.02728132 0.064646788 0.33227468
0.027572919 0.064641632 0.33224228
0.027869442 0.06464801 0.33226913
0.028142605 0.064600617 0.3320196
0.02842305 0.064570755 0.33186007
0.028717462 0.064572915 0.33186504
0.02899516 0.064537816 0.33167854
0.02928965 0.064540431 0.33168575
0.029576523 0.064526372 0.33160725
0.02985792 0.064500757 0.3314693
0.030147357 0.064492829 0.33142221
0.030434117 0.064479396 0.33134675
0.030723257 0.064471215 0.33129823
0.031010754 0.064459763 0.33123285
0.031298015 0.064448044 0.33116606
0.031607106 0.064481072 0.33132914
0.031878151 0.0644366 0.33109391
0.032153036 0.064400621 0.33090228
0.032433532 0.064376421 0.33077115
0.032716099 0.064356729 0.33066311
0.033004794 0.064349338 0.33061826
0.033278573 0.06431324 0.33042586
0.033561986 0.064296231 0.33033147
0.033859581 0.064306468 0.33037698
0.034148581 0.064300328 0.33033836
0.034444679 0.064307548 0.33036825
0.034701899 0.064242668 0.33002773
0.034987859 0.064231627 0.32996377
0.03527122 0.064216048 0.32987639
0.035559714 0.064209983 0.32983789
0.035840392 0.064190023 0.32972795
0.036118973 0.064166658 0.32960042
0.036415078 0.064174555 0.32963347
0.036698371 0.064159922 0.32955074
0.036975984 0.064135656 0.32941848
0.037262347 0.064126849 0.32936555
0.037534468 0.064093851 0.32918832
0.037822332 0.064088017 0.32915065
0.038111597 0.064084657 0.32912552
0.038382269 0.064050309 0.32894123
0.038677361 0.064056918 0.32896721
0.038959298 0.064041801 0.32888162
0.039245564 0.06403397 0.3288334
0.039511878 0.063993946 0.32861978
0.039803661 0.063995458 0.32861939
0.04008203 0.063975535 0.32850891
0.040373344 0.0639764 0.32850516
0.040653147 0.063959152 0.3284083
0.040925328 0.063930243 0.32825154
0.041210506 0.063921891 0.32820028
0.041493166 0.063909799 0.32812974
0.04178454 0.063911177 0.32812834
0.042047821 0.063869871 0.32790777
0.042333167 0.063862428 0.32786098
0.042603474 0.063832544 0.32769895
0.042882629 0.063816242 0.32760653
0.04315874 0.063795649 0.32749212
0.043450762 0.063798681 0.32749897
0.043736644 0.063792735 0.3274596
0.044012476 0.063772291 0.32734579
0.044271603 0.063728087 0.32710999
0.044565208 0.063733749 0.32713011
0.044846788 0.063722253 0.3270621
0.045114946 0.063691959 0.32689756
0.0453889 0.063670173 0.32677668
0.045676935 0.063668303 0.32675794
0.045972086 0.063676313 0.32678983
0.046258632 0.063672371 0.32676038
0.046536099 0.063656054 0.32666737
0.046818558 0.063646734 0.32661018
0.047094751 0.063629054 0.32651007
0.047383521 0.06362848 0.3264977
0.047661845 0.063613974 0.32641381
0.047941022 0.063600771 0.32633656
0.048231691 0.063602887 0.32633784
0.048500761 0.063576661 0.32619366
0.048778739 0.063562348 0.32611057
0.049072478 0.063568629 0.32613307
0.049355123 0.063560538 0.32608184
0.049632646 0.063545987 0.32599741
0.049904492 0.063524373 0.32587671
0.050170936 0.063496187 0.32572219
0.05044264 0.063474931 0.32560325
0.050714236 0.063453779 0.32548481
0.050970573 0.063413881 0.32527015
0.05124199 0.063393094 0.32515344
0.051492035 0.063346244 0.32490307
0.051791709 0.063360631 0.32496673
0.052071616 0.063350804 0.3249062
0.052365098 0.063357517 0.32493037
0.052636389 0.063337445 0.32481718
0.052939396 0.063355558 0.32489976
0.0053488356 0.06619516 0.33896115
0.0056481822 0.06619399 0.33895361
0.0059478767 0.066196799 0.3389664
0.006246191 0.066184707 0.3389028
0.0065427856 0.066156335 0.33875579
0.0068391818 0.066128515 0.3386116
0.0071382392 0.06612768 0.33860546
0.0074361977 0.066117145 0.33854961
0.0077348719 0.066113524 0.33852914
0.0080314316 0.066092774 0.33842087
0.0083234971 0.066037863 0.33813763
0.0086222999 0.066038355 0.33813801
0.0089193843 0.066026084 0.33807296
0.0092163952 0.066014081 0.33800927
0.0095139444 0.066006571 0.33796847
0.009809928 0.065988965 0.33787596
0.010106777 0.065978065 0.33781773
0.010401622 0.06595508 0.33769754
0.010697789 0.065941498 0.33762544
0.010988383 0.065895259 0.33738607
0.011286733 0.065896735 0.33739099
0.011579932 0.065868825 0.33724537
0.011877961 0.065869108 0.337244
0.012178718 0.065884143 0.33731812
0.012478246 0.065891951 0.3373552
0.012774382 0.0658819 0.33730075
0.013061942 0.065829083 0.33702734
0.018038342 0.065515801 0.33536309
0.018332798 0.065508895 0.33532366
0.018625794 0.065497078 0.33525902
0.018910496 0.065456912 0.33504921
0.019197961 0.065427408 0.33489394
0.019491822 0.065420248 0.33485305
0.019782268 0.065402023 0.33475536
0.020072535 0.065383762 0.33465746
0.020362053 0.065363608 0.33454987
0.020653965 0.065351613 0.33448395
0.020946814 0.065342881 0.33443463
0.021245694 0.065352939 0.33448145
0.021522287 0.0652951 0.33418074
0.021818403 0.065297253 0.33418703
0.022101969 0.065262295 0.3340033
0.022399452 0.065268815 0.33403176
0.022691285 0.065258913 0.33397615
0.022981398 0.065244369 0.33389676
0.023272838 0.065233931 0.33383825
0.023562863 0.065219834 0.33376101
0.02384536 0.065185495 0.33358011
0.024135007 0.065171301 0.33350229
0.024421789 0.065149821 0.33338708
0.024712432 0.065139011 0.33332646
0.025001125 0.065123372 0.33324108
0.025280353 0.065083757 0.33303291
0.025574196 0.06508223 0.33301958
0.025874194 0.065096214 0.3330856
0.026156114 0.065064929 0.3329199
0.026441477 0.065042794 0.33280098
0.026720216 0.065005034 0.33260211
0.02700655 0.064986371 0.33250085
0.027302107 0.064990073 0.33251396
0.027579129 0.064950034 0.33230323
0.027873749 0.064951859 0.33230662
0.028162716 0.064940587 0.33224303
0.028449241 0.064923994 0.33215207
0.0287195 0.064870983 0.33187479
0.029018942 0.064884305 0.33193681
0.029315425 0.064890817 0.33196387
0.02959363 0.064857133 0.33178529
0.029873151 0.064826965 0.33162466
0.030160315 0.064813808 0.33155096
0.030445812 0.064797349 0.33146039
0.030735925 0.064790942 0.33142114
0.031025227 0.064782962 0.33137378
0.031326022 0.064798906 0.33144876
0.031608272 0.06477654 0.33132774
0.031901088 0.064776041 0.33131847
0.032169878 0.064727217 0.33106202
0.032447901 0.064697661 0.3309041
0.032722212 0.064661331 0.33071139
0.033019435 0.064670496 0.33075136
0.03330959 0.064665779 0.33072031
0.033576515 0.064616449 0.330461
0.033876732 0.064631477 0.33053082
0.034179453 0.064650983 0.33062348
0.034456171 0.064621404 0.33046502
0.034733802 0.064594001 0.33031768
0.035001162 0.06454812 0.3300758
0.03527648 0.064517565 0.32991225
0.035584103 0.064546078 0.33005071
0.035860237 0.064517513 0.32989717
0.036139153 0.064494342 0.32977125
0.036439843 0.0645101 0.3298443
0.036705904 0.064464785 0.32960501
0.036995851 0.064461805 0.32958218
0.037280485 0.06444969 0.32951254
0.037562575 0.064433411 0.32942158
0.037846934 0.064421222 0.32935151
0.038131099 0.064408898 0.32928067
0.038399871 0.06437096 0.32907882
0.038699415 0.064384781 0.32914156
0.038959052 0.064332508 0.32886636
0.039249174 0.064330973 0.32885051
0.039538514 0.064328179 0.32882816
0.03981908 0.064311258 0.32873353
0.040091958 0.064282253 0.32857713
0.04037679 0.064272694 0.32852006
0.040674213 0.064283185 0.32856536
0.040932547 0.064232185 0.32829636
0.041214198 0.064218223 0.32821664
0.041507222 0.064222053 0.32822779
0.041793611 0.064215645 0.32818654
0.042059649 0.064178266 0.32798702
0.042345241 0.064171031 0.32794148
0.042628404 0.064160243 0.3278777
0.042913318 0.064152204 0.32782799
0.043173816 0.064108029 0.32759354
0.043461077 0.064103916 0.32756379
0.043743167 0.064092286 0.32749552
0.04401445 0.064065069 0.32734764
0.044297367 0.06405504 0.32728744
0.044586346 0.064053833 0.32727236
0.044867031 0.064040817 0.32719687
0.045152165 0.064034276 0.3271544
0.045409817 0.063989095 0.32691446
0.045696188 0.063984685 0.32688281
0.045977701 0.063973591 0.32681692
0.046263114 0.063968018 0.32677925
0.046551794 0.063966997 0.32676473
0.046832878 0.06395562 0.32669729
0.047114331 0.063944891 0.32663313
0.047387794 0.063923508 0.32651445
0.047677271 0.063923851 0.32650673
0.047940195 0.063888803 0.32631823
0.048234437 0.063895658 0.32634372
0.048497785 0.063861765 0.32616097
0.048787761 0.063863106 0.32615823
0.049077485 0.063864127 0.32615373
0.049348891 0.063841432 0.32602808
0.049627583 0.063828357 0.32595155
0.049912889 0.063823901 0.32591894
0.050190378 0.063809566 0.32583585
0.050455403 0.063779622 0.32567307
0.050734904 0.063768223 0.32560492
0.051005639 0.063745998 0.32548141
0.051264241 0.063708939 0.32528216
0.051535714 0.063688196 0.3251662
0.051799968 0.063658826 0.3250061
0.052081201 0.063650519 0.32495353
0.052384861 0.06366957 0.32504055
0.052660681 0.063654758 0.32495469
0.0056492025 0.066504702 0.33899641
0.0059486111 0.066503771 0.33899009
0.0062476029 0.066498488 0.33896151
0.0065452559 0.066480085 0.33886597
0.0068457639 0.066491023 0.33891991
0.0071438523 0.066478521 0.3388544
0.0074417149 0.066464998 0.33878356
0.0077350964 0.066414058 0.33852193
0.0080347117 0.066418424 0.33854222
0.0083304578 0.066391647 0.33840361
0.0086262766 0.066367276 0.33827731
0.0089250021 0.066366158 0.33826938
0.0092196194 0.066335551 0.3381111
0.0095183579 0.066335574 0.33810893
0.0098135713 0.066311777 0.33798525
0.01010621 0.066272497 0.33778262
0.010403523 0.06626524 0.33774316
0.010703995 0.066277951 0.33780539
0.011000641 0.066266924 0.33774656
0.011292187 0.066226572 0.33753821
0.011592499 0.066238359 0.33759558
0.011886098 0.066212192 0.33745939
0.018340604 0.065833189 0.33545175
0.018633487 0.06582047 0.33538279
0.018921895 0.065792598 0.33523655
0.01920414 0.065744467 0.3349871
0.019503726 0.065756269 0.33504292
0.019793704 0.065735817 0.33493435
0.020085752 0.065722741 0.33486328
0.020377336 0.06570854 0.33478647
0.02066618 0.065686025 0.33466724
0.020957641 0.065672368 0.33459306
0.02125611 0.065680727 0.334631
0.021535533 0.065630816 0.33437198
0.021825308 0.065613382 0.3342784
0.022118412 0.065606281 0.33423743
0.022411861 0.06560038 0.3342025
0.022703741 0.065590099 0.33414516
0.022991594 0.065568596 0.33403063
0.023282195 0.065555356 0.33395818
0.023568371 0.065530173 0.33382475
0.023849167 0.06549082 0.33361918
0.024143722 0.065489762 0.33360854
0.024434768 0.065479316 0.33355004
0.024723681 0.065463468 0.33346403
0.025016155 0.065457329 0.33342734
0.025296301 0.065419428 0.33322889
0.025585065 0.065404437 0.33314699
0.025869345 0.065378457 0.33300912
0.026169503 0.065392725 0.33307624
0.026447015 0.065350734 0.33285668
0.026741587 0.065351352 0.33285409
0.027028799 0.065334156 0.33276081
0.02731056 0.065304309 0.33260295
0.027593704 0.065278359 0.3324649
0.027885048 0.065272145 0.33242738
0.028175341 0.065263644 0.33237806
0.028470123 0.065265596 0.33238196
0.028750855 0.065235637 0.33222327
0.029039711 0.065224513 0.3321605
0.029335132 0.065228224 0.3321732
0.02960466 0.065174848 0.33189514
0.029881887 0.065139309 0.33170784
0.030162664 0.065112121 0.33156303
0.030453512 0.065106988 0.33153045
0.030745484 0.065104336 0.33151045
0.031038966 0.065104879 0.33150679
0.031331368 0.065103196 0.33149162
0.031623498 0.065100968 0.33147362
0.031911753 0.065090872 0.33141556
0.032201048 0.065083086 0.33136913
0.0324676 0.06502986 0.3310914
0.032749128 0.065007314 0.33096975
0.033042926 0.065009326 0.33097309
0.033315618 0.064970121 0.33076656
0.033608526 0.064970694 0.33076248
0.033892591 0.064954311 0.330672
0.034200028 0.064982608 0.33080897
0.034471489 0.06494265 0.33059835
0.034756593 0.064928845 0.33052093
0.035015944 0.064867578 0.33020175
0.035306927 0.064865425 0.33018348
0.035605825 0.064877734 0.33023876
0.035869449 0.064826086 0.32996848
0.036160484 0.06482441 0.32995248
0.036446922 0.06481459 0.32989496
0.036727477 0.064794548 0.32978541
0.037016798 0.064790159 0.32975543
0.037312601 0.064797096 0.32978305
0.037588052 0.064768851 0.32963163
0.037853517 0.064723976 0.32939544
0.038134526 0.064706154 0.32929695
0.03842815 0.064709857 0.32930788
0.038709786 0.064693458 0.32921651
0.03898637 0.064668924 0.32908371
0.039273851 0.064662687 0.32904398
0.039556045 0.06464792 0.32896072
0.039841898 0.064639293 0.32890868
0.040135473 0.064643227 0.32892057
0.04039846 0.064598195 0.3286832
0.04068264 0.064587459 0.32862025
0.040962286 0.064569719 0.32852173
0.041251563 0.064567305 0.32850108
0.04153049 0.064548843 0.3283987
0.041800186 0.06451638 0.32822511
0.042072862 0.064488932 0.32807696
0.042372834 0.064503416 0.32814208
0.04264541 0.064476281 0.32799545
0.042937715 0.06447915 0.32800135
0.043199517 0.064436473 0.32777554
0.043492191 0.064440101 0.32778528
0.043760974 0.064408533 0.32761589
0.044050131 0.064407155 0.32760003
0.044335969 0.064400978 0.32755968
0.044605855 0.064371854 0.32740265
0.044898145 0.064375229 0.32741082
0.045149412 0.064320132 0.32712156
0.045456953 0.06434539 0.32724094
0.045718979 0.064306296 0.32703298
0.045991357 0.064282179 0.32690117
0.046269607 0.06426651 0.32681227
0.046555746 0.064261936 0.32677969
0.046839762 0.064254493 0.32673255
0.047130216 0.064255923 0.32673043
0.047387179 0.064211942 0.32649744
0.047670912 0.064204566 0.32645047
0.047938809 0.06417606 0.32629606
0.04823323 0.064183213 0.32632285
0.048503913 0.064158864 0.32618949
0.048788972 0.064153716 0.32615367
0.049067516 0.064140111 0.32607481
0.049355365 0.064138755 0.32605821
0.049640752 0.064134225 0.3260254
0.049922608 0.064125225 0.32596979
0.050190046 0.064097911 0.3258211
0.050474156 0.06409207 0.32578152
0.050747462 0.064072669 0.32567295
0.051010542 0.064040631 0.32550013
0.051286727 0.064025328 0.32541233
0.051560588 0.064007312 0.32531065
0.051845964 0.064003691 0.32528216
0.052114341 0.063979261 0.32514784
0.052413903 0.063993171 0.32520828
0.0059497743 0.066815622 0.33903813
0.0062489361 0.066811547 0.33901581
0.0065473211 0.066799924 0.33895513
0.0068475986 0.066807769 0.33899316
0.0071459073 0.066796564 0.33893445
0.007443191 0.06677705 0.33883357
0.0077405861 0.066759996 0.33874509
0.008035915 0.066727072 0.33857599
0.00833234 0.066705272 0.33846328
0.0086301984 0.066696055 0.3384144
0.0089257909 0.066670515 0.33828264
0.0092224767 0.066654548 0.33819938
0.0095188851 0.066637643 0.33811122
0.0098169185 0.066632785 0.33808422
0.010112802 0.066614047 0.33798674
0.010407384 0.066588059 0.33785239
0.010705669 0.066586547 0.3378422
0.011005315 0.066593356 0.33787408
0.011305692 0.0666041 0.33792597
0.011602624 0.066594526 0.33787462
0.011892087 0.066543631 0.33761364
0.018340928 0.06613075 0.3354429
0.018639708 0.066138886 0.33548
0.018934904 0.066134244 0.33545229
0.019215554 0.066079728 0.33517152
0.019518508 0.066102408 0.33528224
0.019802889 0.066062436 0.33507517
0.020100003 0.066065498 0.33508629
0.02038472 0.066028312 0.3348932
0.02067736 0.066017494 0.33483377
0.020970089 0.066007257 0.33477727
0.021257749 0.065981567 0.33464232
0.021552967 0.065979719 0.33462822
0.021847423 0.065975614 0.33460268
0.0221333 0.065946057 0.33444798
0.022425562 0.065936066 0.3343924
0.022712057 0.065909594 0.33425319
0.023007652 0.065909855 0.33424959
0.02329479 0.065886199 0.33412454
0.023585774 0.065873869 0.33405694
0.023875115 0.065857321 0.33396786
0.02415525 0.065816097 0.33375356
0.024443308 0.06579718 0.33365241
0.024736304 0.065791845 0.33362004
0.025022464 0.065768681 0.33349723
0.025319459 0.065774202 0.33351976
0.025604738 0.065749504 0.33338904
0.025891881 0.065730102 0.33328512
0.02617391 0.065698296 0.33311826
0.026467783 0.065696597 0.33310398
0.026753128 0.065674007 0.3329837
0.027045863 0.065669835 0.33295682
0.027330888 0.065647244 0.33283648
0.027617447 0.065628774 0.33273697
0.027916683 0.065640509 0.33279052
0.028198935 0.065612473 0.33264241
0.028485782 0.065595604 0.33255085
0.02876878 0.065570295 0.33241645
0.029069632 0.065585785 0.33248883
0.029350737 0.065556861 0.33233601
0.02963772 0.065541498 0.33225185
0.029888062 0.065446213 0.33176255
0.03019581 0.065477259 0.33191353
0.03045837 0.065410666 0.33156955
0.030754751 0.065417275 0.33159658
0.031050816 0.065423086 0.33161956
0.031338915 0.065412179 0.33155769
0.031621344 0.065389737 0.33143732
0.031922426 0.06540592 0.33151266
0.032193974 0.065361865 0.33128259
0.032485537 0.065358855 0.33126059
0.032758918 0.06531965 0.33105505
0.033041097 0.06529852 0.33094111
0.033325322 0.065281779 0.33084929
0.033628993 0.065303095 0.33095032
0.033902563 0.06526608 0.33075571
0.034200232 0.065275706 0.33079737
0.034494717 0.065279126 0.33080757
0.034762118 0.065231688 0.33055994
0.035036948 0.065198846 0.33038625
0.035312645 0.06516815 0.33022341
0.035622146 0.065199837 0.33037663
0.035890661 0.065156594 0.3301501
0.036184099 0.065158926 0.33015445
0.036466803 0.065142058 0.3300615
0.036748387 0.065123461 0.32995969
0.037043389 0.065128751 0.32997888
0.037324488 0.065109715 0.32987475
0.037605796 0.065091334 0.32977387
0.037883908 0.065067723 0.32964656
0.038151339 0.065026291 0.32942879
0.038444486 0.065028973 0.32943454
0.038712811 0.064989954 0.32922891
0.038999308 0.064981788 0.32917961
0.039288491 0.06497819 0.32915336
0.039578144 0.064975418 0.32913122
0.039848723 0.0649416 0.32895181
0.040141117 0.064943559 0.32895359
0.040420189 0.064924091 0.32884678
0.040703971 0.064912423 0.3287794
0.040996622 0.064914957 0.3287839
0.041265268 0.064879708 0.32859701
0.041531511 0.064841211 0.32839361
0.041817777 0.064834274 0.32835007
0.042101815 0.064824022 0.3282896
0.042380027 0.064804994 0.32818469
0.042677987 0.064816214 0.32823291
0.042968668 0.064816304 0.32822472
0.043237802 0.06478411 0.32805297
0.043501187 0.06474378 0.32784003
0.043795004 0.064748988 0.32785758
0.044069793 0.064726174 0.32773322
0.044356029 0.064720362 0.32769492
0.044640735 0.064712413 0.32764569
0.044897355 0.064664103 0.32739213
0.045196384 0.064677112 0.32744893
0.045484602 0.064674579 0.32742703
0.045734972 0.064618595 0.32713449
0.046007536 0.064594485 0.32700327
0.046278842 0.064568914 0.32686463
0.046579212 0.064583965 0.32693151
0.046862587 0.064575404 0.32687891
0.047145702 0.064566605 0.32682499
0.047411002 0.064533651 0.32664877
0.047700692 0.064534098 0.32664159
0.047959112 0.064492486 0.32642147
0.048245717 0.064489052 0.32639456
0.04853553 0.064489916 0.32638934
0.048800375 0.064457797 0.32621717
0.049075689 0.064439788 0.32611635
0.049368169 0.064444415 0.32613003
0.049647398 0.064431779 0.32605636
0.049930703 0.064424559 0.32601002
0.050211243 0.06441386 0.32594603
0.050482363 0.064391278 0.32582188
0.050766818 0.064385869 0.32578453
0.051027849 0.064350978 0.325598
0.051303256 0.064334497 0.3255046
0.051592391 0.064335324 0.32549873
0.05186303 0.064313211 0.32537672
0.052160177 0.064324021 0.32542127
0.0062494548 0.067115977 0.33902591
0.0065493458 0.067119516 0.3390421
0.0068494226 0.067124568 0.33906579
0.0071477201 0.067112483 0.33900294
0.007447354 0.067113392 0.33900568
0.0077483151 0.067125753 0.33906612
0.0080455197 0.06710586 0.3389636
0.0083447769 0.067103885 0.33895153
0.0086309696 0.067000628 0.33842784
0.0089293979 0.066996075 0.33840272
0.009227613 0.066990286 0.33837119
0.0095228795 0.06696412 0.33823669
0.0098217586 0.066964164 0.33823454
0.010118738 0.06695164 0.33816886
0.010413097 0.066922992 0.33802167
0.010710076 0.066912308 0.33796519
0.011009139 0.066914864 0.33797547
0.011311041 0.066934086 0.33806989
0.011609659 0.066933379 0.3380636
0.011908337 0.066933051 0.33805913
0.01221413 0.066971742 0.33825168
0.012524169 0.067031316 0.33854964
0.018345857 0.066445008 0.33551821
0.018647827 0.06646426 0.33561137
0.01894322 0.066459857 0.33558488
0.019235652 0.066445343 0.33550736
0.019522615 0.066412665 0.33533809
0.019813288 0.066393405 0.33523643
0.020100208 0.066362314 0.33507505
0.020398885 0.066370375 0.33511129
0.020684225 0.066335432 0.33493033
0.020977329 0.066326037 0.33487827
0.021271804 0.066321157 0.33484903
0.021551212 0.066270091 0.3345865
0.021850079 0.066279426 0.33462885
0.022145443 0.066278033 0.33461702
0.022425855 0.066232502 0.3343823
0.022725813 0.066245146 0.33444118
0.02301815 0.066235527 0.33438766
0.023303596 0.066206589 0.3342365
0.023591725 0.066185884 0.33412689
0.023881616 0.066170581 0.33404449
0.024178116 0.06617374 0.33405522
0.024459127 0.066134937 0.33385408
0.024748078 0.06611827 0.33376461
0.025032505 0.066090047 0.33361679
0.025322588 0.066077247 0.33354676
0.025611121 0.066060744 0.33345795
0.025904523 0.066057026 0.33343369
0.026201107 0.066061415 0.33345023
0.026486298 0.066037305 0.33332288
0.026770923 0.06601233 0.33319107
0.027056953 0.065991312 0.33307925
0.027343214 0.065971315 0.3329725
0.027631851 0.065957405 0.33289644
0.027926123 0.065957107 0.33288902
0.028206319 0.065923914 0.33271548
0.028498592 0.06591934 0.33268636
0.028787667 0.06590753 0.33262071
0.029068911 0.06587822 0.3324666
0.029370051 0.065894127 0.33254072
0.029652171 0.065867469 0.33239996
0.029937817 0.065849096 0.3323009
0.030211473 0.065804966 0.33207184
0.030474612 0.065738991 0.33173251
0.030773869 0.065751441 0.33178887
0.031064294 0.065744966 0.33174971
0.031348504 0.06572558 0.33164528
0.031640485 0.065722696 0.33162415
0.031937476 0.065730177 0.3316552
0.032222241 0.065712586 0.33155969
0.032503452 0.065688126 0.33142951
0.032770537 0.065635815 0.33115879
0.033064988 0.065638758 0.33116668
0.033342879 0.065609053 0.33100995
0.033639532 0.065616466 0.33104032
0.033928446 0.065608785 0.33099458
0.034218173 0.065602809 0.33095723
0.034505334 0.065592028 0.33089575
0.034794353 0.065584943 0.33085281
0.035055146 0.065525226 0.33054429
0.035340417 0.065511853 0.33046958
0.035624169 0.065495916 0.33038181
0.035903867 0.065472849 0.33025801
0.036185574 0.06545379 0.33015442
0.036479253 0.06545651 0.33016065
0.036759466 0.065435208 0.33004564
0.037056819 0.065444537 0.33008507
0.037325401 0.065403283 0.32986936
0.037604466 0.065380901 0.32974875
0.037877426 0.065348335 0.32957676
0.038161259 0.065334871 0.32950103
0.038447812 0.065326244 0.32944965
0.038733013 0.065315463 0.32938737
0.039023783 0.065314159 0.32937285
0.039296325 0.065282591 0.32920566
0.039580915 0.065271363 0.32914096
0.039870735 0.065268852 0.32912022
0.040146835 0.065244086 0.32898715
0.040439676 0.065246686 0.32899207
0.040722512 0.065233216 0.32891586
0.041007452 0.065223284 0.32885748
0.041294277 0.065216474 0.32881477
0.041578107 0.065205052 0.32874882
0.041838467 0.065157257 0.32849935
0.042135201 0.065166362 0.32853675
0.042393845 0.065116845 0.32827857
0.042697497 0.065136649 0.32836983
0.042971067 0.065110616 0.32822993
0.043246843 0.065088242 0.32810843
0.043545943 0.065101042 0.32816422
0.043816708 0.065071598 0.32800698
0.044099845 0.065060787 0.32794365
0.044390492 0.065061122 0.32793647
0.044653129 0.065020658 0.32772359
0.044922974 0.064991161 0.32756591
0.045223083 0.065005541 0.32762936
0.045509808 0.065000616 0.3275955
0.045773398 0.064962931 0.32739639
0.046040796 0.064931065 0.3272267
0.046308499 0.064900048 0.32706112
0.046606921 0.064912193 0.32711309
0.046894293 0.064908907 0.32708719
0.047156844 0.06487149 0.32688931
0.04745169 0.06487871 0.32691625
0.047724862 0.064856358 0.32679421
0.047999762 0.064836629 0.32668534
0.048271812 0.064813301 0.32655826
0.048565555 0.064819217 0.32657847
0.04882399 0.064778209 0.32636225
0.049106114 0.064768918 0.32630578
0.049389355 0.064761214 0.32625726
0.049670804 0.06475126 0.32619733
0.049951106 0.064739928 0.32613048
0.050230414 0.064727463 0.32605779
0.050530419 0.064741641 0.32611933
0.050801948 0.064719386 0.32599729
0.051090717 0.064719222 0.32598647
0.051356446 0.064690024 0.32582942
0.051608685 0.064644262 0.32558888
0.051905669 0.064654753 0.32563159
0.0065518641 0.067444369 0.33915451
0.0068512838 0.067441881 0.33914024
0.0071487646 0.067421295 0.33903489
0.0074493559 0.067430533 0.33907944
0.0077490918 0.067431599 0.33908287
0.0080479793 0.067425482 0.33905008
0.0083426097 0.067385405 0.3388465
0.0086413287 0.067380004 0.33881721
0.0089365747 0.067348778 0.33865795
0.0092287986 0.067297526 0.33839801
0.0095304167 0.067315854 0.33848786
0.0098278988 0.06730473 0.33842957
0.010124626 0.067289256 0.33834928
0.010419069 0.067259908 0.33819929
0.010713896 0.06723462 0.33806953
0.011016821 0.067260131 0.33819523
0.011317832 0.067272909 0.33825681
0.011615306 0.067264549 0.33821204
0.011916615 0.067278273 0.33827823
0.012219993 0.067302704 0.33839822
0.018354824 0.066774093 0.33566731
0.018652862 0.066778861 0.33568713
0.01894599 0.066766158 0.33561909
0.019238792 0.066752724 0.33554733
0.019531138 0.066738136 0.33546969
0.019820472 0.066713847 0.33534324
0.020113358 0.066702053 0.33527952
0.020402813 0.066679381 0.33516112
0.020695789 0.066668704 0.33510292
0.020984687 0.066645384 0.33498111
0.021278322 0.066637538 0.33493701
0.021564955 0.066608265 0.33478525
0.021855503 0.066591732 0.3346974
0.02214691 0.066578209 0.33462459
0.022437811 0.066563562 0.33454609
0.022734683 0.06656675 0.33455724
0.023021743 0.066541523 0.33442542
0.023314079 0.066531971 0.3343724
0.023600748 0.066506691 0.33424026
0.023895534 0.066504627 0.33422476
0.024185941 0.066490576 0.33414891
0.024479819 0.066486292 0.33412212
0.024757842 0.066439562 0.33388194
0.02504267 0.066411979 0.33373797
0.025331048 0.066394344 0.33364391
0.025625164 0.066391967 0.33362654
0.025915999 0.066381253 0.33356714
0.026209682 0.06637799 0.33354515
0.02649674 0.066358201 0.33344007
0.026787208 0.066347301 0.33337957
0.027070833 0.066319861 0.33323595
0.027354375 0.066292815 0.33309427
0.027632007 0.066252179 0.33288425
0.027932681 0.066267066 0.3329531
0.028221458 0.066253699 0.33287996
0.02851223 0.066245258 0.3328315
0.028798217 0.066225976 0.33272856
0.029083278 0.06620498 0.33261696
0.029378457 0.0662072 0.33262187
0.02965856 0.066175736 0.33245757
0.029953536 0.066177748 0.33246139
0.030237265 0.066155121 0.33234137
0.030530823 0.066154227 0.33233044
0.03078524 0.066069342 0.33189759
0.03108371 0.066079713 0.33194315
0.031364396 0.066052437 0.33179957
0.03166274 0.066062503 0.3318435
0.031949665 0.066048786 0.33176795
0.032231029 0.066023916 0.33163631
0.032530759 0.066036776 0.33169413
0.032815013 0.066018283 0.33159438
0.033071987 0.065945715 0.33122301
0.033361755 0.06593924 0.33118355
0.033658601 0.06594675 0.33121425
0.033947136 0.065937974 0.33116317
0.03423392 0.065925978 0.33109584
0.034514606 0.065902539 0.330971
0.034821853 0.065929793 0.33110064
0.035063494 0.065833412 0.33060938
0.035371877 0.065862894 0.33075011
0.035635978 0.065810114 0.33047771
0.035927255 0.065807968 0.33045956
0.036216203 0.065801635 0.33042029
0.036496595 0.065779969 0.33030403
0.036775239 0.065755539 0.33017376
0.037059322 0.065741129 0.3300938
0.037344374 0.065728649 0.33002353
0.037636712 0.065729089 0.33001801
0.037902802 0.065684035 0.32978407
0.038196091 0.065686457 0.32978836
0.038470253 0.06565617 0.3296285
0.038749292 0.065634631 0.32951242
0.039041582 0.065635674 0.32950971
0.039334666 0.065638021 0.32951349
0.039594948 0.065586001 0.32924426
0.039879601 0.065574817 0.32918003
0.040171187 0.065575108 0.32917336
0.040450543 0.06555558 0.32906711
0.040731821 0.065539427 0.32897779
0.041032951 0.065555215 0.32904869
0.04131525 0.06554091 0.32896852
0.041588336 0.065512285 0.32881647
0.041872256 0.065500997 0.32875142
0.04213563 0.065457962 0.32852688
0.042415801 0.06544143 0.32843536
0.042703476 0.065436624 0.32840261
0.042997431 0.06544143 0.32841814
0.043266539 0.06540861 0.32824472
0.043557484 0.065409027 0.32823807
0.043826092 0.065376103 0.32806408
0.044119138 0.065379843 0.32807401
0.044381488 0.065338336 0.32785684
0.044677701 0.065346904 0.3278909
0.044951919 0.06532339 0.32776392
0.0452452 0.065327704 0.32777658
0.045515586 0.065299109 0.32762405
0.045789048 0.065275267 0.32749531
0.046075765 0.065270498 0.32746223
0.046343315 0.065238819 0.32729405
0.046626057 0.065228768 0.32723442
0.046918746 0.065232694 0.32724479
0.047184292 0.065199047 0.32706666
0.047464531 0.065185994 0.3269918
0.04774851 0.065178201 0.32694325
0.048035339 0.065174378 0.32691458
0.048315033 0.065160975 0.32683781
0.048589978 0.065141357 0.32672983
0.048868775 0.065127105 0.32664874
0.049125917 0.065084338 0.32642457
0.0494259 0.065098487 0.32648584
0.049704213 0.065084107 0.32640398
0.049972415 0.065056726 0.32625684
0.050259892 0.06505461 0.3262364
0.050539181 0.065041974 0.32616314
0.050826572 0.065039858 0.32614258
0.051071338 0.064983517 0.32585013
0.051387545 0.065018207 0.32601404
0.051657684 0.064994551 0.32588536
0.051963013 0.065015174 0.32597867
0.0071521155 0.067752033 0.33917618
0.0074512367 0.067746706 0.3391476
0.0077500721 0.067739271 0.33910844
0.0080485437 0.067729346 0.3390567
0.0083501432 0.067745499 0.33913547
0.0086470637 0.067723878 0.33902511
0.0089421682 0.067689955 0.33885312
0.0092360321 0.067649148 0.33864659
0.0095335031 0.06763649 0.33858091
0.0098327221 0.067636609 0.33857912
0.010126555 0.067600787 0.33839738
0.010426354 0.067605674 0.33841938
0.010722319 0.067586146 0.33831903
0.011021641 0.067588255 0.33832699
0.011318803 0.067577347 0.33826971
0.011621926 0.067601673 0.33838877
0.011920896 0.067601234 0.33838379
0.012225561 0.067632318 0.3385365
0.012536529 0.067695946 0.33885211
0.018665949 0.067122556 0.33590773
0.018960519 0.067114167 0.33586153
0.019246805 0.067077182 0.3356722
0.019546965 0.067088932 0.33572668
0.019842282 0.067083947 0.33569741
0.020121222 0.067024566 0.33539584
0.020417266 0.067023039 0.33538377
0.020702887 0.06698785 0.33520311
0.020994632 0.066973172 0.33512512
0.021289567 0.066968948 0.33509934
0.021576114 0.06693881 0.33494386
0.0218654 0.066917874 0.33483431
0.022158872 0.066910133 0.33479077
0.022450326 0.066896573 0.33471811
0.022745028 0.066892929 0.33469492
0.023036461 0.066879891 0.33462471
0.023325725 0.066860951 0.3345249
0.023610244 0.066829063 0.33436027
0.023902757 0.066820316 0.33431137
0.024195097 0.066811293 0.33426103
0.024482207 0.066788219 0.33414033
0.024777882 0.066788778 0.33413786
0.025055105 0.066740185 0.33388934
0.025347639 0.066733032 0.33384812
0.025643691 0.066735193 0.33385345
0.025922008 0.066691667 0.33363017
0.026211126 0.066676594 0.33354923
0.026507556 0.066680275 0.33356196
0.026790846 0.066651151 0.33341062
0.027077062 0.066629879 0.33329844
0.027366251 0.066616304 0.33322471
0.02765975 0.066613398 0.3332043
0.027940243 0.066579551 0.33302909
0.028219467 0.066543415 0.33284238
0.028517528 0.066551983 0.33287925
0.028816145 0.066561677 0.33292159
0.029095033 0.066526055 0.33273727
0.029381165 0.066507541 0.3326385
0.029677974 0.066513322 0.33266118
0.029965429 0.066498227 0.3325794
0.030244391 0.066464767 0.33240569
0.030536551 0.066460669 0.3323788
0.030810202 0.066416763 0.33215275
0.031093709 0.066394724 0.33203602
0.031383198 0.066385739 0.33198455
0.031673759 0.066379182 0.33194512
0.031973496 0.066391781 0.33200151
0.032252632 0.066361777 0.33184472
0.032536611 0.066342182 0.33173996
0.03282544 0.066332743 0.3316859
0.033106554 0.066308029 0.33155546
0.03338249 0.066273443 0.3313756
0.033657443 0.066237539 0.33118913
0.033960544 0.066257171 0.3312802
0.034247402 0.066245042 0.33121246
0.034523059 0.066211648 0.33103836
0.034825694 0.066230103 0.33112344
0.035096366 0.066187978 0.33090562
0.035361841 0.06613683 0.33064261
0.035652902 0.066133983 0.330621
0.035929088 0.066103823 0.33046284
0.036233488 0.066125624 0.33056438
0.036511622 0.066099532 0.33042645
0.036813177 0.066115916 0.33050078
0.037072089 0.06605605 0.33019397
0.037352938 0.066035919 0.33008566
0.037666369 0.066073239 0.33026454
0.037928648 0.066020958 0.32999542
0.038213223 0.066007979 0.32992277
0.038495317 0.065990947 0.32982975
0.038764816 0.065952741 0.32963091
0.039064631 0.065966301 0.32969072
0.03935134 0.065957695 0.3296397
0.03964062 0.065953486 0.32961062
0.0399171 0.065928191 0.32947615
0.04018468 0.065888688 0.32927054
0.040480308 0.065895401 0.3292959
0.040746439 0.065854348 0.32908249
0.04103129 0.065843903 0.32902199
0.041325707 0.065848872 0.32903844
0.041616909 0.065848671 0.32902905
0.041883849 0.065810345 0.32882914
0.042157598 0.06578318 0.32868487
0.042438772 0.065767892 0.32859996
0.042735837 0.065777265 0.32863823
0.043019444 0.06576594 0.32857299
0.043292638 0.065738961 0.32842949
0.043569535 0.065717928 0.32831568
0.043859035 0.065716051 0.32829753
0.044137634 0.065697968 0.3281984
0.044412792 0.065675043 0.32807496
0.044689026 0.065653987 0.32796085
0.044983063 0.065659188 0.32797787
0.045271967 0.065656886 0.32795733
0.045545839 0.065632939 0.32782871
0.045805257 0.065588608 0.32759815
0.046087783 0.065577723 0.32753462
0.046380337 0.065581135 0.32754248
0.046649415 0.065551527 0.32738534
0.046930492 0.065539047 0.32731369
0.047202025 0.065513469 0.3271766
0.0474943 0.065516807 0.3271839
0.047779914 0.065510973 0.32714534
0.048060227 0.065497987 0.32707101
0.048322085 0.06546016 0.32687259
0.048597582 0.065441139 0.32676804
0.048879448 0.06543088 0.32670721
0.049166508 0.065427653 0.32668144
0.049448937 0.065418325 0.32662517
0.049704496 0.065373771 0.32639298
0.049990304 0.065369293 0.32636082
0.050281484 0.065371841 0.32636371
0.050562963 0.065361813 0.32630381
0.050839566 0.065345652 0.32621315
0.051139746 0.065359794 0.3262738
0.0074538076 0.068069331 0.33924708
0.0077521093 0.068056308 0.3391802
0.0080517484 0.068055548 0.33917445
0.008352085 0.068060532 0.33919722
0.0086473646 0.06802538 0.33901989
0.0089483913 0.068036288 0.33907202
0.0092492132 0.068044975 0.33911309
0.0095413951 0.06799154 0.33884448
0.0098334262 0.067940325 0.33858687
0.010129618 0.067920022 0.33848324
0.010430425 0.067930937 0.33853516
0.01072858 0.067924447 0.33850026
0.011027698 0.067924246 0.33849669
0.011323301 0.067902975 0.338388
0.011622325 0.067902789 0.3383843
0.011927657 0.067938529 0.33855966
0.012232753 0.067971207 0.33871967
0.012539892 0.068013407 0.33892703
0.018687986 0.067498997 0.33628932
0.018975247 0.067463346 0.33610752
0.019256163 0.067406595 0.3358205
0.019559279 0.067428082 0.33592328
0.019839499 0.067371182 0.33563545
0.020141043 0.067387313 0.33571139
0.020426832 0.067351021 0.33552611
0.02071299 0.067316964 0.33535191
0.021004522 0.06730108 0.33526826
0.021291444 0.067271091 0.33511421
0.021586247 0.067266464 0.33508646
0.021880692 0.067260861 0.33505383
0.022174677 0.067254022 0.33501491
0.02246335 0.067231461 0.33489767
0.022754127 0.067215696 0.33481425
0.023048818 0.067211755 0.3347896
0.023331506 0.067173347 0.3345933
0.023621963 0.067157999 0.33451176
0.023912817 0.067144133 0.33443755
0.024197625 0.067113839 0.33428144
0.024497585 0.06712579 0.33433574
0.024786819 0.06710843 0.33424395
0.025071314 0.067078784 0.33409092
0.025366968 0.067079343 0.3340883
0.025653699 0.067056559 0.33396935
0.025949109 0.06705673 0.33396465
0.026228571 0.06701614 0.33375689
0.026511168 0.06698437 0.33359304
0.026810929 0.066996194 0.33364624
0.027090028 0.066956691 0.33344379
0.027384017 0.066954441 0.33342677
0.027676187 0.066947848 0.33338806
0.027963161 0.066928945 0.33328804
0.028249508 0.066908956 0.33318251
0.028529754 0.066875085 0.33300781
0.02881992 0.0668649 0.33295104
0.029102046 0.066836469 0.33280337
0.02939879 0.066841848 0.33282393
0.02967708 0.066805571 0.33263707
0.029969554 0.066801623 0.33261111
0.030265898 0.066806287 0.33262801
0.03055324 0.066791192 0.33254644
0.0308335 0.066761047 0.33238989
0.031119656 0.066744111 0.33229908
0.03139177 0.066697672 0.33206129
0.031682298 0.066690825 0.33202064
0.031980027 0.06669914 0.33205536
0.03226497 0.066680878 0.3319577
0.032552414 0.066668078 0.33188722
0.032827891 0.066631205 0.33169681
0.033120498 0.06662944 0.33168119
0.033416785 0.066635057 0.33170217
0.033677042 0.066569336 0.33136806
0.033963423 0.066555962 0.33129448
0.03425438 0.066551708 0.33126616
0.034554686 0.066565521 0.33132783
0.034835778 0.066542402 0.33120558
0.035115644 0.066517338 0.33107358
0.035383601 0.066470347 0.33083236
0.03565779 0.06643571 0.33065265
0.03594387 0.066423617 0.33058509
0.036259174 0.066465281 0.33078501
0.036537476 0.06643901 0.33064675
0.036805701 0.066394977 0.33042005
0.037118629 0.066431627 0.33059484
0.037390415 0.066394657 0.33040321
0.03767655 0.066383541 0.33034021
0.037953485 0.066356495 0.3301979
0.038247213 0.066359013 0.33020264
0.038521945 0.066328786 0.33004436
0.038792435 0.066291772 0.32985225
0.039083816 0.066290729 0.32983914
0.039372467 0.066285104 0.32980317
0.039658379 0.066274993 0.32974482
0.039946817 0.066269219 0.32970795
0.040223096 0.066243492 0.32957184
0.040505774 0.066228621 0.32948962
0.040787157 0.066211835 0.32939789
0.041047256 0.066160992 0.32913667
0.041348189 0.066176221 0.32920408
0.041634899 0.066168636 0.32915792
0.0419151 0.066150874 0.32906112
0.042189356 0.066124037 0.32891917
0.042472076 0.066110745 0.32884452
0.042747173 0.066085853 0.32871211
0.043049395 0.066102952 0.32878849
0.043330789 0.066088036 0.32870564
0.043595217 0.066047631 0.32849595
0.043858599 0.066006191 0.32828104
0.044138916 0.065990597 0.32819471
0.04443258 0.065995038 0.32820791
0.04472011 0.065990373 0.32817578
0.045007605 0.065985717 0.32814369
0.04527887 0.065957472 0.3279942
0.045571063 0.065959886 0.32799712
0.045836966 0.065924458 0.32781187
0.046126645 0.065923452 0.32779771
0.046389177 0.065883905 0.32759187
0.046693657 0.065904044 0.32768276
0.046945658 0.065850332 0.32740641
0.047228381 0.06584011 0.32734627
0.047519729 0.065841958 0.32734603
0.047802791 0.065832376 0.32728899
0.048063226 0.065791935 0.32707846
0.048358753 0.065799721 0.32710764
0.048620041 0.065761112 0.32690611
0.048895288 0.065741718 0.32680014
0.04917869 0.065733463 0.32674944
0.049478594 0.065747224 0.32680815
0.049735893 0.065704547 0.32658628
0.050026417 0.065706 0.32658371
0.050296199 0.06568034 0.32644638
0.050579596 0.065672658 0.32639834
0.050873306 0.065678388 0.32641688
0.051154826 0.065668397 0.32635725
0.0077552535 0.068383224 0.3393003
0.0080544706 0.068377897 0.33927181
0.0083538853 0.068374552 0.33925316
0.0086516887 0.068358704 0.33917239
0.0089495229 0.068344153 0.33909801
0.0092472536 0.068329766 0.33902439
0.009548232 0.068339542 0.33907056
0.0098445108 0.068316095 0.33895189
0.010138168 0.068276383 0.33875242
0.01043379 0.068251796 0.33862793
0.010728843 0.068224952 0.33849221
0.011029337 0.068233229 0.33853066
0.011326939 0.068223655 0.3384805
0.011627818 0.068233795 0.33852807
0.011932282 0.068263933 0.33867481
0.012235295 0.068284504 0.33877403
0.012540653 0.068316855 0.33893162
0.012851995 0.068379536 0.33923963
0.018984409 0.067793109 0.33625481
0.019274931 0.067769378 0.33613285
0.019564116 0.067741722 0.33599138
0.019846018 0.067690074 0.33573085
0.020142823 0.067690015 0.3357262
0.020435488 0.067676246 0.33565342
0.020731278 0.067673072 0.33563319
0.021023385 0.067658149 0.33555457
0.021303441 0.067605384 0.33528823
0.021595694 0.067592241 0.33521834
0.021894652 0.067600161 0.33525288
0.022184996 0.067581609 0.33515608
0.022475898 0.067565247 0.33507007
0.02275656 0.067518905 0.33483535
0.023051608 0.06751591 0.33481553
0.023347363 0.067515023 0.33480608
0.023634464 0.067489445 0.33467418
0.023925213 0.067474782 0.33459634
0.024219198 0.0674695 0.33456495
0.024511663 0.067460157 0.33451337
0.024802906 0.067447715 0.33444634
0.025087032 0.067416437 0.33428589
0.025365418 0.067370646 0.3340534
0.025655568 0.067356788 0.33397925
0.025958063 0.067375287 0.33406547
0.026239339 0.067338921 0.33387956
0.026532436 0.067333348 0.3338463
0.026819361 0.067312427 0.33373684
0.027111566 0.067305058 0.33369458
0.027393673 0.067273051 0.33353007
0.027690765 0.067278124 0.33354938
0.027979046 0.067261919 0.3334631
0.028267367 0.067246139 0.33337891
0.028544892 0.067205258 0.33317026
0.028828731 0.067179948 0.33303866
0.029116455 0.067164093 0.33295396
0.029407125 0.067155279 0.3329041
0.029692151 0.067133896 0.33279184
0.029990364 0.067142449 0.33282796
0.030274069 0.06711866 0.33270371
0.030565344 0.067111954 0.33266407
0.030849943 0.067090869 0.33255306
0.031137573 0.067076698 0.33247635
0.031418886 0.067049317 0.33233404
0.031704132 0.067030758 0.33223546
0.0319787 0.066990159 0.33202758
0.032270666 0.066986427 0.33200237
0.032565184 0.066987999 0.33200341
0.032844987 0.066959552 0.3318556
0.033134211 0.066950649 0.3318046
0.033427432 0.066949897 0.33179396
0.033704549 0.066917181 0.33162484
0.033978168 0.066878147 0.33142442
0.034269243 0.066873871 0.33139607
0.034572713 0.066893607 0.33148679
0.034862131 0.066886082 0.3314423
0.03513553 0.066848189 0.33124727
0.035423022 0.066837527 0.33118713
0.035689402 0.066787519 0.33093205
0.035962626 0.066751033 0.33074385
0.036254317 0.066749133 0.33072698
0.036552832 0.06675972 0.33077198
0.036838073 0.066746101 0.33069694
0.037124068 0.066734038 0.33062962
0.037408434 0.066719264 0.33054873
0.037705366 0.066726953 0.33057916
0.03798113 0.066697367 0.33042482
0.038271617 0.06669388 0.33039972
0.038529415 0.066633902 0.33009478
0.038801707 0.066599712 0.32991752
0.039089322 0.066592142 0.32987204
0.039373547 0.06657894 0.32979867
0.039671835 0.066589542 0.32984313
0.039950281 0.066566929 0.32972306
0.040238921 0.066561505 0.32968804
0.040523611 0.066549659 0.3296212
0.040805627 0.06653364 0.32953361
0.04106817 0.066486321 0.32929093
0.041384112 0.066525504 0.32947665
