# .PCD v0.7 - Point Cloud Data file format
VERSION 0.7
FIELDS x y z
SIZE 4 4 4
TYPE F F F
COUNT 1 1 1
WIDTH 1337
HEIGHT 1
VIEWPOINT 0 0 0 1 0 0 0
POINTS 1337
DATA ascii
-0.01189207 0.02630955 0.43375441
-0.01150856 0.026305143 0.43368387
-0.011123396 0.026296528 0.43354383
-0.010741768 0.02629596 0.43353635
-0.010356216 0.026285384 0.43336383
-0.0099740429 0.02628291 0.43332478
-0.0095945746 0.026287653 0.43340465
-0.0092182606 0.026301788 0.43363929
-0.0088375602 0.026304089 0.43367869
-0.066668749 0.027733631 0.44958383
-0.066279344 0.027736556 0.44964471
-0.065867573 0.027730102 0.44955349
-0.065449655 0.027720965 0.44941869
-0.065040313 0.027715372 0.44934127
-0.064632595 0.027710404 0.44927388
-0.06422317 0.027704641 0.44919357
-0.063811019 0.027697628 0.44909286
-0.063378446 0.027681604 0.44884601
-0.062954858 0.027669331 0.44865984
-0.062549956 0.027665162 0.44860503
-0.062143527 0.027660266 0.44853833
-0.061706282 0.027641501 0.44824669
-0.061312985 0.027642306 0.44827229
-0.060899779 0.02763409 0.44815153
-0.06049588 0.027630016 0.44809783
-0.060077094 0.027619047 0.44793224
-0.059651148 0.027604621 0.44771051
-0.059239898 0.027596846 0.44759655
-0.058843546 0.027595954 0.44759417
-0.058430057 0.027586961 0.44746029
-0.058020387 0.027579661 0.44735381
-0.057581808 0.027558427 0.44702122
-0.057176266 0.027552823 0.44694203
-0.056781124 0.027552184 0.44694334
-0.0563794 0.027548321 0.44689223
-0.055973772 0.027542485 0.44680908
-0.055553574 0.027529342 0.44660732
-0.055151537 0.027525082 0.44654953
-0.05473607 0.027514005 0.44638112
-0.054323629 0.027504303 0.44623488
-0.053931598 0.027504867 0.44625518
-0.053512074 0.027491316 0.44604632
-0.05311517 0.027489271 0.44602412
-0.052685704 0.027470218 0.44572583
-0.05231899 0.027483847 0.44595772
-0.051913522 0.027477171 0.44586012
-0.051578727 0.027508084 0.44637233
-0.023529116 0.026908549 0.4371739
-0.023141477 0.026905101 0.43712249
-0.022755621 0.026903639 0.43710333
-0.022365805 0.026897367 0.43700591
-0.021969782 0.02688328 0.43678147
-0.02158311 0.026880344 0.43673807
-0.021190291 0.026869502 0.43656614
-0.020804113 0.02686684 0.43652701
-0.020416895 0.026862705 0.43646389
-0.020024434 0.026851386 0.43628395
-0.01964101 0.026851982 0.43629751
-0.019253045 0.026846267 0.43620846
-0.018861512 0.026835246 0.43603307
-0.018474804 0.026830774 0.43596405
-0.018081306 0.026816042 0.43572825
-0.017698904 0.026817488 0.43575519
-0.017301161 0.026795236 0.435397
-0.016917421 0.026794162 0.43538278
-0.016526842 0.02678195 0.43518758
-0.016144834 0.026783381 0.43521392
-0.015757095 0.026775142 0.43508309
-0.0153667 0.026761871 0.43487039
-0.014984854 0.026763191 0.43489468
-0.014598466 0.026756257 0.4347848
-0.014212075 0.026748942 0.4346686
-0.01382606 0.026741955 0.43455765
-0.013440441 0.026735358 0.43445298
-0.013052412 0.026723439 0.43426171
-0.012670732 0.026724195 0.43427637
-0.012282782 0.026711365 0.43407014
-0.011898705 0.026706401 0.43399164
-0.011513247 0.026697915 0.4338558
-0.01113115 0.0266969 0.43384132
-0.010743595 0.026682267 0.43360543
-0.010363258 0.026685139 0.43365395
-0.0099778501 0.026674675 0.43348566
-0.0095997564 0.026683714 0.43363422
-0.0092177037 0.026682043 0.43360865
-0.066720001 0.028152065 0.44992375
-0.066307858 0.028145509 0.44983253
-0.065904178 0.028142489 0.44979763
-0.06548252 0.028131714 0.44963872
-0.065072872 0.028125988 0.44956049
-0.06465064 0.02811473 0.44939375
-0.064245388 0.028110761 0.44934332
-0.063827835 0.028101327 0.44920558
-0.063434571 0.02810253 0.44923776
-0.062985986 0.028079094 0.44887593
-0.062575825 0.028072597 0.44878489
-0.062167332 0.028066771 0.44870445
-0.061753631 0.028058505 0.44858491
-0.06132935 0.028045293 0.44838622
-0.060920842 0.028039169 0.44830081
-0.060510162 0.028031962 0.44819796
-0.060107384 0.028028343 0.44815239
-0.059695784 0.028020538 0.44803983
-0.059285115 0.028013065 0.44793248
-0.058862485 0.027999809 0.44773257
-0.058474831 0.028003119 0.44779751
-0.058033034 0.02798037 0.44744569
-0.05762317 0.027972808 0.44733661
-0.057197321 0.027957339 0.44710091
-0.056799002 0.027955201 0.44707841
-0.056386355 0.027945928 0.4469417
-0.055994604 0.027946958 0.44696969
-0.05557178 0.027932389 0.44674805
-0.055171847 0.027929192 0.44670832
-0.054752387 0.027915997 0.44650853
-0.054347675 0.027910184 0.44642675
-0.053953465 0.02790972 0.44643039
-0.053547923 0.027903343 0.44633949
-0.053131614 0.027891222 0.44615653
-0.052717123 0.027879883 0.445986
-0.052350104 0.027893668 0.4462173
-0.051958598 0.027894516 0.44624156
-0.051604453 0.027915586 0.44658926
-0.023151964 0.02730245 0.4373152
-0.022760315 0.027294232 0.43718812
-0.022374414 0.027292745 0.43716881
-0.021981889 0.027282983 0.43701681
-0.021596964 0.027282475 0.437013
-0.021205232 0.027273193 0.43686855
-0.020812139 0.027261792 0.43669006
-0.020427985 0.02726189 0.43669567
-0.020041501 0.027258823 0.43665054
-0.019651404 0.027250623 0.43652308
-0.019255366 0.027233699 0.43625575
-0.018868648 0.027229536 0.43619278
-0.018478626 0.027220335 0.43604901
-0.018086948 0.02720825 0.43585896
-0.017706065 0.027212234 0.43592623
-0.017317101 0.027203705 0.43579298
-0.016927242 0.027193349 0.43563035
-0.016543834 0.027193118 0.43562984
-0.016148945 0.027173556 0.4353196
-0.01576204 0.027166812 0.43521458
-0.015378542 0.027165744 0.43520045
-0.014990373 0.027156163 0.43504977
-0.014604511 0.027150368 0.43495974
-0.014216837 0.027140809 0.4348093
-0.013832094 0.027136467 0.4347423
-0.013447936 0.027133061 0.43469024
-0.013059312 0.027120182 0.43448636
-0.012674293 0.027114242 0.43439355
-0.012292984 0.027116114 0.43442577
-0.011902796 0.027097892 0.43413603
-0.01151646 0.02708753 0.43397212
-0.011134846 0.02708794 0.43398067
-0.010749446 0.027078846 0.43383688
-0.010366069 0.027074367 0.43376696
-0.0099821715 0.027068131 0.43366879
-0.0096016685 0.027070979 0.43371606
-0.0092205787 0.027072337 0.43373942
-0.0088428017 0.027083961 0.43392715
-0.066724993 0.028551314 0.44995165
-0.066341586 0.028557051 0.45005554
-0.065917596 0.028545281 0.44988346
-0.065518729 0.028544312 0.44988155
-0.06511829 0.028542649 0.44986859
-0.0646929 0.028529953 0.44968167
-0.064281948 0.028523514 0.44959328
-0.06385532 0.028509997 0.44939321
-0.063437477 0.028500253 0.44925261
-0.063024819 0.028492738 0.44914699
-0.062609233 0.028483791 0.44901872
-0.062185992 0.02847123 0.44883341
-0.061799452 0.028475413 0.44891199
-0.061385065 0.028466739 0.44878781
-0.060975946 0.028460413 0.44870055
-0.060524289 0.02843402 0.44829682
-0.060124587 0.02843185 0.44827491
-0.059711728 0.028423388 0.4481537
-0.059309803 0.028420052 0.44811329
-0.058888257 0.028407207 0.44792283
-0.058482893 0.028402047 0.44785345
-0.05806388 0.028390149 0.4476777
-0.057649557 0.028380392 0.44753569
-0.057231117 0.02836846 0.44735932
-0.056843378 0.028371686 0.44742188
-0.056419943 0.028357022 0.44720215
-0.056007434 0.028347677 0.44706634
-0.055599093 0.028340328 0.44696185
-0.055175673 0.028325133 0.44673353
-0.054781523 0.028324848 0.44674033
-0.054369856 0.028315442 0.44660315
-0.053966399 0.028310206 0.44653168
-0.05356117 0.028303955 0.44644412
-0.053152535 0.028295802 0.4463264
-0.052772433 0.028302828 0.44644815
-0.052377749 0.028302085 0.44644716
-0.052026141 0.028324775 0.44681585
-0.051626597 0.028321518 0.44677511
-0.023161421 0.027698919 0.43748832
-0.022772469 0.027694058 0.43741611
-0.022382703 0.027688021 0.43732524
-0.021994943 0.027684303 0.43727091
-0.021609588 0.027683528 0.43726298
-0.021212978 0.027668053 0.43702278
-0.020818824 0.027655266 0.43682495
-0.020432903 0.027653141 0.43679544
-0.020043684 0.027646385 0.43669268
-0.019658327 0.027644796 0.4366715
-0.019263808 0.027630005 0.43644166
-0.018881263 0.02763214 0.43647906
-0.018488148 0.027618572 0.43626839
-0.018100083 0.027612131 0.43617019
-0.017714065 0.027608603 0.43611792
-0.017321875 0.02759509 0.43590784
-0.016933361 0.027586952 0.43578258
-0.016549813 0.027586715 0.43578202
-0.016156795 0.027570309 0.43552598
-0.015773831 0.027570682 0.43553492
-0.015383326 0.027557567 0.43533066
-0.014996622 0.027550763 0.43522602
-0.014608763 0.027541427 0.4350813
-0.014228445 0.027546184 0.43515918
-0.013838247 0.027531555 0.43493065
-0.013453721 0.027527697 0.43487221
-0.013063805 0.027512267 0.4346309
-0.012678014 0.02750485 0.43451607
-0.012294093 0.027501162 0.43446004
-0.011909363 0.027495366 0.43437067
-0.011522091 0.027483128 0.43417946
-0.01113724 0.027476022 0.43406919
-0.01075221 0.02746796 0.43394369
-0.010371776 0.027471473 0.43400103
-0.0099856826 0.027459696 0.4338167
-0.0096035413 0.027458282 0.43379608
-0.0092236735 0.027463524 0.43388045
-0.0088483421 0.027483311 0.43419454
-0.0084636332 0.027474444 0.43405584
-0.0080867466 0.027491331 0.43432397
-0.06674289 0.028956221 0.45006651
-0.066382259 0.028972022 0.45032561
-0.06596151 0.028961621 0.45017734
-0.06554845 0.028954491 0.4500798
-0.065130584 0.028945135 0.44994766
-0.064720452 0.028939119 0.44986734
-0.064302772 0.028929641 0.44973305
-0.063898154 0.028925957 0.44968882
-0.063484848 0.028918268 0.44958225
-0.063038833 0.028895488 0.44924095
-0.062621303 0.028885566 0.44909945
-0.0622206 0.028883325 0.44907734
-0.061810803 0.028876806 0.44898862
-0.061395578 0.028867653 0.44885883
-0.060991693 0.028863745 0.44881055
-0.060560521 0.028846797 0.44855934
-0.060166057 0.028847218 0.44857824
-0.059733409 0.028829221 0.44831058
-0.059335668 0.028827941 0.44830287
-0.058933906 0.028824676 0.44826418
-0.058506399 0.028808696 0.44802767
-0.058088087 0.028797057 0.44785851
-0.057682008 0.028791361 0.44778177
-0.057271492 0.028783357 0.44766906
-0.056860201 0.028774852 0.44754845
-0.056456499 0.028770097 0.44748604
-0.056057919 0.028767904 0.44746348
-0.055634353 0.028752761 0.4472394
-0.055203259 0.02873349 0.446951
-0.054802384 0.028729782 0.4469046
-0.054386381 0.028718038 0.44673306
-0.053969812 0.028705817 0.44655403
-0.053575505 0.028705347 0.44655776
-0.053168986 0.028698277 0.44645873
-0.052816007 0.028720213 0.44681087
-0.052403945 0.028710118 0.44666457
-0.052028615 0.02872014 0.44683123
-0.051669259 0.028739203 0.44713846
-0.022784153 0.028093716 0.43763497
-0.022391595 0.028084345 0.43749347
-0.022002449 0.028078999 0.43741459
-0.021609601 0.028068652 0.43725774
-0.021227054 0.02807156 0.43730724
-0.02083919 0.02806741 0.43724674
-0.020446157 0.028056012 0.43707326
-0.020051887 0.028042452 0.43686596
-0.019660644 0.028032677 0.43671757
-0.019277347 0.028034065 0.43674302
-0.018882863 0.028018914 0.43651065
-0.018494714 0.028012732 0.43641794
-0.018106112 0.028005581 0.43631008
-0.017720353 0.028002614 0.43626738
-0.017330535 0.027992966 0.43612039
-0.016944164 0.027988575 0.43605527
-0.016555339 0.027979834 0.43592227
-0.016162861 0.027964355 0.43568426
-0.015775772 0.027957678 0.43558326
-0.015390646 0.027954234 0.43553254
-0.015003171 0.027946241 0.43541089
-0.014620052 0.027946156 0.43541226
-0.014231035 0.027934488 0.43523321
-0.013844126 0.027926432 0.43511027
-0.013461079 0.027925931 0.43510497
-0.013071038 0.027910465 0.43486646
-0.012685302 0.027903538 0.43476084
-0.012300486 0.027898265 0.43468097
-0.011914232 0.027889295 0.43454334
-0.011530543 0.027885925 0.43449298
-0.011144064 0.027875355 0.43433025
-0.010760834 0.027872453 0.43428692
-0.01037492 0.027862122 0.43412784
-0.0099890353 0.027851092 0.43395767
-0.0096084625 0.02785458 0.43401369
-0.0092287874 0.027861068 0.43411642
-0.0088450024 0.027855176 0.43402609
-0.0084690964 0.027874691 0.43433154
-0.0080899857 0.027885007 0.4344936
-0.066768274 0.029364636 0.45023179
-0.066398941 0.029376874 0.4504329
-0.065986998 0.029370293 0.45034537
-0.065570995 0.029361807 0.45022863
-0.065157488 0.029354354 0.45012757
-0.064750969 0.02934997 0.45007354
-0.064339764 0.029343404 0.44998592
-0.063933492 0.02933901 0.44993162
-0.063517913 0.029330267 0.44981045
-0.063069269 0.029306052 0.44945195
-0.062684253 0.029311281 0.44954494
-0.062244605 0.029290877 0.44924465
-0.061835673 0.029284751 0.44916335
-0.061410315 0.029270718 0.44896066
-0.061011225 0.029269105 0.44894838
-0.060602136 0.029262638 0.44886163
-0.060191911 0.029255541 0.44876507
-0.059759989 0.029237736 0.44850415
-0.059359737 0.02923529 0.44847879
-0.058941551 0.029223917 0.4483164
-0.0585219 0.029211666 0.44814044
-0.058119513 0.029207919 0.44809484
-0.057705738 0.029198363 0.44796008
-0.057289645 0.029187489 0.44780502
-0.056877449 0.029178467 0.44767827
-0.056483615 0.029178804 0.44769508
-0.056073494 0.029170677 0.44758189
-0.055665515 0.029163554 0.44748402
-0.055250227 0.029152475 0.44732535
-0.054836806 0.029142231 0.44717941
-0.054403584 0.029121237 0.44686845
-0.054003846 0.029117987 0.44682971
-0.053603895 0.029114578 0.44678846
-0.053206872 0.029112725 0.44677091
-0.05283244 0.029123291 0.44694397
-0.052459605 0.029134909 0.44713306
-0.052071884 0.029138369 0.44719687
-0.051677261 0.029137993 0.44720176
-0.022785237 0.028480522 0.43765014
-0.022398291 0.028478181 0.43761864
-0.02201106 0.028475393 0.4375802
-0.021625658 0.028474906 0.43757707
-0.02123237 0.028463835 0.43741116
-0.020845983 0.028461782 0.43738374
-0.020455755 0.028454306 0.43727288
-0.020063007 0.02844297 0.43710271
-0.019673014 0.028435176 0.43698677
-0.019278731 0.028420748 0.43676883
-0.018890981 0.028415551 0.43669274
-0.018502165 0.028408518 0.43658823
-0.018116286 0.028405784 0.43654978
-0.01773016 0.028402543 0.43650338
-0.017340008 0.028392561 0.43635339
-0.016944557 0.028373258 0.43606001
-0.016566716 0.028383227 0.43621644
-0.016169345 0.028359424 0.43585372
-0.015785536 0.028358823 0.43584749
-0.015398354 0.028351985 0.43574536
-0.015010908 0.0283443 0.43563008
-0.014625038 0.028339274 0.43555558
-0.014236899 0.028329454 0.43540737
-0.013854759 0.028331362 0.43543926
-0.013464706 0.028316736 0.43521705
-0.013077893 0.02830827 0.43508935
-0.012690079 0.028297065 0.43491951
-0.012303726 0.028288525 0.43479043
-0.011918156 0.028281288 0.43468142
-0.011532973 0.028274527 0.43457958
-0.011148438 0.028268946 0.43449578
-0.010764657 0.028264949 0.43443629
-0.010378736 0.028254837 0.43428269
-0.0099930139 0.028244512 0.43412572
-0.0096130464 0.028250279 0.43421602
-0.009230257 0.028247891 0.43418089
-0.0088516986 0.028258804 0.43435013
-0.008470227 0.028260982 0.43438503
-0.066828303 0.029788798 0.45063058
-0.066444889 0.029795045 0.45073855
-0.066029944 0.029787146 0.45063248
-0.065615363 0.029779311 0.45052731
-0.065188937 0.029765978 0.45033884
-0.064760454 0.029751534 0.45013347
-0.064372294 0.02975555 0.45020735
-0.06395442 0.029745804 0.45007288
-0.063527718 0.029731795 0.44987389
-0.063124873 0.029728848 0.44984215
-0.062698677 0.029714806 0.44964242
-0.062290873 0.02970935 0.44957259
-0.061862759 0.029694075 0.44935405
-0.06145389 0.029687902 0.44927323
-0.061040536 0.029679468 0.44915804
-0.060616802 0.029665845 0.44896427
-0.060216803 0.029663734 0.44894463
-0.059780855 0.02964377 0.44865471
-0.059374999 0.029638566 0.4485881
-0.058971677 0.029634558 0.44853953
-0.058581967 0.029637389 0.44859436
-0.058140103 0.02961369 0.44824761
-0.057714052 0.029597782 0.44801861
-0.057316504 0.029596372 0.44800898
-0.056902982 0.029586632 0.44787323
-0.056505941 0.029585388 0.44786602
-0.056082968 0.029570453 0.44765145
-0.055677999 0.029564871 0.44757834
-0.055272069 0.02955869 0.44749615
-0.054870088 0.029554553 0.44744477
-0.054440401 0.029535325 0.44716486
-0.054043476 0.029533718 0.4471516
-0.053642731 0.029529985 0.44710615
-0.053255849 0.029533885 0.44717616
-0.052838661 0.029520912 0.44699061
-0.052470583 0.029535389 0.44722062
-0.052106086 0.029552119 0.44748461
-0.022412324 0.028881704 0.43788713
-0.022017481 0.028869215 0.43770215
-0.021631846 0.028868565 0.43769664
-0.021241058 0.028860893 0.43758452
-0.020849667 0.028852101 0.43745539
-0.020462023 0.028848264 0.43740124
-0.020071857 0.028840657 0.43728989
-0.019685652 0.028838554 0.43726188
-0.019295029 0.028829766 0.43713245
-0.018903717 0.028819578 0.43698165
-0.018510191 0.028805515 0.43677211
-0.018119279 0.028795015 0.43661642
-0.017732117 0.028790146 0.43654606
-0.01734929 0.028792258 0.43658146
-0.016956743 0.028777974 0.43636814
-0.016568422 0.028770365 0.43625596
-0.01618308 0.028767692 0.43621853
-0.015793061 0.028756371 0.43604988
-0.015404529 0.028747262 0.4359147
-0.015018495 0.028742474 0.43584493
-0.0146263 0.028725332 0.43558776
-0.014240329 0.028719824 0.43550697
-0.013857825 0.028721195 0.43553036
-0.013470584 0.028712548 0.43540177
-0.013085821 0.02870884 0.43534791
-0.012695721 0.02869284 0.43510768
-0.012313494 0.028694194 0.43513042
-0.011925393 0.028681511 0.43494028
-0.011539332 0.028673055 0.43481416
-0.0111535 0.028664611 0.43468809
-0.010769742 0.028661089 0.43463656
-0.010383988 0.028651794 0.43449751
-0.009999875 0.028646501 0.43441895
-0.0096158274 0.02864098 0.43433687
-0.0092334105 0.028640058 0.4343245
-0.0088518625 0.028641876 0.43435353
-0.0084727611 0.028652126 0.43451038
-0.0080941143 0.028664961 0.43470636
-0.066856511 0.0301993 0.45081472
-0.066452891 0.030196527 0.4507868
-0.066068403 0.030202467 0.45088887
-0.065643474 0.030189876 0.45071423
-0.065227345 0.03018121 0.45059815
-0.064813443 0.030173467 0.45049572
-0.064395063 0.030163536 0.45036054
-0.06397061 0.030150622 0.45018074
-0.063545778 0.030137362 0.4499957
-0.063153625 0.030139534 0.45004103
-0.062728517 0.030125909 0.44985032
-0.062304884 0.030112823 0.44966763
-0.061892137 0.030104864 0.44956136
-0.061506405 0.030110026 0.449651
-0.061078366 0.030094407 0.44943029
-0.060668699 0.030087704 0.44934255
-0.060237098 0.030069958 0.44908985
-0.059817657 0.030058092 0.44892487
-0.059409749 0.030051898 0.44884452
-0.058996312 0.030042807 0.44872078
-0.058582529 0.030033421 0.4485926
-0.05817017 0.030024635 0.4484733
-0.057755344 0.030014453 0.44833302
-0.057356078 0.03001227 0.44831219
-0.056923732 0.029992631 0.4480305
-0.05651265 0.029983997 0.44791308
-0.056116249 0.029983088 0.44791102
-0.055721395 0.029982997 0.44792107
-0.055294614 0.029965606 0.44767261
-0.054888219 0.029959088 0.44758651
-0.054471817 0.029946975 0.44741678
-0.054064576 0.029939761 0.4473201
-0.053663 0.029935604 0.44726902
-0.053263783 0.029932706 0.44723666
-0.052880745 0.029938927 0.44734049
-0.052481994 0.029936282 0.44731176
-0.022415148 0.029271077 0.43793657
-0.022033704 0.029276285 0.43801889
-0.021640388 0.029265629 0.43786374
-0.021245226 0.029252036 0.4376646
-0.020859953 0.029251819 0.43766546
-0.020471077 0.029246438 0.43758908
-0.020081345 0.029239614 0.43749091
-0.019687138 0.029225877 0.43728924
-0.019302465 0.029226024 0.43729529
-0.018910166 0.029214403 0.43712509
-0.018523606 0.02921135 0.43708301
-0.018129284 0.029195663 0.43685186
-0.017742092 0.029191036 0.43678609
-0.017354168 0.029184967 0.43669865
-0.016965443 0.02917725 0.43658647
-0.016580991 0.029176695 0.43658137
-0.016188061 0.029160839 0.43634722
-0.015800901 0.029154863 0.43626082
-0.015409474 0.029140528 0.43604922
-0.015023286 0.029135613 0.43597853
-0.014635895 0.029128052 0.4358682
-0.014246335 0.029115649 0.43568525
-0.013863537 0.029116763 0.43570453
-0.01347449 0.029104443 0.43552271
-0.013090272 0.029102143 0.43549073
-0.012706362 0.029100409 0.43546709
-0.012315812 0.029082883 0.43520716
-0.011933123 0.029083401 0.43521702
-0.011542697 0.029064471 0.43493581
-0.011156978 0.029056497 0.43481854
-0.010772376 0.02905098 0.43473786
-0.010385457 0.029038575 0.43455404
-0.01000066 0.029031379 0.43444815
-0.009620674 0.029038139 0.43455094
-0.0092370072 0.029033884 0.43448886
-0.0088543277 0.029032513 0.43446979
-0.0084713623 0.029030025 0.434434
-0.0080963159 0.029055733 0.43482003
-0.0077171745 0.029068563 0.43501326
-0.066884927 0.030610234 0.45100015
-0.066477738 0.03060586 0.45094919
-0.066084236 0.030607773 0.4509908
-0.065668389 0.030599294 0.45087919
-0.065261357 0.030594848 0.45082694
-0.064823888 0.030575985 0.45056218
-0.064422309 0.030573931 0.45054495
-0.064005814 0.030564718 0.45042226
-0.063579731 0.030550787 0.45022991
-0.063163057 0.030541239 0.45010206
-0.062753387 0.03053497 0.45002246
-0.062335894 0.030524796 0.44988519
-0.061927602 0.030519025 0.44981277
-0.061516631 0.03051185 0.44971961
-0.061099254 0.030501388 0.44957784
-0.060693957 0.030496858 0.44952348
-0.060271636 0.030483657 0.44934121
-0.059854999 0.030473173 0.4491989
-0.059436377 0.03046154 0.44903955
-0.059021279 0.03045156 0.44890454
-0.058623586 0.030450497 0.44890082
-0.058201943 0.030436888 0.44871214
-0.057777867 0.03042181 0.44850168
-0.0573764 0.030418517 0.44846487
-0.056957182 0.030405696 0.44828758
-0.056566097 0.030407829 0.44833058
-0.056117125 0.030378647 0.44791183
-0.055736993 0.030386586 0.44804028
-0.055325743 0.030377552 0.44791844
-0.054921255 0.030372128 0.44784972
-0.054500535 0.030357582 0.4476465
-0.054087464 0.030347118 0.4475033
-0.053689916 0.030345274 0.44748712
-0.053286787 0.030340228 0.44742367
-0.052907981 0.030349057 0.44756472
-0.052507255 0.030345352 0.44752088
-0.022044562 0.029676707 0.43822888
-0.02165419 0.029670203 0.43813714
-0.021263286 0.029662721 0.43803093
-0.020869805 0.029651297 0.43786636
-0.020475656 0.029638484 0.43768123
-0.020090722 0.029638773 0.43768942
-0.019698331 0.02962786 0.43753213
-0.019309955 0.029622665 0.43745926
-0.018919738 0.029614385 0.43734068
-0.018529268 0.029605353 0.43721095
-0.018138757 0.029595876 0.43707448
-0.017749865 0.029588683 0.43697172
-0.017360041 0.029579587 0.4368408
-0.016970307 0.029570237 0.43670601
-0.016585529 0.029569292 0.43669522
-0.016196508 0.029560562 0.43656939
-0.015805162 0.029547058 0.436373
-0.01542056 0.029545803 0.43635738
-0.015026134 0.029525183 0.43605572
-0.014641052 0.029522324 0.43601629
-0.014255404 0.02951814 0.43595719
-0.013869509 0.029513199 0.4358868
-0.013482467 0.029505474 0.43577522
-0.013092047 0.029489681 0.4355444
-0.012705822 0.029482678 0.43544331
-0.01232027 0.029476847 0.43535945
-0.011936175 0.02947424 0.43532309
-0.011552641 0.029472895 0.43530533
-0.011165594 0.029462187 0.43514919
-0.010775968 0.029443674 0.43487769
-0.010395936 0.029450983 0.43498746
-0.010007529 0.029434215 0.43474153
-0.009622803 0.029427374 0.43464214
-0.0092395935 0.029424801 0.43460572
-0.0088556353 0.029419513 0.43452913
-0.0084772082 0.029432956 0.4347291
-0.066914633 0.031022107 0.45119429
-0.066509336 0.031018639 0.45115733
-0.066115923 0.031020707 0.45120078
-0.065701202 0.031012736 0.45109817
-0.065282695 0.031002875 0.45096803
-0.064872056 0.030996654 0.45089072
-0.064438328 0.030979255 0.45065072
-0.064028867 0.030973382 0.45057827
-0.063613392 0.030964507 0.45046213
-0.063204937 0.030958956 0.45039421
-0.062775135 0.030942818 0.45017225
-0.062379487 0.030943409 0.45019358
-0.061949834 0.030927043 0.44996804
-0.06153778 0.0309193 0.44986799
-0.061116662 0.030906875 0.44969967
-0.06069497 0.030894 0.44952473
-0.060286712 0.030887838 0.44944733
-0.059887934 0.030886482 0.44943988
-0.0594722 0.030876303 0.4493039
-0.059045754 0.030860394 0.44908443
-0.058643889 0.030857202 0.44904998
-0.058225006 0.030844951 0.44888362
-0.057807568 0.030833308 0.448726
-0.057405327 0.030829661 0.44868469
-0.056987572 0.030817578 0.44852051
-0.056579899 0.030810816 0.4484337
-0.056155019 0.030794522 0.44820803
-0.055756982 0.030792819 0.44819471
-0.055341933 0.030781638 0.44804332
-0.054927278 0.030770509 0.44789258
-0.054516252 0.030761272 0.44776931
-0.054111589 0.030755514 0.44769663
-0.05371144 0.03075226 0.44766027
-0.053313054 0.030749971 0.44763795
-0.052946109 0.030765923 0.44788101
-0.05256357 0.030772984 0.44799459
-0.052204918 0.030794237 0.44831476
-0.051784951 0.030779377 0.44810906
-0.022048689 0.030068334 0.43830505
-0.02166478 0.030070812 0.43834552
-0.021270873 0.030059259 0.43818131
-0.020879129 0.030050386 0.43805614
-0.020489577 0.030044397 0.43797287
-0.02010121 0.030039953 0.43791205
-0.019703332 0.030020846 0.43763739
-0.019316111 0.030017534 0.43759292
-0.01892551 0.030008728 0.43746826
-0.018532326 0.02999538 0.43727729
-0.018146979 0.029994421 0.43726686
-0.01775749 0.029986423 0.43715373
-0.017370841 0.029982973 0.43710682
-0.016977316 0.029967239 0.43688071
-0.016591104 0.029963979 0.43683636
-0.016201496 0.029954284 0.43669814
-0.015813218 0.029946642 0.43658975
-0.015427127 0.029942861 0.43653759
-0.015039879 0.029936589 0.43644899
-0.014650779 0.029926205 0.4363004
-0.014258745 0.029909112 0.43605384
-0.013873063 0.029904762 0.43599305
-0.013490172 0.029906351 0.43601876
-0.013096552 0.029883558 0.43568888
-0.012714227 0.029885942 0.43572596
-0.012325295 0.029872464 0.43553168
-0.011940728 0.029869035 0.43548387
-0.011553677 0.029858962 0.43533909
-0.011169544 0.029856004 0.43529797
-0.01078481 0.02985117 0.43522939
-0.01040065 0.029847626 0.43517959
-0.010010536 0.029826077 0.43486714
-0.0096281627 0.029826792 0.43487924
-0.0092431698 0.029819125 0.434769
-0.0088583678 0.029811434 0.43465838
-0.0084778545 0.029818138 0.4347575
-0.0081000207 0.029835341 0.43500969
-0.0077172988 0.029835364 0.43501121
-0.066913486 0.031419843 0.45118019
-0.066535741 0.031429343 0.45133007
-0.066124365 0.031422976 0.45125204
-0.065717354 0.031418614 0.45120275
-0.065308742 0.031413436 0.45114163
-0.064899795 0.031408034 0.45107722
-0.064471938 0.031393349 0.45087942
-0.064051799 0.03138227 0.4507333
-0.063628644 0.031369567 0.45056379
-0.06322819 0.031367961 0.4505536
-0.062819153 0.031362057 0.45048156
-0.062402569 0.031352274 0.45035383
-0.061981659 0.031340193 0.45019287
-0.061571237 0.031333286 0.45010623
-0.061145838 0.031318624 0.44990805
-0.060731981 0.031309716 0.44979247
-0.060309134 0.03129603 0.44960818
-0.059908066 0.031293537 0.4495846
-0.059491966 0.031283107 0.44944689
-0.059076466 0.031272855 0.4493117
-0.05866649 0.031265412 0.44921672
-0.058250811 0.031254802 0.44907624
-0.057821281 0.03123657 0.44882607
-0.05741835 0.031232554 0.44878015
-0.057020653 0.031231349 0.44877452
-0.056603476 0.031219387 0.44861421
-0.056187883 0.031208131 0.44846398
-0.05578962 0.031206416 0.44845074
-0.055374928 0.031195415 0.44830406
-0.054951515 0.031179318 0.44808394
-0.054534059 0.031166378 0.44790921
-0.054140255 0.031166879 0.4479275
-0.053725474 0.031155217 0.44777089
-0.053326409 0.031152563 0.44774374
-0.052957676 0.031167727 0.44797251
-0.052577294 0.031176206 0.44810519
-0.022050662 0.030457128 0.43833825
-0.021665405 0.030457797 0.4383522
-0.021276213 0.030452859 0.43828538
-0.020885371 0.030445328 0.43818113
-0.020500712 0.030446704 0.43820497
-0.02010921 0.030437777 0.43808049
-0.019714458 0.030423477 0.43787858
-0.019327475 0.030420845 0.43784449
-0.018935742 0.030410472 0.4376989
-0.018541921 0.030396255 0.43749788
-0.018157979 0.03039797 0.43752614
-0.017761922 0.030379035 0.43725699
-0.017375577 0.030376246 0.43722025
-0.016984548 0.030364957 0.43706104
-0.016595671 0.03035708 0.43695086
-0.016207308 0.030349793 0.43684909
-0.015821641 0.030347325 0.43681663
-0.015431878 0.030336685 0.43666637
-0.015047569 0.030336497 0.43666655
-0.014658638 0.030326735 0.4365288
-0.014272458 0.030322298 0.43646762
-0.013877822 0.030299151 0.43613705
-0.013494227 0.030299485 0.43614432
-0.013106585 0.030290479 0.43601716
-0.012717441 0.03027736 0.43583065
-0.012332353 0.03027338 0.43577564
-0.011946019 0.030265994 0.43567148
-0.011557845 0.0302533 0.43549085
-0.011173395 0.030249821 0.43544275
-0.010787647 0.030242454 0.43533865
-0.010404241 0.030241359 0.4353247
-0.010017227 0.030229293 0.43515271
-0.0096303457 0.030216679 0.43497282
-0.0092461193 0.0302117 0.43490273
-0.0088650724 0.03021713 0.43498242
-0.0084831705 0.030220013 0.4350253
-0.066934884 0.031828292 0.45131809
-0.066589385 0.031853396 0.45168757
-0.066151954 0.031834561 0.4514339
-0.065735139 0.031825487 0.4513185
-0.065332904 0.031823393 0.45130211
-0.064920515 0.031816311 0.45121485
-0.064493559 0.03180195 0.45102426
-0.064109117 0.031808507 0.45113027
-0.063664585 0.031785142 0.45081186
-0.06324432 0.031773679 0.45066214
-0.062840767 0.03177052 0.45063016
-0.062414479 0.031755753 0.45043337
-0.062008489 0.031751189 0.45038128
-0.061597351 0.031743918 0.45029071
-0.061167736 0.031726968 0.45006275
-0.06076353 0.031723067 0.45001975
-0.060371917 0.031725727 0.45006979
-0.059937801 0.031705938 0.44980133
-0.059513487 0.031691108 0.44960308
-0.059094246 0.0316788 0.44944051
-0.058706954 0.031683568 0.44952017
-0.05827035 0.031661604 0.44922048
-0.057870079 0.031659219 0.44919848
-0.05745386 0.031648017 0.44905126
-0.057032298 0.031633697 0.44885975
-0.056622051 0.031625494 0.448755
-0.056203082 0.031612277 0.44857892
-0.05580581 0.031611156 0.44857445
-0.05539953 0.031604882 0.44849679
-0.054984752 0.031593639 0.44834852
-0.054586072 0.031591546 0.44833001
-0.054167248 0.031577684 0.44814438
-0.053739872 0.031558596 0.4478845
-0.053365219 0.031570416 0.44806319
-0.052972704 0.031571764 0.44809324
-0.052612796 0.031592712 0.44840136
-0.052252728 0.031613883 0.44871256
-0.021680186 0.030864954 0.43864521
-0.021289032 0.030857492 0.43854338
-0.020889478 0.030837357 0.43826136
-0.020503301 0.030836577 0.43825433
-0.020117525 0.03083639 0.43825561
-0.019722307 0.030821433 0.43804696
-0.019334538 0.030817755 0.43799847
-0.018945511 0.030811887 0.43791878
-0.018554872 0.030803099 0.43779752
-0.018161483 0.030789277 0.43760461
-0.017772354 0.030782234 0.43750796
-0.017382659 0.03077388 0.43739262
-0.016992653 0.030764583 0.43726376
-0.016602486 0.030754557 0.43712446
-0.01621763 0.030754134 0.43712151
-0.015826955 0.030742383 0.43695754
-0.015434949 0.030727401 0.43674752
-0.015048923 0.03072386 0.43670008
-0.014663354 0.0307211 0.4366636
-0.014276858 0.030716192 0.43659651
-0.013886018 0.03070141 0.436389
-0.013501826 0.030700902 0.43638432
-0.013110659 0.030684045 0.43614712
-0.012728794 0.030688601 0.43621424
-0.012338398 0.030672228 0.43598378
-0.011949405 0.030658407 0.4357895
-0.011562776 0.030649943 0.43567124
-0.011178561 0.030647513 0.43563873
-0.010789856 0.030632166 0.43542248
-0.010406304 0.030630859 0.43540576
-0.010019266 0.0306188 0.4352361
-0.0096355928 0.030616473 0.43520468
-0.0092499861 0.030607563 0.4350796
-0.0088664023 0.030604867 0.43504277
-0.0084840646 0.030606423 0.43506628
-0.0081016514 0.030607842 0.43508774
-0.0077204243 0.030614108 0.43517804
-0.066925727 0.032222282 0.4512499
-0.066596873 0.032255739 0.45173186
-0.066208452 0.032260567 0.45181295
-0.065768823 0.032240361 0.4515433
-0.065376103 0.032243043 0.45159408
-0.064950019 0.0322292 0.45141339
-0.064540625 0.032223519 0.45134693
-0.064135574 0.032219946 0.45130995
-0.063721277 0.032211661 0.4512068
-0.063280471 0.032189783 0.45091322
-0.062864318 0.032180257 0.45079252
-0.062434614 0.03216362 0.45057219
-0.062032547 0.032161102 0.45054957
-0.061614972 0.032150459 0.45041299
-0.061214298 0.032148559 0.45039883
-0.060796175 0.032137405 0.45025501
-0.060372535 0.032123175 0.45006791
-0.059974402 0.032122415 0.45006952
-0.059550505 0.032107756 0.44987625
-0.059140041 0.032100186 0.44978228
-0.058730572 0.032093063 0.44969448
-0.058320917 0.032085743 0.44960383
-0.057884123 0.032063287 0.449301
-0.057469849 0.032053083 0.44916973
-0.057066701 0.032048985 0.44912404
-0.056662221 0.032044079 0.44906685
-0.056236692 0.032027114 0.44884065
-0.05583154 0.032021597 0.44877478
-0.055416968 0.032010566 0.4486315
-0.055007499 0.032002337 0.44852746
-0.054598961 0.03199454 0.44842938
-0.05419967 0.031992089 0.4484061
-0.053782057 0.031978708 0.44822958
-0.053390961 0.03198101 0.44827282
-0.052990183 0.031977504 0.44823456
-0.05265332 0.032012809 0.44874021
-0.05223972 0.032001641 0.44859436
-0.051816951 0.031984635 0.44836667
-0.021679321 0.031250093 0.43862158
-0.021296544 0.031254806 0.43869197
-0.020901138 0.031240823 0.43849987
-0.020513589 0.031238273 0.43846813
-0.020129567 0.031241102 0.43851185
-0.019736974 0.031230481 0.43836668
-0.01934243 0.031216294 0.43817127
-0.018950121 0.031205203 0.43801934
-0.018564275 0.031204518 0.43801335
-0.018169021 0.031187661 0.43778023
-0.017781733 0.031184038 0.43773288
-0.017390247 0.031172737 0.43757758
-0.016998162 0.031159824 0.43739963
-0.016608246 0.031150378 0.43727022
-0.016224533 0.031152399 0.4373017
-0.015835872 0.03114479 0.43719789
-0.015445529 0.031133408 0.4370411
-0.015055825 0.031122772 0.43689463
-0.014667142 0.03111374 0.43677062
-0.014282384 0.031112773 0.43675977
-0.013892878 0.031101126 0.43659884
-0.01350939 0.031102676 0.43662313
-0.01311912 0.03108825 0.436423
-0.012731872 0.031080324 0.43631408
-0.012343048 0.031067941 0.43614253
-0.011953912 0.031053958 0.4359484
-0.011570108 0.031053361 0.43594208
-0.0111826 0.031042436 0.43579075
-0.010797739 0.031038349 0.43573526
-0.010410018 0.031025438 0.43555585
-0.010024579 0.031018604 0.43546164
-0.0096390564 0.031010959 0.43535599
-0.0092530781 0.031001156 0.43521991
-0.0088698156 0.031000001 0.43520519
-0.0084861964 0.030997438 0.43517062
-0.0081061255 0.031008212 0.43532318
-0.0077228746 0.031007286 0.43531144
-0.066624038 0.032667816 0.4519096
-0.066252351 0.03268104 0.452106
-0.065802865 0.032655828 0.45177048
-0.065412395 0.032659758 0.45183814
-0.064973362 0.032639351 0.45156899
-0.0645575 0.03263041 0.45145833
-0.06414742 0.032624293 0.45138678
-0.063740313 0.032619622 0.45133504
-0.063329861 0.032613162 0.4512586
-0.062892333 0.032592598 0.4509868
-0.062475242 0.032582432 0.45085883
-0.062070124 0.032578416 0.45081592
-0.061659317 0.032571349 0.45073065
-0.061230041 0.032554362 0.45050809
-0.06082011 0.032547511 0.45042568
-0.060401712 0.032536011 0.45027885
-0.059990767 0.0325284 0.45018572
-0.059575733 0.032518454 0.45006025
-0.059171047 0.032514066 0.45001152
-0.05874658 0.032498673 0.44981048
-0.058334086 0.032489739 0.44969875
-0.057918485 0.03247894 0.44956109
-0.057511911 0.032473087 0.44949189
-0.057105191 0.032467075 0.44942036
-0.056696154 0.03245965 0.4493292
-0.056276407 0.032445949 0.44915104
-0.055864405 0.03243655 0.44903237
-0.055448297 0.032424618 0.4488785
-0.055027109 0.032409523 0.44868079
-0.054628905 0.032407846 0.44866875
-0.054213148 0.03239565 0.448511
-0.053798594 0.032384004 0.44836083
-0.053421337 0.0323948 0.44852126
-0.053027872 0.032395855 0.44854677
-0.052650899 0.032407083 0.44871297
-0.052273571 0.032418255 0.44887841
-0.051858883 0.032406256 0.4487229
-0.021691822 0.031654704 0.43886834
-0.021304244 0.031652678 0.43884444
-0.020911993 0.031643502 0.43872145
-0.020526581 0.031644531 0.43873972
-0.020136118 0.031637661 0.43864843
-0.019743217 0.031626616 0.43849924
-0.01935761 0.031627052 0.43850905
-0.018959325 0.031606365 0.43822595
-0.018571235 0.031602181 0.43817154
-0.018177163 0.031587414 0.43797034
-0.017790087 0.031584438 0.43793249
-0.017397378 0.031571101 0.43775097
-0.017009493 0.031566117 0.43768519
-0.016620766 0.031559307 0.43759391
-0.016233027 0.031554092 0.43752468
-0.015842866 0.031543802 0.43738511
-0.015451593 0.031530734 0.43720677
-0.015065448 0.031527728 0.43716803
-0.014673527 0.031512164 0.43695495
-0.014287069 0.031507801 0.43689719
-0.013898373 0.031498138 0.43676576
-0.013511468 0.031492099 0.43668455
-0.013124571 0.031485725 0.4365986
-0.012734597 0.031471364 0.43640178
-0.012347264 0.031462844 0.43628591
-0.011961098 0.031456847 0.43620488
-0.011577694 0.031457957 0.43622234
-0.011187003 0.031438664 0.43595684
-0.010801916 0.031434312 0.43589839
-0.010414652 0.03142307 0.43574437
-0.010027424 0.031411085 0.43557993
-0.0096431924 0.031407911 0.43553755
-0.0092602279 0.031408772 0.43555105
-0.0088724215 0.031392574 0.43532795
-0.0084897391 0.031393871 0.43534732
-0.0081073474 0.031396411 0.43538389
-0.0077258185 0.031402718 0.43547258
-0.0073460871 0.03141737 0.43567687
-0.066675134 0.033092096 0.4522495
-0.066253617 0.03308076 0.452108
-0.065834731 0.033070609 0.45198262
-0.065425053 0.033064988 0.45191902
-0.065020368 0.033061832 0.45188907
-0.064589933 0.033045471 0.45167851
-0.064170077 0.033034343 0.45153946
-0.063766807 0.033031676 0.45151597
-0.063348405 0.033021089 0.4513841
-0.06293761 0.033014353 0.45130485
-0.062509738 0.032998521 0.45110109
-0.062094223 0.032989051 0.45098427
-0.061686717 0.032983743 0.45092425
-0.061261766 0.032968976 0.45073482
-0.060856462 0.032964658 0.45068824
-0.060426325 0.032946747 0.45045567
-0.060027007 0.03294551 0.45045102
-0.059603445 0.03293087 0.45026296
-0.059189521 0.032921389 0.45014542
-0.05878716 0.032918252 0.45011452
-0.058363322 0.032902971 0.4499175
-0.057950709 0.032893848 0.44980457
-0.057544772 0.03288842 0.44974211
-0.057120658 0.032872457 0.44953546
-0.056714311 0.032866564 0.44946647
-0.056296989 0.032854181 0.44930866
-0.055875078 0.032838929 0.44911149
-0.055463646 0.032829657 0.4489961
-0.055057071 0.03282316 0.44891846
-0.054647323 0.032814655 0.44881335
-0.054223564 0.032797553 0.44859055
-0.053822458 0.032794006 0.44855303
-0.053437665 0.032800417 0.4486517
-0.053048737 0.032804366 0.44871658
-0.052667253 0.032813016 0.44884571
-0.052317332 0.032841612 0.44924757
-0.021309389 0.032046981 0.43894416
-0.020923266 0.032047231 0.43895167
-0.020525228 0.032028887 0.43870455
-0.0201382 0.032027364 0.43868759
-0.019752767 0.032028362 0.43870515
-0.019359861 0.032017041 0.43855387
-0.018968269 0.032007478 0.43842658
-0.018579207 0.032001872 0.43835345
-0.018185688 0.031988196 0.43816969
-0.017797368 0.031983264 0.43810558
-0.017406289 0.03197306 0.43796915
-0.017020324 0.031971991 0.43795785
-0.016624317 0.031951576 0.43768138
-0.016238321 0.031949889 0.43766138
-0.015851587 0.031946637 0.43761984
-0.015459688 0.031932555 0.4374299
-0.015071074 0.03192471 0.43732533
-0.014682698 0.031916976 0.43722212
-0.014296648 0.031914018 0.43718427
-0.013902337 0.031891949 0.43688452
-0.013518535 0.031893414 0.43690714
-0.013126278 0.031874441 0.43664962
-0.01274212 0.031874575 0.43665388
-0.01235367 0.031863663 0.4365066
-0.01196802 0.031859498 0.4364517
-0.011579787 0.03184795 0.43629563
-0.011193862 0.031842183 0.43621859
-0.010807232 0.031833928 0.43610746
-0.010419136 0.031820592 0.43592656
-0.010035994 0.031821948 0.43594688
-0.0096462592 0.031801671 0.43567073
-0.0092634344 0.031803444 0.43569663
-0.0088787386 0.031798676 0.4356328
-0.0084926514 0.031788267 0.43549159
-0.0081090908 0.031786785 0.43547258
-0.0077304388 0.031805344 0.4357281
-0.0073488355 0.031813074 0.43583512
-0.066688485 0.033498034 0.45233336
-0.066271879 0.033489082 0.45222592
-0.065862633 0.033483759 0.45216736
-0.065453082 0.033478223 0.45210582
-0.065049157 0.033475515 0.45208246
-0.064621754 0.033460613 0.45189431
-0.064200297 0.033448625 0.45174539
-0.063783839 0.033439107 0.45162982
-0.063376635 0.033434354 0.4515785
-0.062953502 0.033421081 0.45141205
-0.062529311 0.033407081 0.45123562
-0.062124196 0.033403154 0.45119524
-0.061710946 0.03339478 0.45109463
-0.061288703 0.033381399 0.45092633
-0.060872391 0.033371087 0.45079944
-0.060461253 0.033363499 0.45070928
-0.060047686 0.033354461 0.45059946
-0.059643637 0.033350632 0.45055985
-0.05921023 0.033330217 0.45029607
-0.058787432 0.033315539 0.45010987
-0.058383882 0.03331165 0.45006919
-0.057968516 0.033300921 0.44993606
-0.057572298 0.033301111 0.44995043
-0.057148762 0.033285409 0.44974989
-0.056735039 0.033275232 0.449624
-0.056313597 0.033260353 0.44943446
-0.055909183 0.033255395 0.44937888
-0.055506088 0.033251155 0.44933298
-0.05508738 0.033237435 0.44915882
-0.054653097 0.033214055 0.448854
-0.054269373 0.033221278 0.44896281
-0.05385194 0.03320783 0.44879201
-0.053466812 0.033214238 0.44888964
-0.053055342 0.033204269 0.44876575
-0.052687492 0.033221651 0.44901145
-0.052320115 0.033239592 0.44926468
-0.021315441 0.03244286 0.43906248
-0.020935833 0.032453381 0.43920901
-0.020536235 0.03243272 0.43893346
-0.020149279 0.032431629 0.43892264
-0.019757539 0.032422636 0.43880484
-0.019367697 0.032416463 0.43872508
-0.018984223 0.032420915 0.43878907
-0.018589113 0.032405268 0.43858096
-0.018191844 0.032385126 0.43831182
-0.017804056 0.032381345 0.43826413
-0.017415058 0.032375149 0.43818367
-0.017023915 0.032364599 0.43804416
-0.016635297 0.032358468 0.43796435
-0.016242588 0.032343902 0.43777034
-0.015856603 0.032342345 0.43775228
-0.015467635 0.032334477 0.43764871
-0.015079401 0.032327775 0.43756089
-0.0146875 0.032312665 0.43735915
-0.014297822 0.032301761 0.43721426
-0.01390765 0.03228911 0.4370456
-0.013524364 0.03229218 0.43708965
-0.013137231 0.032285977 0.43700814
-0.012749153 0.03227701 0.43688914
-0.012360759 0.032266662 0.43675128
-0.011970283 0.032250047 0.43652853
-0.011588668 0.032256987 0.43662465
-0.011195311 0.032230604 0.43626949
-0.010811191 0.032229885 0.43626165
-0.01042335 0.032217618 0.43609741
-0.010038663 0.032214526 0.43605733
-0.0096502434 0.032198742 0.43584535
-0.0092685958 0.032205179 0.43593413
-0.008880591 0.032189146 0.43571848
-0.0084953578 0.032182153 0.43562526
-0.008115083 0.032194175 0.43578929
-0.0077310116 0.032191582 0.43575543
-0.007347581 0.032191534 0.43575588
-0.066709198 0.033907875 0.45246711
-0.066319793 0.033912789 0.45254606
-0.065906085 0.033905253 0.45245886
-0.065487526 0.033895127 0.452337
-0.065070778 0.033885814 0.45222589
-0.064647257 0.033872839 0.45206583
-0.064203329 0.033848945 0.45175993
-0.06384299 0.033869099 0.45204186
-0.063413925 0.033852819 0.45183739
-0.062998831 0.033843834 0.45173031
-0.062580198 0.033832822 0.45159605
-0.062148511 0.033814568 0.45136499
-0.061743435 0.033810649 0.4513253
-0.061326817 0.033800323 0.45119989
-0.060894404 0.033781096 0.45095566
-0.060484618 0.033774257 0.45087665
-0.060074929 0.033767376 0.45079705
-0.059647761 0.033750519 0.45058414
-0.059268139 0.033760518 0.4507297
-0.058811989 0.033726763 0.45029107
-0.058407877 0.033722598 0.45024738
-0.058012716 0.033723582 0.45027235
-0.057587925 0.033707231 0.45006576
-0.05716452 0.03369147 0.44986704
-0.056749575 0.033680521 0.44973236
-0.056341346 0.033673421 0.44964907
-0.055917285 0.033656698 0.4494372
-0.055518668 0.033655155 0.44942799
-0.055106062 0.033645049 0.44930431
-0.054691348 0.033633508 0.44916135
-0.054294836 0.033633068 0.4491666
-0.053880848 0.033621721 0.44902608
-0.053475905 0.033615891 0.44895917
-0.053079877 0.033615619 0.44896641
-0.052723847 0.033640865 0.44931439
-0.052334186 0.03364487 0.44937867
-0.021326171 0.032846164 0.43927711
-0.020945765 0.032855861 0.43941095
-0.02055811 0.032854341 0.43939468
-0.020161968 0.032838941 0.43919265
-0.019766374 0.032823849 0.43899468
-0.019376902 0.032818522 0.43892726
-0.018984815 0.032808464 0.43879649
-0.018594483 0.032801084 0.43870139
-0.018207507 0.032799438 0.43868294
-0.017807532 0.032773793 0.43834338
-0.017418614 0.032767817 0.43826684
-0.017032871 0.032767683 0.43826833
-0.016641045 0.032755565 0.43810946
-0.016253868 0.032752246 0.43806818
-0.01586584 0.032747012 0.43800116
-0.015472447 0.032730158 0.43777874
-0.015086028 0.032727588 0.43774715
-0.014695918 0.032716658 0.43760377
-0.014307839 0.032709785 0.43751448
-0.013920115 0.032703374 0.43743134
-0.013528628 0.0326875 0.43722156
-0.013142287 0.032683499 0.43717048
-0.012755305 0.032677613 0.43709406
-0.012365067 0.032662764 0.43689772
-0.011976922 0.032652669 0.43676484
-0.011590624 0.032647107 0.43669254
-0.011202265 0.032635164 0.43653479
-0.010817678 0.032633748 0.43651778
-0.010429863 0.03262214 0.43636429
-0.010043629 0.032614775 0.43626755
-0.0096574193 0.032606911 0.43616399
-0.00927018 0.032594778 0.43600324
-0.0088844234 0.032587036 0.43590122
-0.0085007465 0.032586571 0.4358964
-0.0081166094 0.032584213 0.43586618
-0.0077363355 0.032597899 0.4360505
-0.066731073 0.034318559 0.45260856
-0.066342317 0.034323927 0.45269281
-0.065928318 0.034316234 0.45260465
-0.065523773 0.034313396 0.45258048
-0.06509985 0.034300309 0.45242104
-0.064696133 0.034297772 0.45240068
-0.064265423 0.034280807 0.45218998
-0.063855901 0.034275007 0.45212638
-0.063445956 0.034268901 0.4520587
-0.063000701 0.034243528 0.45173678
-0.062592745 0.034238234 0.45167968
-0.062186934 0.034234054 0.45163718
-0.061765518 0.03422118 0.45147982
-0.061358824 0.034216348 0.45142853
-0.060920995 0.034193967 0.45114568
-0.060527522 0.034196358 0.45118958
-0.060095716 0.034176979 0.45094612
-0.059687611 0.034170918 0.45087826
-0.059282754 0.034166645 0.45083395
-0.058855575 0.03414936 0.45061788
-0.05844982 0.034144357 0.45056379
-0.058013935 0.034121562 0.45027485
-0.057600945 0.034112018 0.45016065
-0.057216093 0.034119118 0.45026603
-0.056793481 0.034103643 0.45007336
-0.056374885 0.034090377 0.44990987
-0.05593675 0.034065027 0.44958669
-0.055537853 0.034063384 0.44957635
-0.055130798 0.034056675 0.44949907
-0.054721069 0.034048207 0.44939852
-0.054325692 0.034048609 0.44941494
-0.053903073 0.034031823 0.44920439
-0.053496178 0.034024782 0.44912243
-0.053124238 0.034040041 0.44933471
-0.052724786 0.034037769 0.44931549
-0.052368853 0.034063771 0.44966945
-0.021344174 0.033261191 0.43964142
-0.020952739 0.033254024 0.43955082
-0.020562984 0.033249293 0.43949237
-0.020165961 0.03323241 0.43927318
-0.019774349 0.033223964 0.43916541
-0.019390715 0.033228848 0.43923375
-0.018995557 0.033213787 0.4390384
-0.018604757 0.033205874 0.43893743
-0.018211329 0.033192836 0.43876866
-0.017817203 0.033177942 0.43857518
-0.017424243 0.033164598 0.43840215
-0.017040065 0.033167746 0.43844709
-0.016647602 0.033154551 0.43827587
-0.016259642 0.033149906 0.43821752
-0.01587156 0.033144783 0.43815285
-0.015480967 0.033134028 0.43801367
-0.015088998 0.033119708 0.43782717
-0.014701201 0.033114031 0.4377549
-0.014312275 0.033105444 0.43764406
-0.013921806 0.033092711 0.43747839
-0.013534482 0.033086952 0.43740472
-0.013147557 0.033081856 0.43733978
-0.012759099 0.033072479 0.43721816
-0.012371358 0.033064436 0.43711412
-0.011982489 0.033052769 0.43696204
-0.011594416 0.033042595 0.43682963
-0.011207949 0.033036463 0.43675059
-0.010821956 0.033031341 0.43668476
-0.010433286 0.033017371 0.43650192
-0.010050354 0.033021186 0.43655407
-0.0096603278 0.03300108 0.43628988
-0.0092744473 0.032994054 0.43619859
-0.0088894246 0.032989603 0.43614122
-0.0085043367 0.032984503 0.43607518
-0.0081187002 0.032976694 0.43597329
-0.0077362545 0.032981716 0.43604094
-0.0073549459 0.032992363 0.43618283
-0.066377006 0.034741718 0.45292261
-0.06597326 0.034739438 0.45290619
-0.06555447 0.03472916 0.45278546
-0.065117322 0.034708973 0.45253548
-0.064705521 0.034702133 0.45245942
-0.064299449 0.0346983 0.45242241
-0.063878663 0.034686428 0.45228058
-0.063474827 0.034683671 0.45225745
-0.063053124 0.034671046 0.45210567
-0.062624283 0.034654323 0.4519003
-0.062213719 0.034647562 0.45182472
-0.061791692 0.034634281 0.45166415
-0.061375149 0.034623932 0.45154163
-0.0609737 0.034622017 0.45152906
-0.060557075 0.034611396 0.4514029
-0.06013127 0.034595355 0.45120594
-0.059709977 0.034581717 0.45104018
-0.059305806 0.034577884 0.45100227
-0.058874276 0.034557939 0.45075408
-0.058479048 0.034559175 0.45078209
-0.058052022 0.034541499 0.45056349
-0.057638891 0.034531914 0.45045015
-0.057217695 0.034517329 0.45027161
-0.056817908 0.034515552 0.45026001
-0.056385357 0.034493703 0.44998646
-0.055978101 0.034487121 0.44991207
-0.055561848 0.034474872 0.4497636
-0.055154741 0.034468163 0.4496873
-0.054746062 0.034460366 0.44959679
-0.054330762 0.034448259 0.44944993
-0.053933538 0.034447517 0.44945133
-0.05351026 0.034430001 0.44923374
-0.053128734 0.034439288 0.44936579
-0.052749205 0.034450021 0.44951662
-0.052355401 0.034451518 0.4495469
-0.021358542 0.033671144 0.4399308
-0.020960521 0.033653736 0.43970749
-0.020572755 0.033652451 0.43969473
-0.02017832 0.03363999 0.43953589
-0.019782448 0.033624604 0.43933877
-0.019391546 0.033617221 0.43924612
-0.019003736 0.033615008 0.43922091
-0.018615404 0.033611767 0.43918216
-0.018216366 0.03358864 0.43888357
-0.017830204 0.033588775 0.43888876
-0.017441068 0.03358319 0.43881914
-0.017046196 0.033566054 0.43859854
-0.016656144 0.033557843 0.43849441
-0.016265584 0.033548195 0.43837145
-0.015876863 0.033541951 0.43829295
-0.015488624 0.033536453 0.43822402
-0.015096514 0.033522081 0.43803906
-0.014709027 0.033517484 0.43798178
-0.014320526 0.033510271 0.43789026
-0.013933473 0.033506148 0.43783897
-0.013539661 0.03348507 0.43756601
-0.013150603 0.033474863 0.43743503
-0.012765326 0.033473954 0.43742549
-0.012374523 0.03345805 0.43721998
-0.01198416 0.033442356 0.43701705
