# .PCD v0.7 - Point Cloud Data file format
VERSION 0.7
FIELDS x y z
SIZE 4 4 4
TYPE F F F
COUNT 1 1 1
WIDTH 1360
HEIGHT 1
VIEWPOINT 0 0 0 1 0 0 0
POINTS 1360
DATA ascii
0.018354079 0.074321799 0.39303285
0.018686842 0.07426431 0.39272457
0.019041736 0.074295282 0.39288405
0.019377694 0.074252561 0.39265373
0.019719802 0.074234501 0.39255378
0.020059366 0.074207649 0.3924073
0.02040126 0.074190199 0.39231038
0.020736562 0.074149743 0.39209181
0.0210847 0.074155763 0.39211893
0.021429636 0.074150503 0.39208633
0.021771634 0.074135408 0.39200163
0.022108546 0.074103735 0.39182925
0.022448346 0.074082576 0.39171234
0.022789318 0.074065864 0.39161894
0.023128901 0.074045196 0.39150453
0.02347126 0.074033916 0.39143962
0.023806505 0.074000821 0.39125943
0.024145339 0.073979683 0.39114231
0.024488376 0.07397183 0.3910954
0.024828386 0.073955193 0.39100191
0.025177516 0.07396578 0.3910524
0.025517017 0.07394819 0.39095381
0.025866529 0.073959686 0.39100888
0.026215076 0.073968157 0.39104792
0.02656767 0.073987678 0.39114532
-0.03142285 0.07755556 0.40810564
-0.031069405 0.077573389 0.40820527
-0.030704001 0.077561423 0.40814799
-0.030350953 0.077580765 0.4082554
-0.029971527 0.077532329 0.40800607
-0.029601628 0.07750766 0.40788174
-0.029228915 0.077474937 0.40771493
-0.028864324 0.077463195 0.40765849
-0.028486485 0.077415138 0.40741086
-0.028127115 0.077416703 0.40742427
-0.02775725 0.077389047 0.40728384
-0.027389348 0.077366211 0.40716869
-0.027015736 0.07732641 0.40696424
-0.026647575 0.077301368 0.40683734
-0.02628387 0.077288732 0.40677565
-0.025922785 0.077283561 0.40675324
-0.025555324 0.077258982 0.40662855
-0.025189752 0.077239484 0.40653059
-0.024823399 0.077217005 0.40641674
-0.024454707 0.07718648 0.40626058
-0.024082791 0.077144705 0.40604514
-0.023720054 0.07713154 0.40598014
-0.023354761 0.077109523 0.4058685
-0.022992453 0.077096827 0.40580586
-0.02262996 0.077083088 0.4057377
-0.022269564 0.077076197 0.40570542
-0.02190152 0.077042155 0.40553021
-0.021531185 0.076998793 0.40530592
-0.021167718 0.076978944 0.40520522
-0.020809785 0.076978892 0.40520868
-0.020443313 0.076946691 0.40504292
-0.020076849 0.076913394 0.4048712
-0.019713232 0.076889977 0.40475148
-0.019357182 0.076895759 0.40478536
-0.018991388 0.076862335 0.40461278
-0.01863094 0.076849669 0.40454948
-0.018267827 0.076825313 0.40442446
-0.017908365 0.076815642 0.40437675
-0.017542971 0.076779611 0.40419015
-0.01719149 0.076804243 0.40432286
-0.016847687 0.076864965 0.40464547
-0.016497716 0.076899573 0.40483055
0.012162312 0.075028054 0.39497095
0.01250692 0.075002387 0.39483282
0.01285288 0.074986003 0.3947435
0.013199535 0.074974425 0.39467943
0.01354683 0.074966982 0.39463702
0.013893384 0.074955903 0.39457545
0.014231388 0.074900381 0.39427978
0.01458133 0.07490883 0.39432088
0.014926247 0.074891672 0.39422706
0.015271849 0.074878648 0.39415494
0.015613195 0.074845813 0.39397845
0.015958529 0.074833095 0.39390782
0.01630155 0.074810304 0.39378408
0.016642215 0.074777886 0.39360958
0.016989557 0.07477618 0.39359671
0.017329516 0.07474269 0.39341646
0.017674543 0.074731953 0.39335594
0.018022593 0.074734151 0.39336342
0.018355604 0.074675098 0.39304835
0.018700089 0.074664041 0.39298591
0.019041317 0.074640617 0.3928583
0.019386057 0.074631557 0.3928062
0.019731248 0.074624509 0.39276469
0.020070869 0.074597009 0.39261541
0.020412525 0.074577875 0.39251012
0.020748938 0.074540533 0.39230895
0.021093555 0.074533425 0.39226678
0.021436507 0.074520744 0.39219528
0.021782091 0.074517481 0.39217323
0.022118868 0.074484639 0.39199549
0.022466822 0.074489884 0.39201808
0.022800865 0.074449547 0.39180073
0.023143791 0.074438982 0.39173999
0.023483628 0.074418947 0.39162934
0.023821959 0.07439477 0.39149687
0.024165072 0.074386016 0.39144546
0.024508964 0.074379869 0.39140773
0.024840234 0.074336119 0.39117202
0.025192464 0.074355431 0.3912681
0.025527941 0.074325457 0.39110476
0.025869157 0.074312761 0.39103228
0.026234686 0.074369311 0.3913241
-0.031821731 0.078010574 0.40857714
-0.031440824 0.077961266 0.40832475
-0.031086132 0.07797657 0.40841064
-0.030722179 0.077968739 0.40837529
-0.030363141 0.077973336 0.40840501
-0.029982932 0.077923022 0.40814701
-0.02961535 0.077904701 0.40805656
-0.029236685 0.077856414 0.40780905
-0.028880641 0.077867918 0.40787461
-0.028515389 0.077854574 0.40781
-0.028136853 0.077804156 0.40755105
-0.027773734 0.077795617 0.40751147
-0.027408311 0.077780321 0.4074364
-0.027034812 0.077741385 0.40723744
-0.026658976 0.077694595 0.40699723
-0.026295764 0.077683829 0.40694565
-0.025930623 0.077666968 0.40686208
-0.025565809 0.077650651 0.40678129
-0.025201993 0.077636935 0.40671402
-0.024836868 0.077618718 0.40662318
-0.024465276 0.077579483 0.40642208
-0.024094364 0.077541262 0.40622625
-0.023730908 0.077526234 0.40615189
-0.023373375 0.077530406 0.40617797
-0.023003409 0.077492818 0.40598527
-0.022641825 0.077482738 0.40593651
-0.022275526 0.077455923 0.4058001
-0.021916043 0.077452332 0.40578526
-0.021549987 0.077425003 0.40564597
-0.021174273 0.077361465 0.40531689
-0.020813938 0.077352904 0.40527579
-0.020451078 0.077334493 0.40518302
-0.020086771 0.077309862 0.40505752
-0.019733079 0.077325918 0.40514523
-0.019358182 0.077257976 0.40479267
-0.018997297 0.077244423 0.40472507
-0.018636156 0.077229299 0.40464917
-0.01827452 0.077211492 0.40455908
-0.017914742 0.077200986 0.40450716
-0.017560927 0.077216268 0.4045904
0.012166572 0.07540302 0.39509094
0.012517812 0.075416476 0.39515841
0.01286339 0.075395994 0.39504805
0.013210688 0.07538642 0.39499477
0.013555728 0.075364783 0.39487818
0.013898606 0.075332515 0.39470577
0.014243226 0.075311027 0.39458987
0.014586886 0.075285621 0.39445332
0.014931314 0.075265251 0.39434311
0.015274654 0.075240463 0.39420968
0.01562516 0.075251274 0.3942627
0.015964864 0.075210743 0.39404663
0.016312556 0.075208768 0.39403254
0.016657611 0.075194955 0.3939563
0.016993161 0.075139679 0.39366281
0.017334148 0.075110175 0.39350429
0.017682796 0.075114377 0.39352229
0.018030019 0.075112484 0.39350826
0.018372277 0.075090364 0.39338815
0.01871223 0.075059824 0.39322391
0.019054191 0.075038292 0.39310682
0.019399012 0.075028591 0.39305159
0.019742394 0.075013772 0.39296955
0.020083807 0.074992113 0.39285153
0.020424811 0.074969679 0.3927294
0.020765545 0.074947014 0.39260605
0.021104155 0.07491757 0.39244705
0.021445358 0.074898116 0.39234036
0.021783862 0.074870013 0.39218828
0.022126839 0.07485792 0.39212
0.022470484 0.074848421 0.39206526
0.022817358 0.074849792 0.3920674
0.023153521 0.074816518 0.39188799
0.023492841 0.074794278 0.39176631
0.023831489 0.074770577 0.39163688
0.024172358 0.074754417 0.39154691
0.024513587 0.074739814 0.39146501
0.024855642 0.074728087 0.39139816
0.02520071 0.074725635 0.39137971
0.025545202 0.074721545 0.39135271
0.02588933 0.074716516 0.39132071
0.026230544 0.074703328 0.3912459
0.026587058 0.074733481 0.39139801
-0.031460024 0.078370459 0.40855968
-0.03109818 0.078368358 0.40855449
-0.030737013 0.078367949 0.40855807
-0.030369885 0.078352153 0.4084813
-0.029999562 0.078327626 0.40835902
-0.029627973 0.078299165 0.40821612
-0.029264202 0.078290924 0.40817854
-0.028889297 0.078252308 0.40798256
-0.028523123 0.078236677 0.40790632
-0.028150942 0.078203946 0.40774083
-0.027784348 0.078186102 0.40765291
-0.027420653 0.078176059 0.40760559
-0.027052857 0.078153886 0.40749496
-0.026676269 0.07810539 0.40724704
-0.026317706 0.078109063 0.407271
-0.02594384 0.078066781 0.40705529
-0.025574243 0.078036353 0.4069013
-0.025206907 0.078012049 0.40677917
-0.024840856 0.077991076 0.40667436
-0.024476945 0.077976309 0.40660185
-0.024114346 0.077965342 0.40654904
-0.023751015 0.07795164 0.40648192
-0.02337667 0.077900819 0.40622115
-0.023017943 0.077901274 0.40622771
-0.022650924 0.077873237 0.40608564
-0.022289252 0.077862985 0.4060362
-0.021923926 0.077839419 0.40591726
-0.021555845 0.077805132 0.40574235
-0.021182261 0.077749483 0.40545598
-0.020826468 0.077758342 0.40550593
-0.020459469 0.077724949 0.40533546
-0.020099316 0.077716835 0.40529671
-0.019739136 0.077708326 0.40525588
-0.01937763 0.077694193 0.40518564
-0.019005092 0.077634446 0.40487748
-0.018641915 0.077611387 0.40476054
-0.018280689 0.077595733 0.4046821
-0.017921766 0.0775894 0.40465224
-0.017567683 0.077604212 0.40473258
-0.01721327 0.077618137 0.40480822
-0.016867964 0.077674598 0.40510565
0.012517731 0.075764738 0.39513752
0.012868961 0.075777479 0.39520091
0.013212817 0.075747281 0.39504024
0.013561787 0.075747184 0.39503652
0.013905497 0.07571847 0.39488348
0.014253937 0.075716265 0.39486861
0.014598967 0.075696491 0.3947621
0.014937662 0.075645544 0.39449295
0.01528642 0.075646736 0.39449558
0.015631422 0.075629689 0.39440304
0.015972901 0.075596713 0.39422739
0.016312879 0.075558171 0.39402264
0.01666498 0.075576238 0.39411303
0.017002005 0.075526595 0.39385024
0.017349981 0.075526595 0.3938463
0.01768709 0.07548023 0.39360046
0.018032797 0.07547164 0.39355156
0.018377889 0.075460844 0.39349109
0.018724341 0.075455919 0.39346114
0.019062795 0.075419538 0.39326715
0.019402029 0.075387493 0.39309564
0.019748077 0.075382575 0.39306554
0.020089449 0.075360291 0.39294481
0.020435352 0.075355463 0.39291507
0.02077076 0.075312734 0.39268768
0.021114355 0.075300619 0.39261979
0.021457637 0.075287789 0.39254805
0.021800144 0.075272702 0.39246455
0.022142932 0.07525903 0.39238834
0.022478834 0.075222746 0.39219415
0.02282181 0.075210869 0.39212716
0.02316343 0.07519494 0.392039
0.023501791 0.075169049 0.39189884
0.023846865 0.075165078 0.39187285
0.024179315 0.075122006 0.39164299
0.024520492 0.075106874 0.39155868
0.024864826 0.075101689 0.39152622
0.025210228 0.075099833 0.39151099
0.025545781 0.075069085 0.39134508
0.025899844 0.075092822 0.39146316
0.026245829 0.075092815 0.39145741
-0.031470198 0.07875751 0.40867737
-0.031106321 0.078750543 0.408647
-0.030746307 0.078753337 0.40866715
-0.030382615 0.078746647 0.40863806
-0.030011151 0.078719422 0.40850234
-0.029647531 0.078712359 0.40847117
-0.029268783 0.078664459 0.40822801
-0.028905157 0.078656517 0.40819213
-0.028536933 0.078635715 0.4080894
-0.028167371 0.078610636 0.40796444
-0.027797973 0.078585379 0.40783849
-0.027435169 0.078578353 0.40780708
-0.027065966 0.078552559 0.40767816
-0.026697453 0.078528091 0.40755609
-0.026331658 0.078511067 0.40747258
-0.025956539 0.078465402 0.40724033
-0.025591202 0.07844843 0.40715688
-0.025223091 0.078422345 0.40702614
-0.024856001 0.078398734 0.40690812
-0.024484841 0.078361399 0.40671882
-0.024120873 0.078346319 0.40664494
-0.023757096 0.078331418 0.40657192
-0.023392608 0.078313679 0.40648407
-0.023024434 0.078282863 0.40632829
-0.022660291 0.078264967 0.40623957
-0.022292318 0.078233086 0.40607807
-0.021936417 0.078243203 0.40613455
-0.021566255 0.078201957 0.40592435
-0.021202376 0.078182481 0.40582705
-0.020838991 0.07816419 0.40573588
-0.020469382 0.078121513 0.405518
-0.020112256 0.07812579 0.40554383
-0.019741522 0.078076422 0.40529108
-0.019380674 0.078065053 0.4052355
-0.019015608 0.078035951 0.4050878
-0.018651407 0.078009337 0.404953
-0.018287437 0.077982679 0.40481785
-0.017929649 0.077981852 0.40481669
-0.017572101 0.077982046 0.4048208
-0.017227978 0.078043066 0.40514061
-0.01687222 0.078052856 0.40519437
0.012522106 0.076140098 0.39525723
0.012873342 0.076152228 0.39531714
0.013222358 0.076150931 0.39530724
0.013566569 0.076122738 0.39515772
0.013911999 0.076102622 0.39505002
0.014260306 0.076098852 0.39502707
0.014606467 0.07608407 0.3949469
0.014948168 0.076047286 0.3947525
0.015292743 0.076026477 0.39464092
0.015641609 0.076027445 0.39464229
0.015984375 0.075999357 0.39449286
0.016319301 0.075935997 0.39416015
0.016671477 0.075953864 0.39424908
0.017014675 0.075930938 0.39412618
0.017358223 0.075910464 0.39401594
0.017702464 0.075893745 0.39392513
0.018039869 0.075848952 0.3936885
0.018382663 0.075828068 0.39357597
0.018730119 0.075826839 0.3935653
0.01907458 0.075813726 0.39349297
0.019414626 0.075783864 0.39333361
0.019756168 0.075760797 0.3932094
0.020103013 0.075758509 0.39319301
0.020439235 0.075716935 0.39297265
0.02078837 0.075723782 0.39300355
0.021129867 0.07570304 0.3928912
0.021467881 0.075670704 0.39271855
0.021811582 0.075659111 0.39265352
0.022149356 0.07562764 0.39248529
0.022494825 0.075623006 0.39245626
0.022830417 0.075585812 0.3922582
0.023173993 0.075575784 0.39220098
0.023510661 0.075543821 0.39202997
0.023857655 0.075545512 0.39203346
0.024194894 0.075516701 0.3918786
0.02453609 0.075500868 0.39179108
0.024875142 0.075478964 0.39167193
0.025225159 0.075490497 0.39172623
0.025557732 0.075450197 0.39151153
0.025901051 0.075442284 0.3914648
0.026241671 0.075426817 0.39137885
-0.031123869 0.079156846 0.40886304
-0.030761518 0.079154156 0.40885484
-0.030386919 0.079119503 0.40868145
-0.030021623 0.079108551 0.4086304
-0.029663494 0.079116434 0.40867659
-0.029286334 0.079073146 0.40845835
-0.028923843 0.079068854 0.40844157
-0.028554605 0.079045802 0.4083277
-0.028183492 0.079016894 0.40818357
-0.027813066 0.078989193 0.40804553
-0.027437016 0.078944571 0.40782011
-0.027075736 0.078941837 0.40781096
-0.026714223 0.078938343 0.40779775
-0.026348077 0.078920864 0.40771231
-0.02597432 0.078879803 0.40750495
-0.025612157 0.078873292 0.40747595
-0.025236217 0.078823574 0.4072237
-0.024868498 0.078798443 0.40709844
-0.024506046 0.078789525 0.40705684
-0.024140723 0.07877098 0.4069654
-0.023766624 0.078722805 0.40672079
-0.023404486 0.078713365 0.40667629
-0.023037681 0.078687705 0.4065479
-0.022670396 0.078659572 0.40640661
-0.022299726 0.078618594 0.40619895
-0.021938801 0.078611188 0.40616468
-0.02157405 0.078589618 0.40605706
-0.021210857 0.078573078 0.40597543
-0.020846507 0.078551605 0.40586826
-0.020482462 0.078530565 0.40576318
-0.020117577 0.078505501 0.40563726
-0.019759126 0.078505091 0.40563866
-0.019399153 0.078498498 0.40560809
-0.019028643 0.078448229 0.40535173
-0.018667405 0.078434989 0.40528661
-0.01830283 0.07840693 0.40514487
-0.01794114 0.078390367 0.40506244
-0.017585183 0.078398697 0.40510854
-0.017238686 0.078450419 0.40537885
0.012875534 0.076514192 0.39536601
0.01322972 0.076542467 0.395509
0.0135704 0.076493166 0.39525104
0.01391656 0.07647644 0.39516136
0.01426227 0.076458119 0.39506334
0.014610045 0.076451488 0.39502564
0.014955472 0.076433159 0.39492747
0.015302808 0.076425187 0.39488271
0.015644059 0.076387867 0.39468628
0.015989454 0.076371968 0.39460042
0.016333863 0.076352127 0.39449415
0.01667767 0.076330364 0.39437786
0.017019253 0.076299518 0.3942146
0.017368149 0.076302037 0.39422366
0.017710311 0.076275453 0.39408225
0.018057 0.076269008 0.39404485
0.018395057 0.076227047 0.39382389
0.018733919 0.076189905 0.39362773
0.019079225 0.076179855 0.39357153
0.019427741 0.076182738 0.39358205
0.019772634 0.076171577 0.39351994
0.020105574 0.076115534 0.39322588
0.020451147 0.076108411 0.39318451
0.0207895 0.076075114 0.39300781
0.021136599 0.076074369 0.39299929
0.02147698 0.076049864 0.39286792
0.021824334 0.076050445 0.39286605
0.022162572 0.076019734 0.39270249
0.022507792 0.076013543 0.39266554
0.022839632 0.07596305 0.39239964
0.023182647 0.075950675 0.39233056
0.023528872 0.075949013 0.39231679
0.023871835 0.075937025 0.39224964
0.024213824 0.07592234 0.39216843
0.02455063 0.075892031 0.39200646
0.024887072 0.075861461 0.39184308
0.025235191 0.075866826 0.39186531
0.025575696 0.075849473 0.39177009
0.025916297 0.075832866 0.39167863
0.026270295 0.075855359 0.39178914
0.026625877 0.075881794 0.39191985
0.026976582 0.075893834 0.39197618
-0.031136231 0.079550304 0.40901083
-0.030781427 0.079567492 0.40910485
-0.030415755 0.079556644 0.40905473
-0.030040417 0.079519957 0.40887165
-0.029674565 0.079507813 0.40881464
-0.029296953 0.079463452 0.40859196
-0.028931908 0.079452507 0.40854096
-0.028574735 0.079463169 0.40860105
-0.028190976 0.079399236 0.40827745
-0.027827464 0.079391398 0.40824229
-0.027458644 0.079368025 0.40812713
-0.027092308 0.079351313 0.40804616
-0.026724638 0.079330176 0.40794238
-0.026356276 0.079306379 0.40782481
-0.025982298 0.079264812 0.40761578
-0.025615741 0.079245009 0.40751866
-0.025249558 0.079225838 0.40742466
-0.024878757 0.079191417 0.40725213
-0.024518816 0.079191037 0.4072547
-0.024148759 0.079157494 0.40708658
-0.023785641 0.079146042 0.40703198
-0.023409409 0.079089925 0.40674764
-0.023046421 0.079077512 0.40668795
-0.022684891 0.079069778 0.4066523
-0.022325896 0.079070784 0.40666151
-0.021946702 0.078999124 0.40629688
-0.02158037 0.078972124 0.40616193
-0.021218751 0.078961767 0.40611246
-0.020853037 0.078935556 0.40598139
-0.0204894 0.07891643 0.40588668
-0.020129289 0.078910448 0.4058595
-0.019768653 0.078902155 0.40582037
-0.01940117 0.078865714 0.4056364
-0.019037638 0.078844272 0.40552947
-0.018678442 0.0788403 0.40551239
-0.018310975 0.078800604 0.40531144
-0.017955864 0.078813545 0.40538117
-0.017599177 0.07881996 0.40541723
-0.017244082 0.078833923 0.40549207
-0.016902955 0.078913711 0.40590543
0.012881101 0.076896399 0.39551845
0.013228906 0.07688687 0.39546627
0.01357822 0.076886371 0.39546049
0.013921509 0.076852612 0.39528361
0.014269302 0.076844774 0.39523992
0.014615582 0.076829359 0.39515725
0.014961842 0.076814547 0.39507759
0.01530663 0.07679303 0.39496338
0.015651187 0.076771341 0.39484817
0.015999686 0.076769501 0.39483503
0.01634459 0.076750867 0.39473546
0.016685653 0.07671535 0.39454892
0.017029291 0.076692872 0.39442942
0.01737872 0.07669685 0.39444596
0.017718401 0.07665851 0.3942447
0.018066486 0.076657288 0.39423436
0.018412231 0.076646388 0.39417407
0.018757997 0.076635964 0.39411625
0.019085469 0.076552533 0.3936829
0.019432906 0.076550752 0.39366931
0.019775571 0.076530553 0.39356104
0.020124448 0.076534688 0.39357775
0.020461436 0.076494224 0.39336511
0.02080055 0.076462924 0.3931995
0.021142891 0.07644432 0.39309913
0.021491442 0.076448411 0.39311534
0.021835512 0.076436676 0.39305016
0.022169456 0.07639043 0.39280742
0.022511402 0.07637275 0.39271152
0.022857012 0.076367833 0.39268121
0.023195613 0.07634002 0.39253306
0.023541987 0.076338209 0.39251855
0.023877766 0.076302595 0.3923302
0.024221431 0.07629285 0.39227474
0.024550611 0.076238394 0.39198938
0.024902945 0.076256342 0.39207619
0.025236156 0.076216057 0.39186355
0.025582755 0.076216727 0.39186141
0.025931314 0.076223165 0.39188886
0.026278986 0.076226845 0.39190203
0.026628317 0.076235183 0.3919391
-0.03115472 0.079959787 0.40923908
-0.030805662 0.079992525 0.40941232
-0.030423628 0.079939403 0.40914604
-0.030063806 0.079944052 0.4091754
-0.029689979 0.079911135 0.40901235
-0.029315865 0.079876624 0.40884113
-0.028943259 0.079845421 0.4086867
-0.028584195 0.07985124 0.40872177
-0.02821165 0.079819083 0.40856236
-0.027834637 0.079773284 0.408333
-0.02747979 0.079790659 0.40842694
-0.027098814 0.079731606 0.40812963
-0.026729245 0.07970497 0.4079982
-0.026361555 0.079683304 0.40789208
-0.025995173 0.079665035 0.40780333
-0.025631942 0.079656042 0.40776199
-0.025259472 0.079617694 0.40757024
-0.024895612 0.079605751 0.40751368
-0.024533043 0.079597652 0.40747666
-0.024167968 0.07958106 0.40739611
-0.023794331 0.07953535 0.40716642
-0.023426948 0.079509459 0.40703815
-0.023061411 0.079489134 0.40693823
-0.022698389 0.079476975 0.40688008
-0.022333389 0.07945738 0.40678382
-0.021967597 0.079434291 0.40666953
-0.02159806 0.079396658 0.40648076
-0.021236572 0.079387859 0.40643948
-0.020861302 0.079326332 0.40612823
-0.020500913 0.079320244 0.40610075
-0.020139225 0.079308815 0.40604582
-0.019776531 0.079292946 0.40596807
-0.019408835 0.079256058 0.40578267
-0.019048294 0.079247564 0.40574259
-0.018684298 0.079224102 0.40562573
-0.018319815 0.079197593 0.40549326
-0.01796033 0.079192095 0.40546826
-0.017604612 0.079203308 0.40552878
-0.017244296 0.079193868 0.40548345
-0.016910654 0.079309151 0.40607664
0.013235535 0.077274673 0.39564598
0.01358134 0.077253222 0.39553294
0.013930787 0.077253044 0.3955287
0.014276151 0.077230774 0.3954114
0.014626984 0.077238455 0.39544728
0.014972917 0.077220507 0.39535189
0.015315156 0.077184752 0.39516532
0.015657431 0.077150762 0.3949877
0.016003212 0.077135161 0.39490411
0.01635094 0.077129416 0.39487094
0.016696407 0.07711345 0.39478537
0.017038709 0.077083819 0.39462975
0.017387982 0.0770863 0.39463848
0.017727518 0.077046342 0.39442989
0.018075719 0.07704486 0.39441821
0.018418729 0.077021718 0.3942956
0.018760545 0.076994553 0.39415225
0.019101601 0.076965295 0.39399821
0.019447645 0.076956831 0.39395046
0.019783877 0.076910518 0.39370894
0.020138267 0.076935172 0.39383066
0.020471087 0.076877974 0.39353329
0.02081212 0.076853037 0.39340097
0.021152638 0.076827019 0.3932631
0.021500349 0.076827563 0.39326108
0.021843188 0.076810949 0.39317119
0.022181317 0.076778539 0.39300042
0.022523783 0.076761931 0.39291039
0.022865744 0.076744124 0.39281422
0.023207828 0.076727249 0.39272273
0.023550408 0.076712489 0.39264196
0.023896078 0.076708078 0.3926141
0.024231018 0.076669835 0.39241308
0.024572644 0.07665354 0.39232427
0.024912823 0.076633222 0.39221486
0.025246011 0.076592267 0.39199975
0.02559644 0.076604009 0.39205426
0.025940346 0.076596193 0.39200857
0.026291957 0.076611027 0.39207876
0.026637007 0.076606587 0.39205027
-0.031550847 0.080409862 0.40966615
-0.031178676 0.080383785 0.40953904
-0.030811803 0.080370933 0.40947926
-0.030441456 0.080348611 0.40937111
-0.030076262 0.080339506 0.40933025
-0.029698182 0.080295354 0.40911075
-0.02933204 0.080282778 0.40905207
-0.028963121 0.080262206 0.40895253
-0.028598834 0.0802541 0.40891647
-0.028217262 0.080196664 0.40862903
-0.027858663 0.080203891 0.40867093
-0.027487257 0.080173947 0.40852341
-0.027117999 0.080149561 0.40840408
-0.02675226 0.080135047 0.40833503
-0.026382007 0.08010643 0.40819404
-0.026010336 0.080072671 0.40802673
-0.025638083 0.080036134 0.40784523
-0.025275799 0.080030136 0.40781924
-0.024910929 0.080015652 0.40774998
-0.024539303 0.079978727 0.40756625
-0.024167681 0.079940714 0.40737692
-0.023809999 0.079948358 0.40742019
-0.023439016 0.079910897 0.40723351
-0.023069829 0.079878479 0.40707248
-0.022706034 0.07986401 0.40700284
-0.022341315 0.079845771 0.40691391
-0.021976123 0.079825215 0.40681311
-0.021613341 0.079812892 0.40675414
-0.021243619 0.079774082 0.40656018
-0.020873865 0.079733811 0.40635869
-0.020512503 0.079724751 0.40631622
-0.020147434 0.079700723 0.40619731
-0.019785542 0.079688601 0.40613905
-0.019421279 0.079666324 0.40602893
-0.019058054 0.079647534 0.40593654
-0.018698582 0.079644009 0.40592191
-0.018326174 0.079584174 0.40562019
-0.017969016 0.079589508 0.4056505
-0.017624281 0.079651199 0.40596804
-0.017253242 0.07959412 0.40568012
-0.016915565 0.07969179 0.40618086
0.013245305 0.077681243 0.39591947
0.0135899 0.077651307 0.3957637
0.013942213 0.077665888 0.39583471
0.014286131 0.077634118 0.39566946
0.014636681 0.077639051 0.39569119
0.014983701 0.077625461 0.39561844
0.015321874 0.077567704 0.39532053
0.015666615 0.077545024 0.39520133
0.016009614 0.077514902 0.39504412
0.016358001 0.077511586 0.39502347
0.016702525 0.077490501 0.39491221
0.017044691 0.077459551 0.39475054
0.017392375 0.077454403 0.39472038
0.017737363 0.077437699 0.39463121
0.018080976 0.077415742 0.39451522
0.018426253 0.077401608 0.39443901
0.018769996 0.077381678 0.39433318
0.019113701 0.077362314 0.39423022
0.019453973 0.077329993 0.39406115
0.019800864 0.077324651 0.3940295
0.020141842 0.077296816 0.39388314
0.020487329 0.077286929 0.39382815
0.020827554 0.077257842 0.39367536
0.021166043 0.07722339 0.39349505
0.021509206 0.07720682 0.39340582
0.021853795 0.077195816 0.39334491
0.02219631 0.077177934 0.39324892
0.02253115 0.077134341 0.39302176
0.022877203 0.077129863 0.39299393
0.023220446 0.077116191 0.39291912
0.02356286 0.07710021 0.39283252
0.023904139 0.077081025 0.39272952
0.024240213 0.07704585 0.39254501
0.024584727 0.077038124 0.39250025
0.024926828 0.077023134 0.39241841
0.025260285 0.076982215 0.39220443
0.025613224 0.077000991 0.3922945
0.025945157 0.076956935 0.39206439
0.026291262 0.076955542 0.39205158
0.026641311 0.076965563 0.39209688
0.026982155 0.076949082 0.39200702
-0.031189173 0.080773495 0.40966216
-0.030820709 0.080756739 0.40958285
-0.030455029 0.080746964 0.40953887
-0.030089607 0.080737658 0.4094972
-0.029726198 0.08073359 0.409482
-0.029349606 0.080693163 0.40928236
-0.028983641 0.080681317 0.40922761
-0.028610522 0.080649011 0.40906897
-0.028237505 0.080616176 0.40890756
-0.027880562 0.080628961 0.40897754
-0.027497696 0.080566145 0.40866393
-0.027131619 0.080551498 0.40859461
-0.026763441 0.080530137 0.4084911
-0.02638929 0.080489971 0.40829217
-0.026022565 0.080471657 0.40820402
-0.025652219 0.080441482 0.40805563
-0.025289634 0.080435127 0.40802798
-0.024924187 0.080419354 0.40795252
-0.02454862 0.080369994 0.40770653
-0.02418733 0.080366597 0.40769368
-0.023818856 0.080338866 0.40755734
-0.023446938 0.080298498 0.40735677
-0.023080587 0.080276243 0.40724802
-0.0227139 0.080252074 0.40712953
-0.022350164 0.080237739 0.40706083
-0.021989873 0.080235504 0.40705341
-0.02161729 0.080187596 0.40681428
-0.021254718 0.080175839 0.40675843
-0.020883124 0.080129057 0.40652478
-0.020525571 0.080135457 0.40656096
-0.02015998 0.080110162 0.40643615
-0.019793566 0.080080606 0.4062897
-0.019431096 0.080066197 0.40622008
-0.019065257 0.080037132 0.40607598
-0.018702906 0.080021866 0.40600181
-0.01833158 0.079966851 0.40572593
-0.017975774 0.079978697 0.4057892
-0.017626068 0.080018729 0.4059954
-0.017277412 0.080065295 0.40623465
-0.016916214 0.080054477 0.40618268
0.013597106 0.078042075 0.39595503
0.013946113 0.078037187 0.39592698
0.014296741 0.07804139 0.39594495
0.014644732 0.078031324 0.39589047
0.014991077 0.078013174 0.39579493
0.015335293 0.077985026 0.39564854
0.01567683 0.0779448 0.39544085
0.016020136 0.077914938 0.39528567
0.016361799 0.077878535 0.3950972
0.016708484 0.077867039 0.39503506
0.017052989 0.07784608 0.39492482
0.017401751 0.077844977 0.39491531
0.017746026 0.07782425 0.39480612
0.01808509 0.077781923 0.39458725
0.018432509 0.077776425 0.39455524
0.018779229 0.077768251 0.39450952
0.019118758 0.077731133 0.39431688
0.019464241 0.077719115 0.39425159
0.019808272 0.077701814 0.39415941
0.020153407 0.077689387 0.39409178
0.020502241 0.077691384 0.39409739
0.020842731 0.077662215 0.3939448
0.02118046 0.077623904 0.39374569
0.021530176 0.077630028 0.39377204
0.021860335 0.077566572 0.39344531
0.022204602 0.077554375 0.39337853
0.022546962 0.077536002 0.39328036
0.022890747 0.077523008 0.3932094
0.02323156 0.077500485 0.39309007
0.023575241 0.07748805 0.39302182
0.02391207 0.077453792 0.39284277
0.024260966 0.077459022 0.39286399
0.024600813 0.077435635 0.39273998
0.024937881 0.077404276 0.39257547
0.02527836 0.077384204 0.39246818
0.025620179 0.077368721 0.39238408
0.025969215 0.077375151 0.39241105
0.02631202 0.077363096 0.39234418
0.026655314 0.077352785 0.39228609
0.026990201 0.077318639 0.3921071
-0.031221254 0.081219606 0.41006875
-0.030829521 0.081142515 0.40968519
-0.030469246 0.081147373 0.40971529
-0.030098811 0.081124954 0.40960765
-0.029731739 0.081111178 0.40954351
-0.02936795 0.081106134 0.4095234
-0.029002588 0.08109656 0.40948039
-0.028617496 0.081030868 0.40915397
-0.028260987 0.081045486 0.40923291
-0.027881783 0.080994539 0.40898076
-0.027523883 0.08100497 0.40903842
-0.027148915 0.080964774 0.40884042
-0.026773032 0.080920719 0.40862283
-0.026408389 0.080909915 0.40857309
-0.026038697 0.080883116 0.4084425
-0.025661148 0.080830827 0.4081831
-0.025303999 0.080842212 0.40824521
-0.024930855 0.08080209 0.40804711
-0.024564883 0.08078438 0.40796211
-0.024196329 0.080757529 0.40783089
-0.023821928 0.080710068 0.40759549
-0.02346212 0.080711327 0.4076061
-0.023094177 0.08068423 0.40747339
-0.022731384 0.080674537 0.40742856
-0.022360828 0.080636546 0.40724069
-0.021995572 0.080616735 0.40714464
-0.021633901 0.080609627 0.40711257
-0.02126609 0.08057902 0.4069618
-0.020893145 0.080527566 0.40670565
-0.020530226 0.080513641 0.40663898
-0.020162424 0.080479719 0.40647125
-0.019801278 0.08047162 0.40643388
-0.019439328 0.080459923 0.40637821
-0.019074723 0.080436558 0.40626356
-0.018707832 0.080402479 0.40609476
-0.018348273 0.080399208 0.40608144
-0.017988302 0.080393963 0.4060581
-0.017630013 0.080396168 0.40607235
-0.01728243 0.080448329 0.40633878
-0.016926883 0.080464825 0.40642509
0.013601994 0.078419834 0.39607877
0.013951046 0.078414485 0.39604846
0.014299483 0.078406021 0.39600238
0.014650138 0.078409836 0.39601821
0.014995503 0.078385815 0.39589345
0.015336504 0.07834059 0.3956615
0.015681917 0.078319438 0.395551
0.016028635 0.078305557 0.39547724
0.016372381 0.078278057 0.39533463
0.016721724 0.078277908 0.39533004
0.017063651 0.078243785 0.39515379
0.017408647 0.078224778 0.39505386
0.017751139 0.078195505 0.39490199
0.018094596 0.078171521 0.39477676
0.018440424 0.078158505 0.39470688
0.018783698 0.078135341 0.39458564
0.019130437 0.078127168 0.39454007
0.019473884 0.078106098 0.39442927
0.019824708 0.078114815 0.39446887
0.020158974 0.078059115 0.39418307
0.020508392 0.078062989 0.39419809
0.020849967 0.078037366 0.3940641
0.021197954 0.078036204 0.39405346
0.021538455 0.078007959 0.39390606
0.021883238 0.077995859 0.39384013
0.022214597 0.077937059 0.3935383
0.022551863 0.077900462 0.39334854
0.022902265 0.077909671 0.39338997
0.023247328 0.077900708 0.39333963
0.023585157 0.077868134 0.39316994
0.023923345 0.077837653 0.39301082
0.024263633 0.077814795 0.3928901
0.024602741 0.077788845 0.39275366
0.024946773 0.077778958 0.39269835
0.025290798 0.077769339 0.39264426
0.025638822 0.077772096 0.3926526
0.025970634 0.07772626 0.39241552
0.026323134 0.077742718 0.39249295
0.026665624 0.07772959 0.39242086
0.027010033 0.077722311 0.39237827
-0.031216858 0.081571147 0.40999612
-0.030853765 0.081569292 0.40999249
-0.030479757 0.081538193 0.40984178
-0.030119771 0.081544325 0.40987808
-0.029746784 0.081514962 0.40973595
-0.029382262 0.081508376 0.40970823
-0.029009404 0.081478186 0.40956181
-0.028627904 0.081422687 0.40928802
-0.028276319 0.08145193 0.40944019
-0.027896773 0.081400335 0.40918592
-0.027525347 0.081371397 0.40904546
-0.027159875 0.081359535 0.40899077
-0.026785832 0.081321321 0.40880355
-0.02642783 0.081331439 0.40885919
-0.026048943 0.081276655 0.40858856
-0.025685638 0.081269659 0.40855804
-0.025311146 0.08122655 0.40834591
-0.024937803 0.081185944 0.40814629
-0.024575209 0.081179649 0.40811908
-0.024214072 0.081178047 0.40811542
-0.023837952 0.081125423 0.40785512
-0.023472993 0.08110974 0.40778056
-0.023110582 0.08110252 0.40774837
-0.022740781 0.081068724 0.40758258
-0.022372391 0.081038944 0.40743688
-0.022005387 0.081013307 0.40731192
-0.021643002 0.081004106 0.40726951
-0.021276375 0.080978446 0.40714428
-0.020907978 0.080945052 0.40698013
-0.020539025 0.080908291 0.40679899
-0.020186581 0.080936432 0.40694404
-0.019816775 0.080894716 0.4067378
-0.019453153 0.08087717 0.40665302
-0.01908621 0.080844909 0.40649414
-0.018717082 0.080801971 0.40628156
-0.018359086 0.080806345 0.40630677
-0.017999189 0.080802359 0.40628991
-0.017637651 0.080790713 0.40623441
-0.017291136 0.080848813 0.40652958
-0.016935736 0.080866963 0.40662375
-0.016578531 0.080877095 0.40667757
0.01360627 0.078794278 0.3961845
0.013957277 0.078799337 0.39620671
0.014302778 0.078773834 0.39607507
0.014653853 0.078779504 0.39610019
0.015002808 0.078773767 0.39606783
0.015347027 0.078743994 0.39591464
0.015693141 0.078725062 0.39581582
0.016038053 0.078701042 0.39569137
0.01638132 0.078670144 0.39553228
0.016730821 0.078669861 0.39552703
0.017075751 0.07864853 0.39541587
0.01741883 0.078619681 0.39526692
0.017761555 0.078590415 0.39511576
0.018107479 0.07857617 0.39504001
0.018447366 0.078536734 0.39483762
0.018793344 0.078524232 0.3947705
0.019137867 0.078506209 0.39467561
0.019481706 0.07848607 0.39456993
0.019827509 0.078474402 0.3945069
0.02016422 0.078427784 0.39426804
0.020513371 0.07843031 0.39427617
0.020856917 0.078411683 0.39417788
0.021205043 0.078410596 0.39416772
0.021546369 0.078384802 0.39403328
0.021886824 0.078356721 0.39388728
0.022231247 0.078343488 0.39381585
0.022571664 0.07831677 0.39367658
0.022915429 0.078302301 0.39359877
0.023255492 0.0782758 0.39346045
0.023600731 0.078267246 0.39341229
0.023943827 0.078251936 0.39333007
0.024278961 0.078211412 0.39312106
0.024626324 0.078210868 0.39311299
0.024964483 0.07818152 0.39295998
0.025306534 0.078164987 0.39287141
0.025646947 0.078143932 0.39275995
0.025988568 0.078127034 0.39266944
0.026335768 0.078127153 0.39266431
0.026682857 0.078126945 0.39265746
0.027035758 0.07814353 0.392735
0.027393673 0.078174017 0.39288229
-0.031232165 0.081974305 0.41018224
-0.03086886 0.081972361 0.41017818
-0.030491827 0.081933469 0.40998921
-0.030130655 0.081936792 0.41001129
-0.029752053 0.081892222 0.4097937
-0.029398076 0.081915155 0.40991384
-0.029012965 0.081850819 0.40959725
-0.028643182 0.081828669 0.4094916
-0.028283052 0.081833877 0.40952283
-0.027906507 0.081791118 0.40931392
-0.027534297 0.081760094 0.40916368
-0.027174028 0.081764184 0.40918911
-0.026804097 0.081738926 0.40906757
-0.026438976 0.081727855 0.40901694
-0.026062334 0.08168035 0.40878397
-0.025691541 0.081650108 0.40863726
-0.0253313 0.081653021 0.40865639
-0.024967181 0.081643343 0.40861246
-0.02458786 0.081582934 0.40831459
-0.024216544 0.081547678 0.40814251
-0.023852425 0.081535965 0.40808821
-0.023482632 0.081504211 0.40793347
-0.023113895 0.081475191 0.40779236
-0.022747049 0.081452012 0.40768042
-0.022381386 0.081432387 0.40758625
-0.022020256 0.081428893 0.40757269
-0.021648599 0.081385717 0.40736043
-0.021292206 0.081399433 0.40743288
-0.020927101 0.081379727 0.40733802
-0.02055631 0.081336863 0.40712708
-0.02018738 0.081299961 0.40694591
-0.019822985 0.081280313 0.40685108
-0.019463535 0.081280582 0.40685585
-0.019090937 0.081224933 0.40658066
-0.018731868 0.081225812 0.40658841
-0.018364957 0.081192046 0.40642259
-0.018011812 0.081219032 0.40656081
-0.017654849 0.081229553 0.40661654
-0.017294858 0.081226267 0.4066031
0.013960859 0.079169489 0.39628968
0.014310692 0.079167336 0.39627558
0.014661601 0.079171114 0.39629105
0.01500763 0.079148963 0.3961767
0.015354607 0.079132698 0.39609176
0.015694592 0.079081923 0.39583403
0.01604278 0.079073809 0.39578968
0.016389491 0.0790589 0.39571133
0.016732993 0.079029463 0.39556015
0.017082594 0.079029456 0.39555621
0.017426915 0.079005495 0.39543235
0.017776897 0.07900764 0.39543906
0.018121289 0.078985319 0.39532328
0.018459825 0.078938819 0.39508638
0.018797025 0.078888439 0.39482996
0.019151546 0.078911252 0.39493984
0.019486049 0.078852251 0.39464018
0.019834889 0.078852303 0.39463601
0.020174772 0.078817368 0.39445665
0.020522932 0.078815408 0.39444229
0.020869069 0.078805864 0.3943899
0.021209581 0.078775756 0.39423451
0.021557976 0.078775413 0.39422804
0.021900456 0.078753807 0.39411506
0.022243576 0.07873515 0.39401677
0.022582635 0.078702912 0.39385051
0.022930643 0.07870236 0.39384267
0.023269175 0.078669786 0.39367455
0.023609746 0.078644983 0.39354527
0.023947347 0.078611128 0.3933706
0.024295468 0.078612283 0.39337111
0.02463641 0.078590497 0.39325672
0.024973258 0.078556456 0.39308092
0.025311282 0.078526981 0.39292791
0.025653012 0.078509651 0.39283565
0.026000602 0.078510493 0.39283416
0.026343446 0.078497149 0.39276171
0.026691837 0.078500465 0.39277256
0.027041435 0.078507207 0.39280045
0.027390841 0.07851322 0.39282462
-0.031238664 0.082354598 0.41025266
-0.030877622 0.082358889 0.41027963
-0.030515675 0.082360826 0.41029489
-0.030148515 0.082348585 0.4102394
-0.029788502 0.08235579 0.41028076
-0.029410997 0.082314231 0.41007906
-0.029031636 0.082266361 0.40984592
-0.02865365 0.082221255 0.40962639
-0.028295582 0.082232855 0.4096894
-0.027925337 0.082208931 0.40957525
-0.027553869 0.082180724 0.40943974
-0.027183941 0.08215642 0.40932357
-0.026816826 0.082140073 0.40924704
-0.026446218 0.082112446 0.40911415
-0.026076313 0.082086265 0.40898845
-0.025708552 0.082066201 0.40889314
-0.025339952 0.082042836 0.40878129
-0.024977647 0.082039475 0.40876904
-0.024595741 0.081970699 0.40843078
-0.024231425 0.081959359 0.40837866
-0.023870997 0.081961036 0.40839133
-0.023497088 0.081915773 0.40816998
-0.023134483 0.08190912 0.40814099
-0.02276062 0.081861764 0.40790913
-0.022396402 0.081848137 0.40784523
-0.022033734 0.081839822 0.40780771
-0.021660721 0.081792161 0.40757409
-0.021299781 0.081789255 0.40756342
-0.02092736 0.081741408 0.4073287
-0.020564329 0.081729203 0.40727153
-0.020199085 0.081707627 0.40716758
-0.019837087 0.081698626 0.40712622
-0.019468412 0.081661277 0.40694356
-0.01910146 0.081629895 0.40679055
-0.018736934 0.081607886 0.40668416
-0.018378388 0.081611574 0.40670571
-0.018014498 0.081591211 0.40660739
-0.017657518 0.081601948 0.40666398
-0.017303929 0.08162912 0.40680239
-0.01695005 0.081656061 0.4069396
-0.01659609 0.081683777 0.40708056
0.013971022 0.079577304 0.39655942
0.014318204 0.079559013 0.39646494
0.014668375 0.079557799 0.3964555
0.015011792 0.079520866 0.39626798
0.015362403 0.079522856 0.39627436
0.015708555 0.079502188 0.39616776
0.016049257 0.079455443 0.39593112
0.016396996 0.079444781 0.39587423
0.016745677 0.079439037 0.39584181
0.01708525 0.079391189 0.39559948
0.0174329 0.079382047 0.39554998
0.017780418 0.079372682 0.39549926
0.018129041 0.079368494 0.39547434
0.018471159 0.079336539 0.39531094
0.018810177 0.079292692 0.39508826
0.019153811 0.079269543 0.39496863
0.019497419 0.079247124 0.39485255
0.01984399 0.07923732 0.39479929
0.020194152 0.079241954 0.39481783
0.020531222 0.079195917 0.39458388
0.020879868 0.079195321 0.39457628
0.021216998 0.079151787 0.3943547
0.021560214 0.079132006 0.39425135
0.02190314 0.079111785 0.39414582
0.022250641 0.079108469 0.39412439
0.022589248 0.079074122 0.39394829
0.02293784 0.07907524 0.39394882
0.023274107 0.07903447 0.39374059
0.023622623 0.079035878 0.39374247
0.023966631 0.079022393 0.39366999
0.024308234 0.079001464 0.39356047
0.024640204 0.078950256 0.3933
0.024988733 0.078952804 0.39330724
0.025324581 0.07891576 0.39311716
0.025673462 0.078919776 0.39313161
0.026013739 0.078897581 0.39301544
0.026360575 0.078895614 0.39299992
0.026692491 0.078849621 0.39276505
0.027052088 0.078885525 0.39293805
0.027401663 0.078891665 0.39296272
-0.031277113 0.082819648 0.41074255
-0.030896708 0.082773276 0.41051823
-0.030535135 0.082776852 0.41054153
-0.030158289 0.082738608 0.41035736
-0.029798536 0.082746916 0.410404
-0.029429436 0.082729138 0.41032121
-0.029054267 0.082693659 0.4101505
-0.028684719 0.082673468 0.41005561
-0.028301306 0.082612313 0.40975738
-0.027949855 0.082644053 0.40991992
-0.027567329 0.082583562 0.40962487
-0.027194198 0.082549967 0.40946317
-0.026829364 0.082540996 0.40942353
-0.026458535 0.082513079 0.4092899
-0.02609049 0.082493193 0.40919599
-0.025717404 0.082456596 0.40901911
-0.025352921 0.08244694 0.40897575
-0.024987372 0.08243347 0.40891346
-0.024614498 0.082395099 0.40872753
-0.024250222 0.082384802 0.40868083
-0.023880986 0.082357071 0.40854758
-0.023502296 0.082295403 0.40824586
-0.02313279 0.082264461 0.40809649
-0.022775125 0.082275324 0.40815449
-0.022412267 0.082267471 0.40811953
-0.022037497 0.082214937 0.40786281
-0.021670951 0.082191832 0.40775207
-0.021302763 0.082161628 0.40760601
-0.020939907 0.082151301 0.40755847
-0.020576037 0.082136564 0.40748903
-0.020209676 0.082111165 0.40736663
-0.019841464 0.082077228 0.40720171
-0.019476071 0.082053892 0.40708938
-0.019120015 0.082069755 0.40717149
-0.018744608 0.082001589 0.40683654
-0.018383313 0.081993684 0.40680054
-0.018024094 0.081994928 0.40680984
-0.017666832 0.082005292 0.40686437
-0.017307855 0.082007989 0.40688071
-0.016955314 0.082041919 0.40705201
0.01398024 0.079980187 0.39680216
0.014322502 0.079933092 0.39656514
0.014677714 0.079958774 0.39668915
0.015019103 0.079909712 0.39644232
0.015367907 0.079901442 0.39639774
0.015715629 0.079888046 0.39632764
0.016061148 0.079864264 0.39620599
0.016405882 0.079837687 0.39607036
0.016752111 0.079819329 0.3959755
0.017096324 0.079792313 0.39583758
0.017440807 0.079767622 0.39571118
0.017791854 0.079773329 0.39573544
0.018136907 0.079752468 0.39562783
0.018478118 0.079715796 0.3954418
0.018820705 0.079686336 0.39529139
0.019168533 0.07967972 0.39525428
0.019512195 0.079656325 0.39513388
0.019855469 0.079632193 0.39500976
0.020198224 0.079606868 0.39487961
0.020546082 0.079602152 0.39485165
0.020892667 0.079592742 0.39480039
0.021239204 0.079583481 0.39474973
0.021574982 0.079534844 0.39450368
0.021920674 0.079523712 0.39444366
0.022258386 0.07948444 0.39424399
0.022610147 0.079495773 0.39429519
0.02294695 0.079454958 0.39408773
0.023287347 0.079427622 0.39394706
0.023627793 0.079401277 0.3938112
0.023973592 0.079393394 0.39376688
0.024321774 0.079393521 0.39376223
0.024664387 0.079375729 0.39366862
0.024998959 0.079332925 0.39345083
0.025337225 0.07930284 0.39329615
0.02567975 0.079286709 0.39321059
0.026027853 0.079288021 0.39321142
0.026367398 0.07926356 0.39308444
0.026706846 0.079239443 0.39295909
0.027053187 0.079236135 0.39293686
0.02741896 0.079289116 0.39319366
0.027757054 0.079261713 0.39305183
-0.031297866 0.083238535 0.41099998
-0.030918095 0.083194315 0.41078728
-0.030545333 0.083168134 0.4106636
-0.030176094 0.083151035 0.41058463
-0.029808972 0.083139405 0.41053265
-0.029446814 0.083141521 0.41054845
-0.02906164 0.083077885 0.41023958
-0.028693395 0.083061665 0.41016468
-0.028324382 0.083042771 0.4100765
-0.027951507 0.083011925 0.40992922
-0.027571578 0.082959041 0.40967306
-0.027209137 0.082958058 0.40967318
-0.026840342 0.082937434 0.40957618
-0.026466308 0.082899824 0.40939528
-0.026095392 0.082871079 0.40925804
-0.025735311 0.082876436 0.40928909
-0.025369613 0.082863569 0.40923017
-0.025001017 0.082840741 0.40912196
-0.024623698 0.082787931 0.40886554
-0.024263408 0.082791649 0.40888828
-0.023891525 0.08275532 0.40871313
-0.023532247 0.082762212 0.4087514
-0.023158027 0.082715951 0.40852708
-0.022781165 0.082658641 0.40824807
-0.022416918 0.082645997 0.40818962
-0.022053482 0.082635976 0.40814409
-0.021688033 0.082617961 0.40805894
-0.021319216 0.082586281 0.40790629
-0.020946261 0.082537219 0.40766767
-0.020581139 0.082517847 0.40757564
-0.020215128 0.082494155 0.40746215
-0.019846091 0.082457021 0.40728226
-0.019483499 0.082445815 0.40723032
-0.019123711 0.08244627 0.40723589
-0.018760158 0.082430191 0.40715978
-0.018394377 0.082403503 0.40703118
-0.018028827 0.082376815 0.40690252
-0.017670451 0.082382493 0.40693361
-0.017322931 0.082440063 0.40722099
-0.016960131 0.082425818 0.40715358
0.013995338 0.080417335 0.39721176
0.014327682 0.080312319 0.39668968
0.014680549 0.080324605 0.39674702
0.015029125 0.080313392 0.39668813
0.015375501 0.080291204 0.396575
0.015724752 0.080284677 0.39653915
0.016064392 0.080230422 0.3962675
0.016408011 0.080197938 0.39610332
0.01675483 0.080182113 0.39602137
0.017106788 0.080191046 0.3960616
0.01745127 0.08016526 0.39593026
0.017796779 0.080145113 0.39582676
0.01814254 0.080126852 0.39573249
0.018488619 0.080110654 0.39564836
0.018835543 0.080098674 0.39558491
0.01917279 0.080046706 0.39532396
0.019519966 0.080037311 0.39527324
0.019867249 0.080028675 0.39522618
0.020210311 0.080003627 0.39509794
0.020551233 0.079971105 0.39493281
0.020901605 0.079975829 0.39495146
0.021240486 0.079937145 0.39475575
0.021581171 0.079906397 0.39459911
0.021931436 0.079911523 0.39461958
0.022275059 0.079892673 0.39452159
0.022616921 0.079868175 0.39439565
0.022958649 0.079843946 0.39427102
0.023298908 0.079815432 0.3941251
0.023648545 0.079819389 0.3941395
0.023980929 0.079765856 0.39386988
0.024325155 0.079752676 0.39379954
0.02467316 0.07975208 0.39379123
0.025008924 0.079712488 0.39359027
0.025354765 0.079705648 0.39355102
0.025696509 0.079686292 0.3934499
0.026038188 0.079667263 0.39335027
0.026381088 0.079652406 0.39327124
0.026731905 0.079661541 0.39331055
0.027058579 0.079599403 0.39299795
0.027414942 0.079625078 0.3931188
-0.030933859 0.083600663 0.4109816
-0.030561762 0.083576694 0.41086933
-0.030190654 0.083554879 0.41076761
-0.029828383 0.0835573 0.4107849
-0.029449042 0.08351136 0.41056442
-0.02907962 0.083492771 0.41047829
-0.028702823 0.083452262 0.41028437
-0.028338319 0.083446905 0.41026321
-0.02796571 0.083417259 0.41012248
-0.027609348 0.083435923 0.41021928
-0.027232502 0.083392359 0.41001001
-0.026863296 0.083371334 0.40991151
-0.026485488 0.083322667 0.409677
-0.026117973 0.083305486 0.40959725
-0.025744334 0.083268024 0.40941766
-0.025378104 0.083253786 0.40935227
-0.025003972 0.083212845 0.40915546
-0.024642244 0.083212599 0.40915865
-0.024272094 0.083183475 0.40901983
-0.023897205 0.083136983 0.40879554
-0.023534965 0.083133757 0.40878388
-0.023166871 0.083109431 0.40866837
-0.022798358 0.083082795 0.40854147
-0.022433443 0.083068632 0.40847585
-0.022061426 0.083027281 0.40827647
-0.021701781 0.083031893 0.40830299
-0.02133524 0.083009847 0.40819833
-0.020963971 0.082968317 0.40799782
-0.0206035 0.082968816 0.40800393
-0.020227395 0.082905255 0.40769494
-0.019860502 0.082877837 0.4075636
-0.019499682 0.082875222 0.40755415
-0.019132271 0.082843967 0.4074038
-0.018767005 0.082820982 0.40729406
-0.018401671 0.08279679 0.40717828
-0.018039141 0.082784511 0.40712103
-0.017681671 0.082795426 0.40717781
-0.017318852 0.082781225 0.40711096
-0.016975261 0.082860291 0.40750271
0.01400269 0.080810517 0.39740136
0.014337779 0.080719478 0.3969503
0.014685572 0.080702588 0.39686388
0.015032986 0.080684461 0.39677131
0.015386089 0.080696985 0.39682931
0.015735663 0.080690868 0.39679563
0.016075047 0.080633886 0.39651176
0.016421789 0.080615461 0.39641741
0.01676232 0.080567949 0.39617994
0.01711043 0.080558069 0.39612746
0.017459949 0.080555074 0.39610884
0.017806049 0.080536745 0.39601466
0.018148942 0.080504864 0.39585385
0.018490028 0.08046636 0.39566034
0.018843098 0.080480456 0.3957254
0.019189076 0.080464303 0.39564168
0.01953302 0.080440328 0.3955195
0.019875377 0.080410786 0.3953698
0.020217886 0.080382884 0.39522809
0.020565687 0.080376595 0.39519262
0.02090539 0.080339395 0.39500508
0.021248201 0.080315173 0.39488128
0.02159632 0.080311455 0.39485824
0.02193694 0.080280416 0.39470083
0.022278562 0.080253966 0.39456588
0.022623563 0.080240317 0.39449382
0.022970533 0.080233946 0.39445746
0.023308987 0.080198474 0.39427796
0.023655416 0.080191068 0.39423642
0.024002278 0.080185339 0.39420298
0.024342865 0.080159098 0.39406866
0.024684496 0.080136985 0.39395463
0.025024425 0.080110036 0.39381674
0.025360525 0.080071747 0.39362299
0.0257072 0.080067426 0.3935962
0.026045879 0.080038637 0.39344904
0.026393499 0.080037735 0.39343891
0.026744444 0.080046795 0.39347768
0.027083844 0.080021523 0.39334759
0.027434511 0.080029748 0.39338213
0.027799239 0.080078267 0.39361468
0.028148327 0.08008109 0.39362252
-0.030947367 0.084001265 0.4111459
-0.030578801 0.083987333 0.41108325
-0.030207343 0.083965018 0.41097951
-0.029836189 0.083943024 0.41087729
-0.029466046 0.083923355 0.41078639
-0.029091455 0.083890378 0.41063026
-0.028719364 0.083863869 0.41050571
-0.028353347 0.08385466 0.41046572
-0.027974894 0.083807938 0.41024214
-0.02760957 0.083799846 0.41020751
-0.027244966 0.083793752 0.41018263
-0.026872585 0.083763257 0.4100382
-0.026493387 0.083710387 0.40978417
-0.026130201 0.083707362 0.40977401
-0.025762722 0.083690301 0.40969515
-0.025391765 0.083661288 0.4095577
-0.025016669 0.083617598 0.40934834
-0.024647612 0.083593115 0.40923291
-0.02428256 0.083581693 0.40918133
-0.023915395 0.083562545 0.40909189
-0.023541896 0.08352033 0.40888944
-0.023179714 0.083517589 0.40888014
-0.022807887 0.083479449 0.40869749
-0.022440488 0.083456561 0.40858942
-0.022071848 0.083428234 0.40845466
-0.021705495 0.083407745 0.40835822
-0.021342285 0.083398856 0.40831849
-0.020975776 0.083376557 0.40821299
-0.020608647 0.083350949 0.40809128
-0.020236129 0.083302267 0.40785646
-0.019872604 0.083289504 0.40779749
-0.019500891 0.083241329 0.407565
-0.019143768 0.083254777 0.40763426
-0.018777288 0.083227284 0.40750289
-0.018410807 0.083198696 0.40736616
-0.018048577 0.083188586 0.40731972
