# .PCD v0.7 - Point Cloud Data file format
VERSION 0.7
FIELDS x y z
SIZE 4 4 4
TYPE F F F
COUNT 1 1 1
WIDTH 1379
HEIGHT 1
VIEWPOINT 0 0 0 1 0 0 0
POINTS 1379
DATA ascii
0.044859562 0.058627855 0.38809225
0.045205902 0.058632378 0.38811252
0.045530785 0.058609203 0.38794938
0.045850545 0.058579829 0.38774514
0.046188608 0.058574103 0.3876974
0.046523217 0.058564123 0.38762137
0.046855476 0.058551345 0.38752681
0.047192775 0.058545008 0.38747481
0.047509477 0.058513381 0.3872554
0.047850285 0.058511697 0.38723403
0.048177846 0.058493942 0.38710633
0.048505798 0.058476921 0.38698336
0.048834164 0.058460627 0.38686517
0.04918015 0.058465499 0.38688698
0.049514547 0.05845663 0.38681781
0.04984276 0.058440629 0.38670138
0.050182313 0.058438051 0.38667378
0.050511021 0.058422968 0.38656327
0.050842516 0.058411289 0.38647527
0.051179264 0.058405753 0.38642785
0.051504053 0.058386743 0.38629121
0.051812656 0.058349747 0.38603556
0.052134532 0.058328081 0.38588125
0.052482776 0.058336012 0.3859227
0.052814171 0.058325231 0.3858403
0.053148217 0.058317494 0.38577798
0.053467914 0.058294214 0.38561279
0.053787053 0.058270626 0.38544551
0.054091539 0.058231562 0.38517579
0.054440089 0.058240116 0.385221
0.054760627 0.058218792 0.38506854
0.055101763 0.058219496 0.38506171
0.05541518 0.058191076 0.38486218
0.055773344 0.058209699 0.38497379
0.056087986 0.058182962 0.38478526
0.056422323 0.058176845 0.38473311
0.056739025 0.058152728 0.3845619
0.057064675 0.058138017 0.38445276
0.057412334 0.058145776 0.38449219
0.057794284 0.058187962 0.38475919
0.082490072 0.057143282 0.37678853
0.082822263 0.057141893 0.37676367
0.083147138 0.057135478 0.37670568
0.083506294 0.057152577 0.37680271
0.083795466 0.057121839 0.37658423
0.084113941 0.057111241 0.37649852
0.084427759 0.057097569 0.37639257
0.084741883 0.057084214 0.37628865
0.085052215 0.057068422 0.37616864
0.085405365 0.057081375 0.37623802
0.085708864 0.057061166 0.3760888
0.085983939 0.057022259 0.37581638
0.086311847 0.057018563 0.3757759
0.086639501 0.05701473 0.37573454
0.086941227 0.05699392 0.37558126
0.087266825 0.056988861 0.37553173
0.087577187 0.05697393 0.37541714
0.087919429 0.056979772 0.37543938
0.088224806 0.056961779 0.37530449
0.088528998 0.056943137 0.3751654
0.088844232 0.056931723 0.37507385
0.089205004 0.056949466 0.37517434
0.089467764 0.056904741 0.37486327
0.089812577 0.056912333 0.37489685
0.090125136 0.05689951 0.37479588
0.090442404 0.056889743 0.37471506
0.090726398 0.056859192 0.37449729
0.09103848 0.056846417 0.3743965
0.091354996 0.056836475 0.37431446
0.09166047 0.056819767 0.37418777
0.09199772 0.056822807 0.37419114
0.092288554 0.056797255 0.37400615
0.092593886 0.056780785 0.37388098
0.092906199 0.056768689 0.37378457
0.093223654 0.056759819 0.37370938
0.093535036 0.056747321 0.37361026
0.093864985 0.05674614 0.37358564
0.094163351 0.056725938 0.37343577
0.094476931 0.056715012 0.37334692
0.094801888 0.056710962 0.37330335
0.09508384 0.056681316 0.37309122
0.09540046 0.056672454 0.37301594
0.095736131 0.056674942 0.37301528
0.096084952 0.056685168 0.37306556
0.096374594 0.056660533 0.37288633
0.096683487 0.056647342 0.37278241
0.097014405 0.056647111 0.37276372
0.097347334 0.056648046 0.37275276
0.097739585 0.056683373 0.37296799
0.041595109 0.05920437 0.38971007
0.041890848 0.059135951 0.38925067
0.042198688 0.059085585 0.38891003
0.042547416 0.059092812 0.38894847
0.042881209 0.059079356 0.38885066
0.043216832 0.059068609 0.38877061
0.043553829 0.059059896 0.38870388
0.043886345 0.059045292 0.38859832
0.044212282 0.059022129 0.38843641
0.044549607 0.059014414 0.38837603
0.044874225 0.058990106 0.38820648
0.045201737 0.058969941 0.38806409
0.045538697 0.058962315 0.38800415
0.045876957 0.05895647 0.38795593
0.046214145 0.058949348 0.38789916
0.046537794 0.058925185 0.38773024
0.046884704 0.058930609 0.38775596
0.047217295 0.058918089 0.38766351
0.047547366 0.058902629 0.3875517
0.047872577 0.058881413 0.38740191
0.04820263 0.058866411 0.38729298
0.04852486 0.05884213 0.38712293
0.048847087 0.058818191 0.38695508
0.049178768 0.058805883 0.38686368
0.049523927 0.058809754 0.38687867
0.049856044 0.058798186 0.38679206
0.050195292 0.058795135 0.38676137
0.050529726 0.058786515 0.38669401
0.050866257 0.058780443 0.38664332
0.051181786 0.058750328 0.38643447
0.051499609 0.058723249 0.38624549
0.051838323 0.058720179 0.38621441
0.052154709 0.058692019 0.38601828
0.052483257 0.05867783 0.38591394
0.052819867 0.058672771 0.38586959
0.053163644 0.058675695 0.3858777
0.053492017 0.058661688 0.38577434
0.053825986 0.058653947 0.38571221
0.054132689 0.058616791 0.38545653
0.054462709 0.058605175 0.38536882
0.054780174 0.058580287 0.38519377
0.055111893 0.058570854 0.38512024
0.055448025 0.058566201 0.3850781
0.055781212 0.058558505 0.38501593
0.056115896 0.058552466 0.38496456
0.056453742 0.058549788 0.38493523
0.056799419 0.058555212 0.3849591
0.057120256 0.05853511 0.38481513
0.082842916 0.057490535 0.37684673
0.083178587 0.0574915 0.37683734
0.083507396 0.057487711 0.37679681
0.083844058 0.057489354 0.37679178
0.084157966 0.057475448 0.37668481
0.084473774 0.057462927 0.37658691
0.084761031 0.057431176 0.37636295
0.085086308 0.057425324 0.37630868
0.085405938 0.057415716 0.37622979
0.085716538 0.057400145 0.37611175
0.086028948 0.05738591 0.3760024
0.086355574 0.057381216 0.37595564
0.086648107 0.057353996 0.37576118
0.086961702 0.057340879 0.37565908
0.08730869 0.05734979 0.37570131
0.087620519 0.057335623 0.37559229
0.087937638 0.057325017 0.37550655
0.088266067 0.057321835 0.37546945
0.088573396 0.057305019 0.37534302
0.088896774 0.057298686 0.37528515
0.089178048 0.057265349 0.37505046
0.089532271 0.057278939 0.37512305
0.089833595 0.057258714 0.37497413
0.09014 0.057241857 0.37484726
0.090479717 0.057246197 0.37485918
0.090780459 0.057225946 0.37471002
0.091086306 0.057209037 0.37458277
0.091401942 0.057198387 0.37449643
0.091694303 0.057173304 0.37431556
0.092046067 0.057185296 0.3743774
0.092346542 0.057165466 0.37423086
0.092608407 0.057121955 0.37392932
0.092962176 0.057135236 0.37399951
0.093272395 0.057121757 0.37389451
0.093581349 0.057107598 0.37378499
0.093908384 0.057104539 0.37374812
0.094214953 0.057089094 0.3736302
0.094537668 0.057083506 0.37357673
0.094846487 0.057069603 0.37346882
0.095172159 0.0570659 0.37342757
0.095481455 0.05705243 0.37332249
0.095754623 0.057017546 0.37307721
0.096091785 0.057020869 0.37308195
0.096416369 0.057016749 0.37303787
0.096727408 0.057004664 0.3729417
0.097054861 0.057002302 0.37290916
0.097401887 0.057011411 0.37295157
0.097758718 0.057026178 0.37303102
0.098060466 0.057008818 0.37290025
0.098470345 0.057054233 0.37318006
0.041614234 0.059576076 0.3898764
0.041895948 0.059487112 0.38928515
0.042237025 0.059483204 0.38925049
0.042561505 0.05945617 0.3890644
0.042896915 0.059444714 0.38898021
0.043227352 0.059426613 0.38885245
0.043569282 0.05942446 0.38882902
0.043908324 0.059418432 0.38878018
0.044238631 0.059400778 0.38865516
0.044554256 0.059363831 0.38840383
0.044904422 0.059373111 0.38845494
0.045242544 0.059366453 0.38840175
0.045577537 0.059355821 0.38832238
0.045895968 0.059323937 0.38810399
0.046229612 0.059312042 0.38801631
0.046574846 0.059315074 0.38802624
0.046895731 0.059287291 0.38783452
0.047220897 0.059265282 0.38768047
0.047563985 0.059265919 0.38767454
0.047899216 0.059256829 0.38760489
0.048218753 0.059228588 0.38740996
0.048536334 0.059198357 0.38720191
0.048874885 0.059193946 0.38716272
0.049198668 0.059171837 0.38700768
0.04953821 0.05916886 0.38697776
0.049872011 0.0591591 0.38690338
0.050217971 0.059163805 0.38692358
0.050547212 0.059148889 0.38681534
0.050877832 0.059135765 0.38671881
0.051192246 0.059104111 0.38650104
0.051528845 0.059098318 0.38645232
0.05185651 0.059082422 0.38633749
0.052185711 0.059068475 0.38623533
0.052517876 0.05905804 0.38615611
0.052850995 0.059048802 0.38608462
0.053188011 0.059044011 0.38604215
0.053514123 0.059027255 0.38592142
0.053846773 0.059017874 0.38584885
0.054146338 0.058972582 0.38554141
0.054490983 0.058976643 0.38555661
0.054815095 0.058958568 0.38542703
0.055142839 0.058944594 0.38532421
0.05547744 0.058938082 0.38527012
0.055801045 0.058920041 0.3851406
0.05614572 0.058924329 0.38515696
0.056492347 0.058930598 0.38518623
0.056813266 0.058910143 0.38504073
0.057165377 0.058922075 0.38510689
0.083182462 0.05782859 0.37684396
0.083524331 0.057833832 0.37686238
0.083852418 0.057829518 0.37681848
0.084197283 0.057836764 0.37684992
0.084523 0.057830855 0.37679556
0.084826402 0.057809781 0.37664238
0.085148409 0.057801504 0.37657255
0.085436948 0.057770662 0.37635565
0.085743524 0.057752203 0.37621942
0.086082339 0.057755519 0.37622499
0.086416937 0.057755992 0.37621203
0.086686797 0.057713367 0.37591827
0.087037109 0.057724416 0.37597412
0.087340645 0.057704482 0.37582812
0.087652326 0.057690062 0.375718
0.087988064 0.057691522 0.37571123
0.088282727 0.057666138 0.37552971
0.088585161 0.057646003 0.37538227
0.088926747 0.057651401 0.37540108
0.08926519 0.057654735 0.37540641
0.089554317 0.057626292 0.37520483
0.089847371 0.057600606 0.37502113
0.090171918 0.057595201 0.37496948
0.090501115 0.057592802 0.37493736
0.090807617 0.05757603 0.37481165
0.091126733 0.057567347 0.37473857
0.091450058 0.057561383 0.37468314
0.09174452 0.057537355 0.37451014
0.092076898 0.057537198 0.37449244
0.092358984 0.057505727 0.37427092
0.092655778 0.057483602 0.37411019
0.093008943 0.057496488 0.37417731
0.093331091 0.05749017 0.37411946
0.093602374 0.057452679 0.37385866
0.093936853 0.057454109 0.37385112
0.094261065 0.057449266 0.37380275
0.094583198 0.057443198 0.3737464
0.094892457 0.057429377 0.37363955
0.095183089 0.057404421 0.37346026
0.0954988 0.057394713 0.37338012
0.095830522 0.057394661 0.37336275
0.096152335 0.057388693 0.37330693
0.09644518 0.057365537 0.37313923
0.096745573 0.057347011 0.37300161
0.097111672 0.057367422 0.37311727
0.097420819 0.057354178 0.373014
0.097775765 0.057367887 0.37308598
0.098119296 0.057374828 0.37311393
0.041610777 0.059915572 0.38983107
0.0419004 0.059837434 0.38931361
0.042251088 0.059847064 0.38936716
0.042581849 0.059828538 0.38923746
0.042920861 0.059821814 0.38918447
0.043258574 0.059813395 0.38912043
0.0435993 0.059809241 0.38908404
0.043921947 0.059780553 0.38888797
0.044252936 0.059763569 0.38876802
0.044578832 0.059740018 0.38860524
0.044910908 0.05972505 0.38849825
0.045251321 0.05972131 0.38846427
0.045596242 0.059723526 0.38846895
0.045907982 0.059682578 0.3881928
0.046266641 0.059702784 0.38831437
0.046586506 0.059672996 0.3881107
0.046916354 0.059656337 0.38799238
0.047246341 0.059640091 0.38787669
0.04758865 0.059639525 0.38786289
0.047919087 0.059624199 0.38775301
0.048244193 0.059602495 0.38760167
0.0485892 0.059605509 0.387611
0.048892654 0.059557877 0.38729087
0.049229652 0.059551466 0.3872388
0.049561821 0.059539359 0.38714957
0.049892399 0.059525508 0.38704899
0.050233372 0.059524175 0.38702971
0.050567996 0.059515372 0.38696182
0.050906606 0.059511356 0.38692498
0.051237095 0.05949796 0.38682711
0.051544834 0.05945849 0.38655972
0.051881976 0.059453253 0.38651475
0.05219385 0.059419304 0.38628307
0.052546766 0.059432216 0.38635603
0.052874599 0.059416778 0.3862446
0.053216558 0.059417311 0.38623694
0.05356545 0.059425525 0.38627914
0.053855389 0.059368648 0.3858982
0.054196946 0.059369028 0.38588935
0.054519325 0.059348527 0.38574475
0.054838277 0.059324577 0.38557768
0.055186421 0.059332307 0.38561642
0.055494804 0.05929745 0.38537836
0.055832047 0.059293676 0.38534224
0.056165636 0.05928608 0.38528126
0.056517653 0.059297923 0.3853465
0.083555333 0.058189876 0.37699133
0.083871029 0.058176856 0.37689123
0.084209748 0.058179844 0.3768948
0.084536724 0.058174733 0.37684584
0.084861979 0.058168478 0.37678945
0.085179478 0.058156986 0.37669909
0.085477173 0.058132101 0.37652197
0.085809648 0.058130976 0.37649873
0.086111501 0.058109201 0.37634167
0.086420842 0.058092624 0.37621826
0.08672563 0.058073126 0.37607589
0.087065406 0.058077119 0.37608564
0.08738593 0.058068287 0.37601227
0.08772485 0.058071684 0.37601811
0.088028371 0.058051731 0.37587267
0.088343248 0.058039378 0.37577644
0.088629276 0.058008242 0.37555853
0.088957392 0.058004782 0.37551981
0.08928737 0.058002554 0.37548903
0.0895999 0.057989061 0.37538525
0.089927427 0.057985321 0.37534466
0.090204574 0.057949252 0.37509471
0.090542048 0.057952058 0.37509638
0.09086287 0.057944231 0.37502918
0.091155618 0.057918616 0.37484688
0.091485366 0.057916619 0.37481731
0.091764197 0.05788251 0.37458
0.092093304 0.057880245 0.3745487
0.092434183 0.057885371 0.37456518
0.092728823 0.057861611 0.37439471
0.093051799 0.057855632 0.37433928
0.093356319 0.057838265 0.37421018
0.093715057 0.057854496 0.37429836
0.093990251 0.057819221 0.3740533
0.094294868 0.057802219 0.37392649
0.094628185 0.057802878 0.37391385
0.094914451 0.057774886 0.37371588
0.095226698 0.057762846 0.37362111
0.095550165 0.057757683 0.37357068
0.095873326 0.057752367 0.37351933
0.09617807 0.057736028 0.37339661
0.096523598 0.057744194 0.3734324
0.096811488 0.057717945 0.37324557
0.097121902 0.057705268 0.37314647
0.097463787 0.0577113 0.37316838
0.097789712 0.05770788 0.3731291
0.098150067 0.057724737 0.37322086
0.098485343 0.057726759 0.37321678
0.041621935 0.060276173 0.38992253
0.041926917 0.060219515 0.38954696
0.042274814 0.060224917 0.38957283
0.042605747 0.060206257 0.38944292
0.042940862 0.060193755 0.38935286
0.043277238 0.060183212 0.38927534
0.04361406 0.060173452 0.38920283
0.043956418 0.06017141 0.38918021
0.044285316 0.06015113 0.38903955
0.044607736 0.060122427 0.38884434
0.044941284 0.06010903 0.38874814
0.045263555 0.060080882 0.38855642
0.045604113 0.060077254 0.38852322
0.045935426 0.060061581 0.38841206
0.046271589 0.060052436 0.38834307
0.046597771 0.060030568 0.38819173
0.046946403 0.060037736 0.38822809
0.047275648 0.060020175 0.3881045
0.047614191 0.060014591 0.38805827
0.047941603 0.059995163 0.3879225
0.048268508 0.059975371 0.3877843
0.048614398 0.059979286 0.38779932
0.048926841 0.05994216 0.38754895
0.049246412 0.059914231 0.38735795
0.049572192 0.059894193 0.38721794
0.049921997 0.059903253 0.38726595
0.050247729 0.059883494 0.38712767
0.050595153 0.059889678 0.38715702
0.050919723 0.059868921 0.38701206
0.0512508 0.059856035 0.38691801
0.05157093 0.05983061 0.38674283
0.051908854 0.059826035 0.38670239
0.052220404 0.059791319 0.38646707
0.052549534 0.059777059 0.38636386
0.052899528 0.059786551 0.38641417
0.053245816 0.059791774 0.38643679
0.053557254 0.059758034 0.38620755
0.053897955 0.059757169 0.38619071
0.054216743 0.059732169 0.38601786
0.054539401 0.059711721 0.38587436
0.054885086 0.059716586 0.38589439
0.055207152 0.059695847 0.38574889
0.055526637 0.059672587 0.38558707
0.055860419 0.059664879 0.38552567
0.056187253 0.059649888 0.38541716
0.056543797 0.059666436 0.38551238
0.056909632 0.059692528 0.3856692
0.083579928 0.058541678 0.37709129
0.083906949 0.058536422 0.3770417
0.084258579 0.058548294 0.37710235
0.084599137 0.058552422 0.37711313
0.084876411 0.058512885 0.37684262
0.085199572 0.05850517 0.37677705
0.085528858 0.058501698 0.37673873
0.085866652 0.05850406 0.37673798
0.08617492 0.058486354 0.37660798
0.086462878 0.058455057 0.3763904
0.086806923 0.058461785 0.37641761
0.087100707 0.058434729 0.37622729
0.087400675 0.058412012 0.3760649
0.087747686 0.058420796 0.37610525
0.088061839 0.058407713 0.37600479
0.088395648 0.058407716 0.37598857
0.088704787 0.058391485 0.37586781
0.088996306 0.058363818 0.37567341
0.089310683 0.058351293 0.37557641
0.089633614 0.05834442 0.37551582
0.089952044 0.058334686 0.37543672
0.0902742 0.05832744 0.37537363
0.090580128 0.058309786 0.37524357
0.090895474 0.058298308 0.37515315
0.091204099 0.058282617 0.37503564
0.091499276 0.058258478 0.37486374
0.091811396 0.058245257 0.37476209
0.092165992 0.058258995 0.37483382
0.092449993 0.058228157 0.37461877
0.092775121 0.058223367 0.3745712
0.093091868 0.058213353 0.37449005
0.093420766 0.058210984 0.3744581
0.093711503 0.058184937 0.37427375
0.094051078 0.058189295 0.37428498
0.094341241 0.058163166 0.37410003
0.094671704 0.05816197 0.37407547
0.094972022 0.058142323 0.37393221
0.095267914 0.05812012 0.3737725
0.095605217 0.058123246 0.37377563
0.095920675 0.05811312 0.37369353
0.096194141 0.058077693 0.3734487
0.096550621 0.058092471 0.37352669
0.096845984 0.058070503 0.37336838
0.097167805 0.058064491 0.37331262
0.097490564 0.058059081 0.37326071
0.09782064 0.058058042 0.37323689
0.098171934 0.058069576 0.37329385
0.098516934 0.058077309 0.37332636
0.041318409 0.060680784 0.3903048
0.041634269 0.060638681 0.39002499
0.041957404 0.060607772 0.38981718
0.042286396 0.060585767 0.3896665
0.042624317 0.060576789 0.38959965
0.042958774 0.060563084 0.38950226
0.043295458 0.060552709 0.38942623
0.043624252 0.060531545 0.38928077
0.043974269 0.060539935 0.38932529
0.044298474 0.060512923 0.38914213
0.044628285 0.060493942 0.38901049
0.044961669 0.060480054 0.38891155
0.045292597 0.060463089 0.38879284
0.045631718 0.060457233 0.38874546
0.045951337 0.060425822 0.38853368
0.046290252 0.06042007 0.38848683
0.046617549 0.060399346 0.38834366
0.046951525 0.060387511 0.38825759
0.047309786 0.060406856 0.38837191
0.047633138 0.060381666 0.3881999
0.047955669 0.060355812 0.3880235
0.048290025 0.060345087 0.38794434
0.048627667 0.060338609 0.38789237
0.048944809 0.060306955 0.38767856
0.049276046 0.060292982 0.38757834
0.049597587 0.060267422 0.38740358
0.049932614 0.060258489 0.3873356
0.050276648 0.060260475 0.3873378
0.050616313 0.060257226 0.38730627
0.050957792 0.060256157 0.38728869
0.051265486 0.060215432 0.38701618
0.051606175 0.060213741 0.38699451
0.05193821 0.060202051 0.38690844
0.052249555 0.060166672 0.38667017
0.052575015 0.060147915 0.38653862
0.052918784 0.060150202 0.38654226
0.053250872 0.060139272 0.38646087
0.053596996 0.060144231 0.38648155
0.053927209 0.060131382 0.3863878
0.054235909 0.060094863 0.38614181
0.054575358 0.060092654 0.38611627
0.054897606 0.060071651 0.38596991
0.055223137 0.060054474 0.38584808
0.055555999 0.060045432 0.38577849
0.055875607 0.060022265 0.38561806
0.05621447 0.06001994 0.38559145
0.083947316 0.058899388 0.37721205
0.08428251 0.05889973 0.37719846
0.08461789 0.058900204 0.3771857
0.084936015 0.058888715 0.37709627
0.085282281 0.05889675 0.37713182
0.085573927 0.058867149 0.37692633
0.085884899 0.058851019 0.37680706
0.086216435 0.058849052 0.37677851
0.086502619 0.058816262 0.37655252
0.086841173 0.058819193 0.3765552
0.087142624 0.058797069 0.37639749
0.087444395 0.058775332 0.37624219
0.087775484 0.058773391 0.37621355
0.088110581 0.058774136 0.37620211
0.088435397 0.058768041 0.37614685
0.088734843 0.058745202 0.37598437
0.089045726 0.058730073 0.37587124
0.08934667 0.058708526 0.37571701
0.089649923 0.058688652 0.37557346
0.089975223 0.058683291 0.37552276
0.090298638 0.058676761 0.37546453
0.09063682 0.058679845 0.37546775
0.090949975 0.058666747 0.37536746
0.09124542 0.058642369 0.37519494
0.091547132 0.058622181 0.37504923
0.09186215 0.058610629 0.37495872
0.092207156 0.058618225 0.37499067
0.092516199 0.058602981 0.3748765
0.092797354 0.058570251 0.37465042
0.093117863 0.058562506 0.37458417
0.093450859 0.058562629 0.37456819
0.093756706 0.058545813 0.37444389
0.094059929 0.05852747 0.37430975
0.094396032 0.058529649 0.37430686
0.094695121 0.05850894 0.37415755
0.095025271 0.058507502 0.37413147
0.095319197 0.058483858 0.37396333
0.095643587 0.058478996 0.37391528
0.09594655 0.058461107 0.37378398
0.09627834 0.058460854 0.37376532
0.096569449 0.058435973 0.37358925
0.096900277 0.058435228 0.37356737
0.09720999 0.058421798 0.37346444
0.097492002 0.058391862 0.37325597
0.097833127 0.058397416 0.37327436
0.098196141 0.058415949 0.37337568
0.098538093 0.058421876 0.37339634
0.098861031 0.058416527 0.37334493
0.099277943 0.05846655 0.37364736
0.041311473 0.061015416 0.3902261
0.041639961 0.060991656 0.39006516
0.04196433 0.060962301 0.38986838
0.042311117 0.060965717 0.38988113
0.042647373 0.060954031 0.38979724
0.042981237 0.060939141 0.38969278
0.043320045 0.06093144 0.38963428
0.043645721 0.060905542 0.38945928
0.043989949 0.060905728 0.38945106
0.044318292 0.060884085 0.38930318
0.044650465 0.060868002 0.38919082
0.04496989 0.060834918 0.38896966
0.045322508 0.060846895 0.38903657
0.045649841 0.060825001 0.38888687
0.045991443 0.060822304 0.38885987
0.046312049 0.060792089 0.38865682
0.046629731 0.060758501 0.3884322
0.046982821 0.060771216 0.38850349
0.047309492 0.06074981 0.3883566
0.047643207 0.060737696 0.38826904
0.04799635 0.060750343 0.38833976
0.048315361 0.060719918 0.38813505
0.048645798 0.060704175 0.38802415
0.048962895 0.060672123 0.38780892
0.049291909 0.060655188 0.38769028
0.049629617 0.060649104 0.38764092
0.049957953 0.060631733 0.38751939
0.050302505 0.060634151 0.38752422
0.050643317 0.060632043 0.38750011
0.050966632 0.060609162 0.3873432
0.051294822 0.060592342 0.38722494
0.051622842 0.060575545 0.38710678
0.051965114 0.060575593 0.3870962
0.052277688 0.060541235 0.38686571
0.052604642 0.060523871 0.38674378
0.052935537 0.060511243 0.38665196
0.053274307 0.060507715 0.38661835
0.053606458 0.060496755 0.38653713
0.053940538 0.060488101 0.38647065
0.054266941 0.060471009 0.38635013
0.054596864 0.060458027 0.38625583
0.054922625 0.060440622 0.38613325
0.055258453 0.060434446 0.38608229
0.055577271 0.060409848 0.38591367
0.055901937 0.060391866 0.38578722
0.0562611 0.060411155 0.3858988
0.084298149 0.059245531 0.37725738
0.084629409 0.059243079 0.377226
0.084976211 0.059251484 0.37726367
0.085307986 0.05924939 0.37723443
0.085629083 0.059239924 0.37715825
0.085919805 0.059209608 0.37694925
0.086237147 0.059197783 0.376858
0.086558081 0.059188522 0.37678301
0.086850613 0.059159975 0.37658525
0.087176852 0.059154522 0.3765344
0.08749336 0.059142541 0.37644199
0.087805517 0.059127703 0.37633142
0.088122591 0.059116278 0.37624252
0.088476926 0.059129853 0.37631264
0.088782847 0.059111089 0.37617695
0.089099102 0.059099317 0.37608573
0.089373156 0.059059747 0.3758176
0.089692079 0.059050009 0.37573925
0.090040855 0.059059929 0.37578598
0.090347677 0.059042353 0.37565774
0.090636373 0.059013106 0.37545517
0.09096057 0.059007108 0.37540051
0.091285624 0.059001703 0.37534958
0.09158425 0.058979314 0.37519062
0.091917098 0.058979057 0.37517238
0.092256799 0.058983169 0.37518191
0.092541285 0.058952086 0.37496755
0.092845507 0.058933746 0.37483424
0.09315192 0.058916934 0.37471056
0.093484625 0.058916803 0.37469304
0.093797632 0.058904305 0.37459674
0.094079532 0.058872424 0.37437722
0.09446051 0.058902562 0.37455204
0.09472762 0.058861736 0.37427554
0.095039062 0.058848627 0.37417531
0.095359847 0.058841385 0.37411237
0.095693946 0.05884238 0.37410176
0.09599714 0.058824427 0.37397063
0.096294716 0.058803167 0.37381852
0.096627228 0.058803312 0.37380242
0.096938513 0.058790591 0.37370449
0.097247384 0.05877649 0.37359777
0.097565942 0.058768321 0.37352878
0.097890444 0.058763769 0.37348273
0.098224051 0.058764707 0.37347153
0.098553427 0.05876312 0.37344426
0.098945342 0.058798689 0.37365308
0.041650228 0.061351459 0.39014807
0.041984025 0.061335586 0.3900381
0.042326342 0.061332319 0.39000824
0.042662282 0.061319932 0.38992032
0.042999789 0.06130999 0.38984787
0.0433373 0.061300192 0.38977632
0.043678075 0.061295148 0.38973483
0.044004515 0.061270215 0.3895669
0.044342075 0.061261021 0.38949898
0.044677455 0.061248999 0.389413
0.044996485 0.061214905 0.38918665
0.045343015 0.061218448 0.38919953
0.045680247 0.0612095 0.38913289
0.046010125 0.061190888 0.38900477
0.046324678 0.06115232 0.38874975
0.046669554 0.061154068 0.38875094
0.047002923 0.061140809 0.38865668
0.047340777 0.061133541 0.38860044
0.047664341 0.061108056 0.38842833
0.048010398 0.061111562 0.38844049
0.048331451 0.061083417 0.38825136
0.048685495 0.061097063 0.38832784
0.048997544 0.061058205 0.38807049
0.049317952 0.061030213 0.3878822
0.049646124 0.061012156 0.38775703
0.050003376 0.061029844 0.38785887
0.050317284 0.060994741 0.38762522
0.050653134 0.060986534 0.38756239
0.050984897 0.06097354 0.38746917
0.051322099 0.060967185 0.38741803
0.051641069 0.060939405 0.38723069
0.051973533 0.060927816 0.38714615
0.05230679 0.060917284 0.38706833
0.052635938 0.060902145 0.38696113
0.052965496 0.060887676 0.38685814
0.05333025 0.060913581 0.38701162
0.053631123 0.060866665 0.38670233
0.053970136 0.060863346 0.38667005
0.054294661 0.060843844 0.38653484
0.054621927 0.060827632 0.38642052
0.05493414 0.060794957 0.38620156
0.055273175 0.060792189 0.3861725
0.055613529 0.0607909 0.3861528
0.055949498 0.060784861 0.38610289
0.056293324 0.06078738 0.38610724
0.056690689 0.060847335 0.38647634
0.084651843 0.059593726 0.37731484
0.084993973 0.059598852 0.37733147
0.085315421 0.059589483 0.37725624
0.085632093 0.059576862 0.37716046
0.085954309 0.059568178 0.37708953
0.086270936 0.059555717 0.37699467
0.086586446 0.059542567 0.37689546
0.086886026 0.059518617 0.37672776
0.08720053 0.059505034 0.37662572
0.087538712 0.059507649 0.37662613
0.087836593 0.059482951 0.37645367
0.088164568 0.059478741 0.37641084
0.088489555 0.059472557 0.37635547
0.088810831 0.059463933 0.37628463
0.089142159 0.059462082 0.37625661
0.089459166 0.059450727 0.37616843
0.089752376 0.0594237 0.37598106
0.090083934 0.059422161 0.37595496
0.090389736 0.059403714 0.37582177
0.090695456 0.059385348 0.37568915
0.091011047 0.059373558 0.37559807
0.091353744 0.059379466 0.37561893
0.09160991 0.059329297 0.375285
0.091950931 0.059334252 0.37529975
0.092261739 0.059319731 0.37519133
0.092584558 0.059313022 0.37513223
0.092895374 0.059298694 0.37502494
0.093228087 0.059298392 0.37500635
0.093524441 0.059275053 0.37484202
0.093822747 0.059253108 0.37468645
0.094132349 0.059238434 0.3745769
0.094486073 0.059251528 0.37464288
0.094785757 0.059230756 0.3744947
0.095070191 0.059200637 0.3742874
0.095406473 0.059202898 0.3742848
0.095723405 0.059193186 0.37420645
0.09603098 0.059177767 0.37409204
0.096352853 0.059171233 0.37403375
0.096658878 0.059155054 0.37391445
0.096995942 0.059157908 0.37391546
0.097295791 0.059138138 0.3737734
0.097620115 0.05913331 0.37372583
0.097939625 0.059125613 0.37366006
0.098273031 0.05912634 0.37364748
0.098610647 0.05912957 0.37365076
0.098954856 0.059136722 0.37367874
0.099301025 0.059144996 0.37371376
0.099650323 0.059155073 0.37376019
0.041389812 0.061822064 0.39093947
0.041669372 0.061724581 0.39031413
0.042020101 0.061733264 0.39035997
0.042347938 0.061708447 0.39019394
0.042690232 0.061704922 0.3901625
0.043020338 0.061683983 0.39002088
0.043362986 0.061681218 0.38999411
0.043690704 0.061657421 0.38983431
0.044012129 0.061625194 0.38962114
0.044360768 0.061631262 0.38965002
0.044699997 0.061624262 0.38959625
0.045042414 0.061621748 0.38957074
0.045357842 0.061582606 0.38931367
0.045702122 0.061582949 0.38930607
0.046028811 0.061559748 0.38914967
0.046363384 0.061547365 0.38906148
0.046680029 0.061511539 0.38882512
0.047023918 0.061511867 0.38881722
0.047359709 0.061501674 0.38874277
0.047694989 0.061490979 0.38866508
0.048034105 0.061485343 0.3886193
0.048376925 0.061484486 0.38860366
0.048694376 0.061451629 0.38838571
0.049017366 0.06142617 0.3882145
0.049341775 0.061402846 0.38805667
0.049675144 0.061390899 0.38797075
0.050010432 0.061381478 0.38790065
0.050344527 0.061370727 0.38782218
0.050677564 0.061358843 0.38773641
0.050999288 0.061333511 0.38756567
0.051343698 0.06133562 0.38756824
0.051666997 0.061312653 0.38741225
0.052014135 0.061318081 0.3874357
0.052340034 0.061298564 0.38730147
0.052664727 0.061277907 0.38715997
0.052982155 0.061249111 0.38696697
0.053322311 0.061246797 0.38694125
0.053652313 0.06123291 0.38684237
0.053976469 0.061212581 0.38670269
0.054331202 0.061226964 0.38678226
0.05464936 0.061200198 0.38660187
0.054983053 0.061191063 0.38653278
0.05530297 0.061166797 0.38636804
0.055646744 0.061169051 0.38637075
0.055987321 0.061167799 0.38635126
0.056332536 0.061171584 0.38636357
0.084683903 0.059951358 0.37744656
0.085015103 0.05994872 0.37741414
0.085364476 0.059958853 0.37746203
0.085667163 0.059936244 0.37730381
0.085980266 0.059921063 0.37719232
0.086316705 0.059922215 0.37718356
0.08661586 0.059897568 0.37701243
0.086968407 0.059909888 0.37707391
0.087227859 0.059858233 0.37673274
0.087569743 0.059863321 0.37674862
0.087885998 0.05985092 0.37665445
0.088225633 0.05985447 0.37666059
0.088533022 0.059836201 0.3765294
0.088866517 0.059835643 0.37650964
0.089166954 0.059812918 0.37635034
0.089498967 0.059811462 0.37632489
0.089804314 0.059792265 0.37618774
0.090108857 0.059772678 0.37604809
0.090407148 0.059749097 0.37588337
0.090750813 0.059755575 0.37590766
0.091088563 0.059758119 0.37590715
0.091381527 0.059731372 0.37572241
0.091646612 0.059686661 0.37542462
0.092005096 0.059702881 0.37551007
0.092310801 0.059684861 0.37538013
0.09261892 0.059668526 0.37526074
0.092927173 0.059652388 0.3751426
0.09325891 0.059651397 0.37511966
0.093564235 0.059633568 0.37499082
0.093867429 0.059614517 0.3748543
0.094177142 0.059599724 0.3747445
0.094503708 0.059595674 0.37470222
0.094854496 0.059606865 0.37475574
0.095143788 0.059579462 0.37456658
0.095475443 0.059578691 0.37454483
0.095757581 0.05954713 0.37432954
0.096106395 0.059557114 0.37437531
0.09639059 0.059527114 0.37416977
0.096706338 0.059516743 0.37408757
0.097008921 0.059498366 0.37395507
0.097338922 0.059496883 0.37392867
0.097650424 0.059484135 0.37383148
0.097977944 0.059481196 0.3737959
0.098272882 0.059458561 0.37363654
0.098648898 0.059484974 0.37378535
0.098958507 0.059471298 0.37368223
0.099314228 0.059485324 0.37375313
0.041391961 0.062170751 0.39094636
0.041679885 0.062085167 0.39039922
0.04203292 0.062097181 0.39046574
0.042371757 0.062088188 0.39040008
0.042714458 0.062084958 0.39037061
0.043035861 0.062051069 0.39014831
0.043368518 0.062033817 0.39003059
0.0437093 0.062028367 0.38998693
0.044033319 0.061999392 0.38979542
0.044385202 0.0620098 0.38985139
0.044703901 0.061974052 0.38961706
0.045051388 0.061978444 0.38963512
0.045385066 0.061963916 0.38953412
0.045725957 0.06195939 0.38949591
0.046063151 0.061949953 0.38942683
0.046384517 0.061919522 0.38922569
0.04670842 0.061892901 0.38904846
0.047041722 0.061879031 0.3889513
0.047379851 0.061871674 0.388895
0.047709081 0.061852876 0.3887668
0.048045401 0.061843481 0.38869756
0.048375748 0.061826576 0.38858116
0.048727151 0.061836638 0.38863409
0.049059685 0.061822776 0.38853663
0.049371302 0.061782934 0.38827586
0.049707886 0.061774667 0.38821343
0.050037134 0.06175746 0.38809481
0.050354626 0.061726075 0.387887
0.050695583 0.061723683 0.38786134
0.051033799 0.061718009 0.387815
0.051377028 0.061718434 0.38780692
0.051705025 0.061700672 0.38768452
0.05202572 0.061674487 0.38750911
0.052360505 0.061665244 0.38744009
0.052681286 0.06163973 0.38726881
0.053015292 0.061629921 0.38719615
0.053348761 0.061619621 0.38712034
0.053681515 0.061608627 0.38704011
0.054021742 0.061606299 0.38701424
0.054338053 0.061576895 0.38681826
0.054669902 0.061565354 0.38673443
0.054993745 0.061544999 0.38659516
0.055321671 0.061529431 0.38648593
0.055667389 0.061533723 0.3865014
0.056024004 0.061549939 0.38659167
0.085024022 0.060290094 0.37744251
0.085387602 0.060310297 0.37755308
0.08571595 0.060305551 0.37750748
0.086024538 0.060286995 0.37737539
0.086359397 0.060286917 0.37735897
0.086653501 0.060258508 0.37716514
0.087011106 0.060274303 0.37724796
0.087288052 0.060234316 0.37698159
0.087637037 0.060244158 0.37702709
0.087939627 0.060222149 0.3768732
0.088259511 0.060212109 0.37679419
0.088553548 0.060184579 0.37660569
0.088880517 0.060179543 0.37655795
0.089194059 0.060165498 0.37645379
0.089518517 0.06015889 0.37639612
0.089835435 0.060147282 0.37630716
0.09014532 0.060131073 0.37618935
0.090469629 0.060124565 0.37613222
0.090777591 0.06010728 0.37600765
0.091080658 0.060086895 0.37586367
0.091416396 0.060088132 0.37585491
0.091754712 0.060091048 0.37585664
0.092015259 0.060043193 0.37554073
0.092358537 0.060049478 0.37556344
0.09264975 0.060021989 0.37537491
0.092975698 0.06001712 0.3753278
0.09333051 0.060030844 0.37539694
0.093616843 0.060000584 0.37519097
0.093920611 0.059981674 0.375056
0.094238639 0.05997197 0.37497854
0.094557121 0.059962623 0.37490332
0.094883911 0.059958596 0.3748613
0.095170848 0.059929498 0.37466252
0.095473394 0.059910398 0.37452623
0.095793217 0.059902228 0.37445828
0.096087441 0.059878174 0.37429094
0.096450359 0.059896935 0.37439126
0.096763879 0.059885003 0.37429968
0.097060457 0.059862696 0.37414324
0.097374685 0.059851393 0.37405556
0.097690903 0.059841387 0.37397599
0.098009676 0.059833013 0.37390652
0.09833125 0.059826393 0.37384805
0.098645493 0.059815373 0.37376201
0.099005505 0.059832089 0.3738493
0.099317931 0.059820026 0.37375674
0.041395091 0.062520966 0.39096245
0.041702274 0.062463716 0.3905955
0.042059161 0.062481239 0.39069605
0.042390559 0.062460922 0.39055991
0.04272509 0.062445499 0.39045435
0.043060515 0.062431633 0.39035842
0.043384232 0.062401146 0.3901585
0.043739922 0.062416758 0.39024681
0.044051103 0.062369104 0.38993949
0.044399776 0.062374882 0.3899661
0.044729881 0.062354662 0.38983017
0.04506585 0.062342871 0.38974687
0.045401946 0.062331434 0.38966575
0.045739133 0.062321659 0.38959488
0.046069857 0.062303282 0.38947025
0.046394419 0.062276915 0.38929555
0.046728861 0.062264089 0.38920549
0.047062948 0.06225099 0.38911363
0.047405239 0.062248845 0.38909021
0.047726732 0.062219616 0.38889745
0.048059173 0.062204991 0.38879588
0.048392404 0.062191568 0.3887018
0.048735965 0.062191531 0.38869128
0.049079362 0.062191274 0.38867936
0.049391471 0.062151663 0.38842139
0.049717713 0.062130246 0.38827714
0.050057426 0.06212585 0.38823915
0.050400641 0.062125824 0.38822842
0.050739106 0.062119987 0.3881813
0.051050369 0.062081147 0.38792792
0.051406708 0.062097277 0.38801795
0.051737089 0.062082034 0.38791189
0.052054372 0.062051393 0.38770956
0.052371025 0.062020406 0.38750499
0.052707296 0.062012892 0.38744712
0.053037658 0.061998572 0.38734663
0.053366464 0.061982624 0.38723588
0.053698976 0.061971162 0.38715312
0.054037988 0.061967298 0.38711774
0.054371152 0.061956823 0.387041
0.054687705 0.061927661 0.38684753
0.055032231 0.061930336 0.38685286
0.055355605 0.061909329 0.3867102
0.055713609 0.061927065 0.38680947
0.056069285 0.061942019 0.38689134
0.056434464 0.061967228 0.38703713
0.085097514 0.060677581 0.37775746
0.085415743 0.060665477 0.37766626
0.085730448 0.060650978 0.37756008
0.08611314 0.060684502 0.37775284
0.086410277 0.060657706 0.37757009
0.086702399 0.060627613 0.37736678
0.087038256 0.060628213 0.3773545
0.087355062 0.060615592 0.37725985
0.087639816 0.060580913 0.37702793
0.087971404 0.060578749 0.37699831
0.088303849 0.06057718 0.37697238
0.088637054 0.060576145 0.37694973
0.088945776 0.060558453 0.3768234
0.089196399 0.060501471 0.37645259
0.0895558 0.060518444 0.37654191
0.089879043 0.060510937 0.37647885
0.090179078 0.060487922 0.37631929
0.090512447 0.060487345 0.37629929
0.090834543 0.060479268 0.37623259
0.091137603 0.06045863 0.37608775
0.091454156 0.060447056 0.37599927
0.091766007 0.060432468 0.37589198
0.09210746 0.060437411 0.3759062
0.092361569 0.060385216 0.37556496
0.092714623 0.060397845 0.37562689
0.093028374 0.060384881 0.37552959
0.093336023 0.060368057 0.37540832
0.093632899 0.060344413 0.37524456
0.093979895 0.060353119 0.37528199
0.094286874 0.060336158 0.37515977
0.094593532 0.060319111 0.37503698
0.094909072 0.060307827 0.37495002
0.095241398 0.060307249 0.37492955
0.095560625 0.060298424 0.37485778
0.095830195 0.060258407 0.37459216
0.096141152 0.060244627 0.37448958
0.096478872 0.060247649 0.37449139
0.096816599 0.060250647 0.37449303
0.097074725 0.060204256 0.37418771
0.097416364 0.060209814 0.3742052
0.097756125 0.060214166 0.37421519
0.098043531 0.060186345 0.3740252
0.098381534 0.060189664 0.37402871
0.098676763 0.060166892 0.37387007
0.099002957 0.060163084 0.37382925
0.099395089 0.060199242 0.3740367
0.041430861 0.062920801 0.39128676
0.041725118 0.0628433 0.39079589
0.042074852 0.062849961 0.39082831
0.042411324 0.062836863 0.39073774
0.042751413 0.062829278 0.39068142
0.043086573 0.062814638 0.39058122
0.043403357 0.06277366 0.39031711
0.043747198 0.062772132 0.39029828
0.04408088 0.062756173 0.39018968
0.044415526 0.062741838 0.39009103
0.044753563 0.062732451 0.3900232
0.045082863 0.062711075 0.38988069
0.045422371 0.062704101 0.38982767
0.045762729 0.062698402 0.38978252
0.046110455 0.062702805 0.38980013
0.046412606 0.062645629 0.38943484
0.046774764 0.062669694 0.38957456
0.047076061 0.062612459 0.38920879
0.04742194 0.062614918 0.38921404
0.047755636 0.062601373 0.38911977
0.048081525 0.062577851 0.38896343
0.048416633 0.062566586 0.38888323
0.048743166 0.062544473 0.38873553
0.049080748 0.062536754 0.38867718
0.049419843 0.062531039 0.38863131
0.049746457 0.06250973 0.38848847
0.050075345 0.062491551 0.38836497
0.050411701 0.062482879 0.38830051
0.05074697 0.062472988 0.38822839
0.051082395 0.062463406 0.38815817
0.051425204 0.062462937 0.38814449
0.051749691 0.062440347 0.38799334
0.052092787 0.062440377 0.38798267
0.052410185 0.062409796 0.38778174
0.052735418 0.062388878 0.38764077
0.053065885 0.062374394 0.38753977
0.053395875 0.06235953 0.3874363
0.05372395 0.062342644 0.38732022
0.054045644 0.062318597 0.38715965
0.054398447 0.062330514 0.38722238
0.054720294 0.062307023 0.38706511
0.055055756 0.062299233 0.38700533
0.055393714 0.062294342 0.38696355
0.055740528 0.062299415 0.38698354
0.056095563 0.062313549 0.38705978
0.085451163 0.061026081 0.37781155
0.085788026 0.061027169 0.37780237
0.086103581 0.06101314 0.37769964
0.086430572 0.061007302 0.37764755
0.086756565 0.061000794 0.37759128
0.087081082 0.060993321 0.37752897
0.087390363 0.060975257 0.37740111
0.087704524 0.060960725 0.37729508
0.088024192 0.060950126 0.37721336
0.088359617 0.060950469 0.37719932
0.088682935 0.060942493 0.37713373
0.088982448 0.060918279 0.37696764
0.089266904 0.060883973 0.37673911
0.089580998 0.060870066 0.37663677
0.089906238 0.060863804 0.3765817
0.090226553 0.060854267 0.37650636
0.090531841 0.060834698 0.37636891
0.090858229 0.060829416 0.37631977
0.091211028 0.060841776 0.37637979
0.091503523 0.060813971 0.37619129
0.091834486 0.06081184 0.37616161
0.092154846 0.060802735 0.37608868
0.09242624 0.060761489 0.37581703
0.092745088 0.060751639 0.37573949
0.09306822 0.060744651 0.37567961
0.093374901 0.060727011 0.37555388
0.093697712 0.060719948 0.3754935
0.094011396 0.060707059 0.37539703
0.094331004 0.060698044 0.37532455
0.094621301 0.060670316 0.37513632
0.094964854 0.060676806 0.37515965
0.095267132 0.060656976 0.37502021
0.095610783 0.060663525 0.37504381
0.095879935 0.060622927 0.37477598
0.096187152 0.060606603 0.37465808
0.096541986 0.060620282 0.3747257
0.096861705 0.060611885 0.37465686
0.097139396 0.060577359 0.37442642
0.097440809 0.060557801 0.3742885
0.097765684 0.060552903 0.3742412
0.098099917 0.060553819 0.37422976
0.098424412 0.06054873 0.37418124
0.098726951 0.060530219 0.37404975
0.099072196 0.060537938 0.37408027
0.099422693 0.060548786 0.37413013
0.041437831 0.063277245 0.391339
0.041751824 0.063229136 0.39103246
0.042098485 0.06323088 0.39103425
0.0424264 0.063204668 0.39086306
0.042775352 0.063209966 0.39088669
0.043114461 0.063200742 0.39082047
0.043429151 0.063156165 0.39053553
0.043770637 0.06315095 0.39049393
0.044099946 0.063128375 0.39034498
0.04444319 0.063125953 0.39032054
0.044790868 0.063129812 0.39033487
0.04510786 0.063090704 0.39008343
0.045438647 0.063071318 0.38995394
0.045776259 0.063061632 0.38988438
0.046112377 0.063050054 0.38980302
0.046440061 0.063027196 0.38965186
0.046776269 0.063016161 0.38957372
0.047112402 0.063005172 0.38949588
0.0474362 0.062977985 0.38931775
0.047768626 0.062962562 0.38921231
0.04810616 0.062954023 0.38914946
0.048432078 0.062930532 0.38899401
0.048796367 0.062956862 0.38914651
0.049104415 0.06291078 0.38885137
0.049447916 0.062910445 0.38883889
0.049770083 0.062883146 0.38865975
0.05011024 0.06287881 0.38862243
0.050447449 0.062870845 0.38856265
0.050760861 0.06283354 0.38832149
0.051090777 0.06281703 0.38820875
0.051442038 0.062826805 0.38825843
0.051773608 0.062812552 0.38815957
0.052115668 0.062811144 0.38813999
0.052412055 0.062755056 0.38778248
0.05275812 0.062758803 0.38779464
0.053089965 0.062745675 0.38770255
0.053417377 0.062727533 0.38757932
0.053746354 0.062711433 0.38746873
0.054093488 0.062716588 0.38748938
0.054421924 0.062700152 0.38737652
0.054768458 0.062704623 0.38739282
0.055078559 0.062667593 0.38715267
0.055426642 0.062673971 0.38718063
0.085483938 0.061385065 0.3779451
0.085804291 0.061374251 0.37786266
0.086132199 0.061368912 0.37781388
0.086469136 0.061370019 0.37780476
0.08679983 0.061366692 0.37776828
0.087107621 0.061347276 0.37763271
0.087439254 0.061344728 0.37760103
0.087723069 0.061308779 0.37736365
0.08808662 0.061328616 0.3774696
0.088361651 0.061286908 0.37719679
0.088670261 0.061268717 0.37706864
0.088987917 0.061256893 0.37697965
0.08934366 0.061271284 0.37705192
0.089635506 0.061241902 0.37685484
0.089963846 0.061237566 0.37681186
0.090257011 0.061209422 0.37662235
0.090587348 0.061206609 0.37658861
0.090886578 0.061182864 0.37642616
0.091214754 0.061178707 0.37638408
0.091545388 0.061176233 0.3763524
0.091855183 0.061159894 0.3762354
0.092159331 0.061139926 0.37609601
0.09246777 0.061122939 0.37597495
0.092775762 0.061105784 0.37585285
0.093097217 0.061097581 0.37578574
0.093427561 0.061095253 0.37575477
0.093731657 0.061075836 0.3756187
0.09407226 0.061080266 0.37562919
0.094346173 0.061041512 0.37537411
0.094650075 0.061022364 0.37523958
0.095010765 0.061039839 0.37533027
0.095317952 0.06102293 0.37520948
0.095636159 0.061013184 0.37513265
0.09595672 0.061004985 0.37506539
0.096282355 0.06100006 0.37501821
0.096572958 0.060973059 0.37483525
0.096906297 0.060973126 0.37481868
0.097172253 0.060930945 0.37454242
0.097489029 0.060920812 0.37446311
0.097821943 0.06092079 0.37444595
0.098118395 0.06089814 0.37428966
0.098459683 0.060903382 0.37430477
0.098802507 0.060909528 0.37432545
0.099133 0.060908061 0.37429932
0.099445254 0.060895432 0.37420452
0.041453775 0.063647576 0.39147583
0.041765276 0.063595213 0.39114481
0.042105593 0.063587219 0.39108664
0.042453554 0.063590802 0.39109957
0.042798541 0.063589916 0.391085
0.043124296 0.063560687 0.39089599
0.043452509 0.063535519 0.39073196
0.043800179 0.063538976 0.39074391
0.044135664 0.063524842 0.39064759
0.04446362 0.063500166 0.39048639
0.044814404 0.063508227 0.39052641
0.045139115 0.063479498 0.39034018
0.045466561 0.063455023 0.39018002
0.04580212 0.063442148 0.39009118
0.046128385 0.06341669 0.38992485
0.046469878 0.063412391 0.38988861
0.046801027 0.063394137 0.38976648
0.047145408 0.063393958 0.3897554
0.047459282 0.063353039 0.38949382
0.047805373 0.063355409 0.38949835
0.048130561 0.063330248 0.38933349
0.048472833 0.063327752 0.38930798
0.048809603 0.063318163 0.38923877
0.049130321 0.063288033 0.38904321
0.049464896 0.063276038 0.38895911
0.049790654 0.063253008 0.38880712
0.050114192 0.063227497 0.38863981
0.050460503 0.063230872 0.38865
0.050794069 0.063218325 0.38856229
0.051119696 0.063196145 0.38841528
0.051452439 0.063182995 0.38832372
0.051797353 0.063184865 0.38832441
0.052123237 0.063163646 0.38818318
0.052462552 0.063158877 0.38814294
0.052780461 0.063128568 0.38794571
0.053127188 0.063132897 0.3879613
0.053450231 0.063109204 0.3878046
0.053774815 0.06308762 0.38766083
0.054111678 0.063080624 0.38760662
0.054439005 0.06306266 0.38748503
0.054794144 0.063076943 0.38756147
0.055119511 0.063056998 0.38742748
0.05546065 0.063055217 0.38740516
0.085515752 0.061743613 0.37807438
0.085833311 0.061730642 0.37797907
0.086171336 0.061732437 0.37797415
0.086500473 0.06172787 0.37793025
0.086808138 0.061708074 0.3777931
0.087145559 0.061709508 0.37778586
0.087469392 0.061701335 0.37771982
0.087781832 0.061685227 0.37760511
0.088120222 0.061687414 0.37760237
0.088413566 0.061658159 0.37740713
0.088733569 0.061647646 0.37732664
0.089055292 0.0616384 0.37725383
0.089382559 0.061633054 0.37720487
0.089685194 0.061610829 0.37705255
0.089997247 0.061595198 0.37694061
0.090291783 0.061567757 0.37675631
0.090601265 0.061550658 0.37663534
0.090930469 0.061547037 0.37659678
0.091224626 0.06151982 0.37641379
0.091558948 0.061519776 0.37639707
0.091891438 0.061518509 0.37637284
0.092201874 0.061502539 0.37625858
0.092523687 0.06149425 0.37619132
0.092849076 0.061488383 0.37613884
0.09317667 0.061484024 0.37609553
0.093424469 0.061427217 0.37573138
0.093765341 0.061431792 0.37574273
0.094114073 0.061441474 0.37578526
0.09441103 0.061417408 0.37562132
0.094738387 0.061413206 0.37557885
0.09504427 0.061395172 0.37545174
0.095339529 0.061370421 0.3752836
0.095641971 0.061350446 0.3751446
0.095990494 0.061360076 0.37518662
0.096312389 0.06135267 0.37512442
0.096611135 0.061330616 0.3749727
0.096928962 0.061320789 0.37489563
0.097243644 0.061309051 0.37480688
0.097572245 0.06130613 0.37477204
0.097845681 0.061268695 0.37452614
0.098172404 0.061264761 0.37448505
0.098486401 0.061252944 0.37439576
0.09882386 0.061255746 0.37439579
0.0991662 0.061261546 0.37441409
0.0994794 0.06124936 0.37432244
0.099854156 0.061275031 0.37446216
0.041167792 0.06408684 0.39204153
0.041460674 0.064004228 0.3915273
0.04179243 0.063982494 0.39138538
0.042125501 0.063963108 0.39125782
0.042465419 0.063954361 0.39119521
0.042798724 0.063935868 0.39107296
0.043129269 0.063913576 0.39092746
0.043475471 0.063914664 0.39092484
0.04380561 0.063892297 0.39077872
0.044155888 0.063899443 0.39081299
0.044486318 0.063877955 0.39067212
0.044814292 0.063853316 0.3905119
0.045153145 0.063844427 0.39044797
0.045492519 0.063836403 0.39038926
0.045821078 0.063813441 0.39023915
0.046155233 0.063798554 0.3901383
0.046485629 0.063778728 0.39000726
0.046826027 0.063772812 0.38996121
0.047150221 0.063745081 0.38978168
0.0474905 0.063739337 0.38973656
0.04782629 0.063727707 0.38965532
0.048151556 0.063702308 0.38948992
0.048484627 0.063687518 0.38938931
0.048827756 0.063686058 0.38937014
0.049170308 0.063683875 0.38934648
0.049492907 0.063656054 0.38916603
0.049840029 0.063659936 0.38917935
0.050152946 0.063620381 0.38892704
0.050503127 0.063628308 0.38896492
0.050816108 0.063589588 0.38871759
0.051158287 0.063587673 0.38869521
0.051481772 0.063562699 0.38853183
0.051813472 0.063548133 0.38843203
0.052140761 0.063528381 0.38830045
0.052490577 0.06353616 0.38833708
0.052822996 0.063522913 0.38824511
0.053140655 0.063492209 0.38804641
0.053478118 0.063485399 0.38799378
0.053794015 0.063453242 0.38778606
0.054128412 0.063443169 0.38771331
0.05446637 0.06343738 0.38766667
0.054806206 0.063433826 0.38763368
0.055145457 0.063429654 0.38759682
0.055518355 0.063463986 0.38779518
0.08589077 0.062107813 0.37822062
0.086191833 0.062082831 0.37805262
0.08651793 0.06207601 0.3779951
0.086864814 0.06208409 0.37802839
0.087168448 0.062061321 0.37787372
0.087490231 0.062051591 0.37779847
0.087832883 0.062056683 0.3778134
0.088134639 0.062032953 0.37765279
0.088470578 0.06203337 0.37763923
0.088760428 0.062001586 0.37742957
0.089070149 0.061983876 0.37730554
0.089421175 0.061994925 0.37735656
0.089724399 0.061972883 0.37720612
0.090040848 0.061960101 0.37711203
0.090371735 0.061957318 0.37707874
0.09065906 0.061924797 0.37686443
0.090959817 0.061901651 0.37670723
0.091286838 0.061896481 0.37665933
0.091602102 0.06188342 0.37656337
0.091944411 0.061888646 0.37657872
0.092213377 0.061844651 0.37629449
0.092550106 0.061846253 0.3762877
0.092862591 0.061831698 0.37618256
0.093189724 0.06182697 0.37613717
0.093481801 0.061799098 0.37595099
0.093800679 0.061789077 0.37587339
0.09412536 0.061782941 0.37581933
0.094446652 0.06177463 0.37575206
0.094781205 0.061775021 0.3757377
0.095105812 0.061768949 0.37568396
0.09534999 0.061710864 0.37531391
0.095676661 0.061706387 0.37526983
0.096018054 0.061711408 0.37528348
0.096346475 0.061708082 0.37524641
0.096672453 0.06170322 0.37519991
0.096977338 0.06168497 0.375072
0.097300924 0.061678704 0.3750169
0.097621091 0.061670318 0.37494895
