# .PCD v0.7 - Point Cloud Data file format
VERSION 0.7
FIELDS x y z
SIZE 4 4 4
TYPE F F F
COUNT 1 1 1
WIDTH 1335
HEIGHT 1
VIEWPOINT 0 0 0 1 0 0 0
POINTS 1335
DATA ascii
-0.045092683 0.068360038 0.34164923
-0.044781744 0.068346903 0.34159175
-0.044454921 0.068309173 0.34141132
-0.044156801 0.068315335 0.34145018
-0.043844189 0.068299003 0.34137657
-0.043513026 0.068253353 0.34115639
-0.043201625 0.068238288 0.34108898
-0.042895611 0.068231583 0.34106329
-0.042567153 0.068188809 0.34085733
-0.042246521 0.068158068 0.34071136
-0.041939314 0.068148687 0.34067222
-0.04161479 0.068110839 0.34049064
-0.04129922 0.068087213 0.34038007
-0.040984366 0.068064414 0.34027362
-0.040696435 0.068086319 0.34039059
-0.040361334 0.068029054 0.3401117
-0.040038183 0.067991219 0.33992994
-0.039729562 0.067977667 0.33986947
-0.039429981 0.067979507 0.33988592
-0.039114114 0.06795308 0.33976096
-0.038815022 0.067955606 0.33978072
-0.038502887 0.067935169 0.33968562
-0.038181953 0.067898758 0.33951059
-0.03787588 0.067888401 0.3394658
-0.037574235 0.067885891 0.33946013
-0.037244882 0.067832865 0.33920184
-0.036938962 0.067822017 0.33915439
-0.036632087 0.067809217 0.33909714
-0.036314588 0.067776367 0.33893958
-0.03601538 0.06777741 0.33895141
-0.035701871 0.067751326 0.33882755
-0.035361908 0.067674182 0.33844826
-0.035064083 0.067677051 0.33846903
-0.034752242 0.067652673 0.33835354
-0.034445278 0.067637458 0.33828378
-0.034144353 0.067633934 0.33827245
-0.033833068 0.067609653 0.33815724
-0.033524659 0.067590728 0.33806878
-0.033218272 0.067575589 0.33799917
-0.03292026 0.067577362 0.3380141
-0.032620877 0.067576326 0.33801493
-0.032321792 0.067575894 0.33801875
-0.032028545 0.067587778 0.3380841
-0.031731691 0.067592204 0.33811209
-0.031434 0.067594908 0.3381314
-0.031144017 0.067614421 0.33823472
-0.030859446 0.067646138 0.33839914
-0.03056608 0.067659043 0.33846927
-0.011180424 0.066278063 0.33179656
-0.01088501 0.066264376 0.33172986
-0.010586269 0.066229112 0.33155513
-0.010287646 0.066192612 0.33137405
-0.0099863708 0.066136405 0.33109429
-0.0096825724 0.066059597 0.33071133
-0.0093891863 0.066051245 0.33067107
-0.0090937633 0.066027597 0.3305541
-0.0087991105 0.066008143 0.3304581
-0.0085035544 0.065980345 0.3303203
-0.008211799 0.065981127 0.33032548
-0.0079168733 0.065955542 0.33019865
-0.0076196971 0.065908544 0.32996449
-0.0073276884 0.065904289 0.32994428
-0.0070340415 0.065884337 0.32984543
-0.0067415177 0.065873638 0.32979286
-0.0064481683 0.065853544 0.32969317
-0.0061568203 0.065852955 0.32969111
-0.0058628991 0.065823436 0.3295441
-0.0055697411 0.06579984 0.32942674
-0.0052793631 0.065808304 0.32946977
-0.0049862149 0.065781213 0.32933477
-0.004695429 0.065783866 0.32934862
-0.0044039763 0.065776914 0.32931435
-0.0041153897 0.06581483 0.32950461
-0.0038250163 0.065827757 0.32956973
-0.0035365294 0.065877974 0.32982147
-0.00032875378 0.065420508 0.32753095
-3.9369253e-05 0.065422177 0.32753894
0.00025002289 0.065421879 0.32753703
0.00053939287 0.065419175 0.32752299
0.00082879671 0.065421 0.32753155
0.0011176086 0.065387219 0.32736188
0.001407136 0.065400578 0.32742807
0.0016948836 0.065340742 0.32712781
0.0019839397 0.065341435 0.3271305
0.0022720993 0.065316163 0.32700312
0.0025604838 0.06530232 0.32693297
0.0028495614 0.065307178 0.32695627
0.0031374649 0.065286674 0.32685265
0.0034267923 0.065296777 0.32690212
0.003714479 0.065276451 0.32679924
0.0040016584 0.065250792 0.3266696
0.0042860745 0.065186545 0.32634676
0.0045739356 0.065179482 0.3263101
0.0048619932 0.065175898 0.32629079
0.0051506134 0.065179825 0.32630903
0.0054375157 0.065162748 0.32622203
0.0057280869 0.065189138 0.32635263
0.0060182447 0.06520851 0.32644802
-0.047638256 0.06884627 0.34248227
-0.047327243 0.068834804 0.34243384
-0.047023676 0.068834089 0.34243888
-0.046693821 0.068794645 0.34225109
-0.046395887 0.068802014 0.34229624
-0.046074543 0.068774559 0.342168
-0.045737427 0.068723015 0.34191993
-0.045439258 0.068729714 0.34196147
-0.045125458 0.068712689 0.34188506
-0.04480879 0.068691052 0.34178555
-0.044478513 0.068648107 0.34158
-0.04417498 0.068646133 0.34157825
-0.043846775 0.068605535 0.34138423
-0.043530297 0.068582855 0.34127933
-0.043242466 0.068605304 0.34139892
-0.04290884 0.068554901 0.34115598
-0.042597737 0.068540022 0.34108973
-0.042282421 0.06851811 0.34098843
-0.041971833 0.068503596 0.34092385
-0.0416434 0.068459533 0.34071222
-0.041330572 0.068440683 0.34062597
-0.041026857 0.068436742 0.3406139
-0.040708743 0.068408564 0.34048107
-0.040388234 0.068375893 0.34032589
-0.040061422 0.068331987 0.34011471
-0.039740317 0.068297237 0.33994904
-0.039442744 0.068302698 0.33998346
-0.039141785 0.068302333 0.33998883
-0.03882103 0.068267159 0.33982086
-0.038507786 0.068244733 0.33971635
-0.038209908 0.068249419 0.33974668
-0.037900392 0.068233222 0.33967301
-0.037599947 0.068233222 0.33967993
-0.037272736 0.068184264 0.33944306
-0.036953364 0.068148978 0.33927417
-0.036649566 0.068142056 0.33924645
-0.036339741 0.068123728 0.3391619
-0.03602951 0.068104334 0.33907196
-0.035707887 0.068062887 0.33887219
-0.035408653 0.068063788 0.33888319
-0.035089977 0.068027005 0.33870652
-0.034768119 0.067983374 0.3384957
-0.03446275 0.067971505 0.33844292
-0.034156144 0.067956969 0.33837682
-0.033849899 0.067942902 0.33831301
-0.033537477 0.06791608 0.33818561
-0.033235118 0.06790933 0.33815813
-0.032921121 0.067878462 0.33801049
-0.032621913 0.067877807 0.33801323
-0.032323964 0.067879789 0.33802906
-0.032027487 0.067884907 0.3380605
-0.031725828 0.067879066 0.33803716
-0.031436518 0.067899771 0.33814609
-0.031136885 0.067898363 0.33814481
-0.030844931 0.067913838 0.33822754
-0.030551741 0.067926869 0.33829805
-0.030256506 0.067935571 0.33834696
-0.011791009 0.066709168 0.33246568
-0.011490272 0.066668749 0.33226618
-0.011183462 0.066590048 0.33187583
-0.01088728 0.066572115 0.33178821
-0.010586559 0.06652464 0.3315534
-0.010286683 0.066479944 0.3313323
-0.0099857822 0.066425815 0.33106413
-0.0096892044 0.066398039 0.33092731
-0.0093944967 0.066381767 0.33084768
-0.0090997927 0.06636446 0.33076289
-0.0088022966 0.066324979 0.33056751
-0.0085054589 0.066287927 0.33038417
-0.0082159359 0.066307269 0.3304818
-0.0079192687 0.066268258 0.33028865
-0.0076220119 0.066221148 0.33005497
-0.007333145 0.066246077 0.33018032
-0.0070368196 0.066202909 0.32996622
-0.0067448164 0.066198431 0.32994488
-0.0064503788 0.066168584 0.32979706
-0.006157001 0.066147298 0.32969183
-0.0058641285 0.06612961 0.32960445
-0.0055709938 0.066106968 0.3294923
-0.0052821836 0.06613598 0.32963762
-0.0049915654 0.066144399 0.32968023
-0.0046982532 0.066115975 0.32953912
-0.0044089439 0.066143863 0.32967862
-0.0041215294 0.06620612 0.32998937
-0.0038283255 0.066177793 0.32984859
-0.0035373799 0.066187054 0.32989511
-3.9289684e-05 0.065714702 0.32754013
0.00025012484 0.065716922 0.3275508
0.00053959055 0.06572295 0.32758036
0.00082907139 0.065725937 0.32759473
0.0011185072 0.065724716 0.32758805
0.0014075692 0.065706529 0.32749671
0.0016963647 0.065684214 0.32738477
0.0019847075 0.065653414 0.32723048
0.0022725039 0.065614648 0.32703644
0.002561562 0.06561695 0.32704702
0.002850411 0.065613963 0.32703117
0.00313807 0.065586649 0.32689402
0.0034277213 0.065602057 0.32696974
0.0037147834 0.065569364 0.32680568
0.0040034195 0.065567151 0.32679349
0.0042915372 0.065557338 0.32674327
0.0045757857 0.06549336 0.32642314
0.0048652529 0.065507226 0.32649091
0.0051524551 0.065490745 0.32640734
0.0054401159 0.065481544 0.32635999
0.0057298765 0.065497257 0.32643676
0.0060212798 0.065529324 0.32659507
-0.04734705 0.069167234 0.34256461
-0.047029763 0.069146544 0.34247068
-0.046726152 0.069145821 0.34247559
-0.046411734 0.06912899 0.34240067
-0.0460889 0.069099329 0.34226209
-0.045770299 0.069075651 0.34215316
-0.045466308 0.069073863 0.34215257
-0.045151778 0.069055922 0.34207195
-0.044817135 0.069006786 0.34183666
-0.044510894 0.069000989 0.34181613
-0.044184133 0.06896311 0.34163651
-0.043886364 0.068970263 0.34167996
-0.043550324 0.068916954 0.34142381
-0.043231014 0.068889558 0.34129599
-0.042930789 0.068892412 0.34131795
-0.042620972 0.068879791 0.34126323
-0.042296626 0.068843357 0.34109044
-0.041983433 0.068824679 0.34100559
-0.041674588 0.068812907 0.34095487
-0.041354902 0.068782926 0.34081393
-0.04104349 0.068766385 0.34073946
-0.040727768 0.06874232 0.34062764
-0.040405892 0.068707429 0.34046215
-0.040104568 0.06870722 0.3404685
-0.039798371 0.068698607 0.34043309
-0.039470702 0.068652511 0.34021193
-0.039155517 0.068627588 0.34009558
-0.0388394 0.068600632 0.33996916
-0.038536202 0.068596259 0.33995453
-0.038236842 0.068598695 0.33997363
-0.037915207 0.068560898 0.33979324
-0.037603829 0.068541184 0.33970249
-0.037293717 0.068523481 0.3396216
-0.036993671 0.068524145 0.33963168
-0.036649909 0.068443187 0.33923712
-0.036348619 0.068440847 0.33923224
-0.036047112 0.068438075 0.33922505
-0.03574254 0.068429366 0.33918852
-0.035440713 0.068425834 0.33917749
-0.035121385 0.068388157 0.33899716
-0.034791786 0.068329647 0.33871359
-0.0344804 0.068306223 0.33860376
-0.034175325 0.06829498 0.33855438
-0.033868615 0.06828025 0.33848757
-0.033568989 0.068279676 0.3384909
-0.033242662 0.068224289 0.33822241
-0.032940358 0.068217643 0.33819553
-0.032625828 0.068185337 0.33804137
-0.032324739 0.06818077 0.33802465
-0.03202343 0.068175659 0.33800521
-0.031726625 0.068180129 0.3380332
-0.031430691 0.068186566 0.33807093
-0.031134754 0.06819313 0.3381092
-0.030836951 0.068195693 0.33812755
-0.030537711 0.068195105 0.33813024
-0.030248307 0.068216681 0.3382428
-0.029949689 0.06821771 0.33825338
-0.02965714 0.068232723 0.33833325
-0.012092351 0.067045622 0.33266082
-0.011791711 0.067007631 0.33247432
-0.011491949 0.066972837 0.33230361
-0.011188985 0.066917062 0.33202872
-0.010884061 0.066846244 0.33167917
-0.010584434 0.06680496 0.33147603
-0.010289087 0.066789091 0.33139902
-0.0099885399 0.066737555 0.33114493
-0.0096937353 0.066722445 0.33107147
-0.0094038276 0.066741139 0.33116576
-0.0091018258 0.066672452 0.3308264
-0.0088067017 0.06665127 0.33072266
-0.008512333 0.066634528 0.33064097
-0.0082203196 0.066635713 0.33064809
-0.0079234214 0.066595927 0.33045188
-0.0076307054 0.066589586 0.3304216
-0.0073359068 0.06656386 0.33029503
-0.0070434539 0.06655816 0.33026779
-0.0067481184 0.066523559 0.33009708
-0.0064563411 0.066522501 0.3300927
-0.0061629536 0.066503964 0.33000162
-0.0058676209 0.066461563 0.32979202
-0.0055759177 0.066457994 0.32977504
-0.0052862726 0.066479914 0.32988453
-0.0049951156 0.06648428 0.32990679
-0.0047019855 0.066461287 0.3297933
-0.0044153091 0.06653253 0.3301473
-0.0041267136 0.066582888 0.33039764
0.00053976272 0.066023692 0.327622
0.00082945981 0.066040032 0.32770258
0.0011187962 0.066026628 0.32763544
0.0014082304 0.066023283 0.32761821
0.0016976999 0.066022456 0.32761338
0.0019873467 0.066027738 0.32763883
0.0022750017 0.065973915 0.32737088
0.0025627755 0.065935276 0.32717827
0.0028512096 0.065919735 0.32710019
0.003139239 0.065898545 0.32699403
0.0034282296 0.065899402 0.32699719
0.003716392 0.065885432 0.32692677
0.0040057227 0.065892681 0.32696158
0.0042943293 0.065887854 0.32693636
0.0045806402 0.065850623 0.32675037
0.004869055 0.065846257 0.32672733
0.0051539121 0.065796949 0.32648125
0.0054442906 0.065819636 0.32659233
0.0057327771 0.065818295 0.32658413
0.0060182954 0.065784633 0.32641554
-0.047049686 0.069479518 0.34260321
-0.046734817 0.06946224 0.34252653
-0.046419632 0.069444276 0.34244636
-0.04611358 0.069439828 0.3424328
-0.045789726 0.069408335 0.34228581
-0.0454803 0.069398448 0.34224531
-0.045163441 0.06937699 0.34214774
-0.044856161 0.069370069 0.34212178
-0.044522583 0.069322117 0.34189335
-0.044229411 0.069336839 0.34197402
-0.043918636 0.069323979 0.34191865
-0.043604743 0.069305994 0.34183785
-0.043253172 0.069227457 0.34145838
-0.042950928 0.069227308 0.34146547
-0.042633757 0.069202937 0.34135306
-0.042306449 0.069161646 0.34115711
-0.042000148 0.069154344 0.34112877
-0.0416933 0.06914603 0.34109536
-0.041378208 0.069123842 0.34099343
-0.041054897 0.069087468 0.34082156
-0.040747106 0.069076881 0.3407768
-0.040434211 0.069057427 0.3406882
-0.040128864 0.06905067 0.34066218
-0.039800655 0.069004163 0.34044006
-0.039485563 0.068979867 0.34032738
-0.039181899 0.068975329 0.34031215
-0.038873777 0.06896279 0.34025744
-0.038578689 0.06897337 0.34031674
-0.03823505 0.068896629 0.33994511
-0.03792939 0.068887658 0.33990777
-0.037619099 0.06887006 0.33982784
-0.037315823 0.068865128 0.33981034
-0.036989328 0.068816908 0.33957922
-0.036678877 0.068798006 0.33949268
-0.036372226 0.06878598 0.33943999
-0.036065776 0.068774134 0.33938816
-0.035749234 0.068742678 0.33923951
-0.035434451 0.068714112 0.33910501
-0.0351316 0.06870839 0.33908322
-0.034828171 0.068701424 0.33905527
-0.034494616 0.068634406 0.33873084
-0.034182455 0.068609156 0.3386125
-0.033888388 0.068620093 0.3386727
-0.033581108 0.068604223 0.33860055
-0.033265278 0.068570457 0.33844
-0.03296943 0.06857764 0.33848149
-0.032657027 0.068550207 0.33835211
-0.032337289 0.06850671 0.33814338
-0.0320234 0.068474934 0.33799237
-0.0317281 0.068482675 0.33803642
-0.031432435 0.068489768 0.33807722
-0.03113053 0.068483263 0.33805081
-0.030836655 0.068494476 0.33811185
-0.030537544 0.068494163 0.3381159
-0.030241679 0.068501204 0.33815619
-0.029945027 0.068506584 0.33818823
-0.029645806 0.068506129 0.33819145
-0.029352622 0.068519771 0.33826417
-0.029057741 0.06852968 0.33831841
-0.028762627 0.068539247 0.33837092
-0.012387068 0.067344405 0.33266795
-0.012090135 0.067327939 0.33258864
-0.011787761 0.0672796 0.33235183
-0.011492622 0.067271143 0.33231199
-0.011186398 0.067195654 0.33194095
-0.010881651 0.067125216 0.33159479
-0.010587316 0.067116886 0.3315554
-0.010290853 0.067094214 0.33144507
-0.0099949501 0.067073971 0.33134672
-0.0096962266 0.067033023 0.33114594
-0.0093993666 0.067002796 0.33099815
-0.0091065932 0.067000695 0.33098924
-0.0088133663 0.066995017 0.33096257
-0.0085153952 0.066951662 0.33074969
-0.0082237758 0.066956922 0.33077699
-0.0079287859 0.066934139 0.33066562
-0.0076349261 0.066919513 0.33059451
-0.0073384568 0.066879936 0.33040011
-0.0070457985 0.06687326 0.33036816
-0.0067547807 0.066882253 0.33041358
-0.0064602657 0.06685587 0.33028418
-0.0061634867 0.066802457 0.33002117
-0.0058703576 0.066785276 0.32993707
-0.0055764853 0.066757396 0.32980004
-0.0052867681 0.066778928 0.32990715
-0.0049950425 0.066776142 0.32989398
-0.004705295 0.066801094 0.33001783
-0.0044178651 0.066864416 0.33033118
-0.0041298061 0.066926517 0.33063841
0.0014087562 0.06633389 0.3277081
0.0016982177 0.066329189 0.3276841
0.0019865802 0.066289164 0.32748559
0.0022760748 0.066292278 0.32750019
0.0025643336 0.066262752 0.32735339
0.0028521083 0.06622795 0.32718053
0.0031417059 0.066237994 0.32722911
0.0034289851 0.066201575 0.32704812
0.0037176397 0.066195287 0.327016
0.0040059988 0.066185042 0.32696414
0.0042952616 0.066190079 0.3269878
0.0045835776 0.066180818 0.32694075
0.0048714308 0.066166349 0.32686794
0.0051590749 0.066150829 0.32678983
0.0054480126 0.066152647 0.32679737
0.0057379752 0.06616611 0.32686231
-0.046758547 0.069801264 0.34268785
-0.046448529 0.069791213 0.3426469
-0.04612821 0.069765456 0.34252882
-0.045829922 0.069772899 0.34257367
-0.045494277 0.069723189 0.34233785
-0.045168117 0.069687441 0.34217054
-0.044862684 0.069683403 0.34215888
-0.044534951 0.069644444 0.34197572
-0.044245463 0.069665179 0.34208554
-0.04393322 0.069650106 0.34201956
-0.043599747 0.069600955 0.34178609
-0.043288816 0.069587335 0.34172711
-0.042976942 0.069572009 0.34165967
-0.042660628 0.069549225 0.34155557
-0.042346574 0.069529824 0.34146801
-0.042016398 0.069483481 0.3412481
-0.041715801 0.069485746 0.34126684
-0.041382138 0.069432564 0.34101319
-0.041085031 0.069440387 0.34105909
-0.040777985 0.069431402 0.34102243
-0.040449042 0.069384724 0.34080055
-0.040137105 0.069366731 0.34071952
-0.03981046 0.069322862 0.34051129
-0.03950078 0.069308087 0.340446
-0.039187822 0.0692873 0.34035102
-0.03888911 0.069291554 0.34037906
-0.038566794 0.069253512 0.34019923
-0.038254898 0.069233701 0.34010896
-0.037946433 0.069219865 0.34004793
-0.037628725 0.069188803 0.33990222
-0.037330773 0.069193855 0.33993387
-0.037013751 0.069163367 0.33979085
-0.036701787 0.069141902 0.33969212
-0.036398735 0.069137014 0.33967477
-0.036085092 0.069111757 0.33955732
-0.03575759 0.06905932 0.33930621
-0.035459626 0.069063507 0.33933333
-0.035137273 0.069019884 0.33912539
-0.034842148 0.069029436 0.33917874
-0.034518749 0.068982661 0.33895522
-0.034216736 0.068978176 0.33893946
-0.033907317 0.068958551 0.33884928
-0.033595197 0.06893304 0.33873004
-0.033275694 0.068891771 0.33853337
-0.032973882 0.068886727 0.33851466
-0.032682821 0.068904251 0.33860675
-0.03235713 0.068848416 0.33833835
-0.032041546 0.068813249 0.33817136
-0.031728759 0.068783484 0.3380309
-0.031430047 0.068783946 0.33803895
-0.0311312 0.068784125 0.33804557
-0.03083469 0.068789527 0.33807775
-0.030533176 0.068783768 0.33805501
-0.030237349 0.068790816 0.33809522
-0.029937757 0.068789378 0.33809361
-0.029639618 0.068791263 0.3381083
-0.029347632 0.068807617 0.3381941
-0.029050242 0.068811513 0.33821857
-0.028752297 0.068814173 0.33823687
-0.028457025 0.068823345 0.33828717
-0.028160023 0.068828478 0.33831757
-0.013604414 0.067845732 0.33366421
-0.013304801 0.067821577 0.33354771
-0.013006613 0.067803763 0.3334623
-0.01269148 0.067694739 0.33292827
-0.012393644 0.067674994 0.33283329
-0.012091381 0.067629524 0.33261168
-0.011794116 0.06761045 0.33251983
-0.011493215 0.067569032 0.33231807
-0.01119147 0.067520328 0.33208039
-0.010887433 0.06745483 0.33176005
-0.010594273 0.067454949 0.3317624
-0.010295221 0.067416497 0.33157495
-0.0099963862 0.067377262 0.33138362
-0.0097036371 0.067377917 0.33138835
-0.0094080176 0.067358054 0.33129221
-0.009108766 0.067310087 0.33105773
-0.0088164732 0.067312069 0.3310689
-0.0085194623 0.067276932 0.33089739
-0.0082277376 0.067282535 0.33092618
-0.0079327961 0.067261279 0.33082286
-0.007639749 0.067255057 0.33079344
-0.0073450338 0.067233086 0.33068645
-0.0070494241 0.067200772 0.33052856
-0.0067537534 0.067165062 0.33035389
-0.0064624702 0.067171738 0.33038762
-0.0061690393 0.067155659 0.33030945
-0.0058751577 0.06713286 0.33019805
-0.0055787843 0.067077696 0.3299275
-0.0052908966 0.067124113 0.33015651
-0.0050013778 0.06715405 0.33030438
-0.0047095278 0.067154482 0.33030704
-0.0044208602 0.067203335 0.33054784
-0.0041323183 0.067261159 0.33083272
0.001698978 0.066645563 0.32780153
0.0019871427 0.066594861 0.32755136
0.0022764986 0.066591881 0.32753587
0.0025648363 0.066563159 0.32739368
0.0028540404 0.06656044 0.32737938
0.0031421208 0.066534422 0.32725039
0.0034304268 0.066517159 0.32716444
0.0037182297 0.066493578 0.32704729
0.0040068878 0.066487588 0.32701665
0.0042962041 0.066492572 0.32703993
0.0045842351 0.066478297 0.3269684
0.0048733638 0.066480674 0.3269788
0.0051613236 0.066467725 0.32691365
0.0054515279 0.066483527 0.32698992
0.0057400102 0.06647779 0.32696018
-0.046462893 0.070116617 0.34274027
-0.046158537 0.070115127 0.34274137
-0.045823339 0.070066467 0.3425118
-0.045529824 0.070081323 0.34259266
-0.045211848 0.07005848 0.34248918
-0.044903763 0.070050746 0.34245953
-0.044577986 0.070015125 0.3422935
-0.044268388 0.07000459 0.34225005
-0.043958921 0.069994144 0.34220698
-0.043628223 0.0699495 0.34199664
-0.043350816 0.069990262 0.34220386
-0.042982869 0.069884412 0.34169412
-0.042671788 0.069870166 0.34163225
-0.042379443 0.069886617 0.3417204
-0.042072203 0.069878571 0.34168869
-0.041740235 0.069829024 0.34145403
-0.041418456 0.069795936 0.3412998
-0.041112043 0.069788441 0.34127066
-0.040789392 0.069753066 0.34110513
-0.040485039 0.0697487 0.34109116
-0.040163614 0.069714628 0.34093189
-0.039846547 0.069687665 0.34080729
-0.039512143 0.069629736 0.34053123
-0.039208755 0.069626004 0.34052014
-0.038905594 0.069622621 0.34051064
-0.038592655 0.069601543 0.34041464
-0.038274042 0.069569834 0.34026653
-0.037970752 0.069565684 0.34025317
-0.037652504 0.06953384 0.34010434
-0.037333827 0.069500685 0.33994904
-0.037032306 0.06949921 0.33994853
-0.036718708 0.069474846 0.33983609
-0.036411565 0.069462389 0.33978182
-0.036093041 0.069427833 0.33961946
-0.035777293 0.069398105 0.33948052
-0.035472292 0.069388881 0.33944193
-0.035159536 0.06936419 0.33932757
-0.034864422 0.069374196 0.33938292
-0.034561343 0.069368392 0.33936083
-0.034230541 0.069306344 0.33906356
-0.03391052 0.069265224 0.33886862
-0.03360052 0.069244035 0.3387711
-0.033290915 0.069223277 0.33867565
-0.03298514 0.069210164 0.33861759
-0.032694161 0.069228165 0.33871162
-0.032383636 0.069204725 0.33860287
-0.0320809 0.06919764 0.33857405
-0.031760558 0.069152102 0.33835706
-0.031444646 0.069115423 0.33818337
-0.031134389 0.06909059 0.33806759
-0.03083525 0.069090202 0.33807132
-0.03053458 0.069086343 0.33805799
-0.030235846 0.069086812 0.33806586
-0.029936297 0.069085419 0.33806452
-0.029640991 0.069093898 0.33811143
-0.029342467 0.069094963 0.33812201
-0.029040372 0.069087565 0.33809114
-0.028743023 0.069091417 0.33811522
-0.028451443 0.069109358 0.33820826
-0.028150296 0.069104202 0.33818814
-0.027854009 0.06911099 0.33822647
-0.027557628 0.06911771 0.33826435
-0.013902923 0.068159088 0.33373755
-0.013605743 0.068147935 0.33368528
-0.013304481 0.068115383 0.33352819
-0.012995593 0.068041451 0.33316836
-0.012693398 0.067999922 0.33296719
-0.012392011 0.067960873 0.33277807
-0.012095449 0.067947038 0.33271235
-0.011787847 0.067868941 0.3323319
-0.011486256 0.06782236 0.33210573
-0.011190059 0.067805998 0.33202749
-0.010894177 0.067790739 0.33195457
-0.010596624 0.067763932 0.33182505
-0.010298271 0.06773036 0.33166233
-0.010000515 0.067698851 0.33150968
-0.0097071817 0.067696303 0.33149874
-0.0094127767 0.06768588 0.33144921
-0.0091157714 0.067655496 0.33130184
-0.0088232383 0.067657389 0.33131254
-0.0085275425 0.067634329 0.33120093
-0.0082315439 0.067607157 0.33106911
-0.0079389941 0.067607343 0.33107126
-0.0076408382 0.067557983 0.33083069
-0.0073473416 0.06754753 0.3307806
-0.0070522618 0.067521065 0.330652
-0.0067602284 0.067522734 0.33066121
-0.0064642029 0.067482889 0.33046699
-0.0061701019 0.067460321 0.33035731
-0.0058751218 0.067425415 0.33018717
-0.0055851704 0.067447603 0.33029658
-0.0052926047 0.067438915 0.33025473
-0.0050014174 0.067447834 0.33029899
-0.0047121332 0.067485102 0.3304821
-0.0044228993 0.067528069 0.33069301
-0.0041338946 0.067580864 0.33095202
0.0019878421 0.06690529 0.32763952
0.0022779293 0.06692116 0.32771641
0.0025680664 0.06693472 0.32778192
0.0028550131 0.066870809 0.32746801
0.0031446447 0.066875756 0.32749122
0.0034341558 0.066877507 0.32749873
0.0037206914 0.066825546 0.32724312
0.0040089488 0.066809759 0.32716468
0.0042976649 0.066803224 0.32713142
0.0045860861 0.066793218 0.32708114
0.0048743002 0.066781551 0.32702261
0.005165094 0.066804551 0.32713386
0.0054565626 0.066833384 0.32727355
-0.046165559 0.070429653 0.34278083
-0.045848943 0.07040938 0.34269047
-0.045536857 0.070395857 0.34263289
-0.045222156 0.070378073 0.34255454
-0.044905111 0.070356376 0.34245709
-0.044577181 0.070317231 0.34227464
-0.044288661 0.070340127 0.34239414
-0.043973703 0.070321061 0.3423093
-0.043657016 0.070298962 0.34220967
-0.043347359 0.070287943 0.34216389
-0.043010119 0.070231728 0.34189805
-0.042692062 0.070206262 0.34178182
-0.042390291 0.070207402 0.34179512
-0.042089142 0.070209607 0.3418135
-0.041744769 0.070139222 0.34147844
-0.041447956 0.070148289 0.34153014
-0.041129902 0.070121303 0.3414062
-0.040806241 0.070084266 0.34123334
-0.040498424 0.070074096 0.3411912
-0.040187608 0.070058547 0.34112284
-0.039867856 0.070027068 0.34097683
-0.039543323 0.069986649 0.34078723
-0.039242174 0.069987312 0.34079763
-0.038922422 0.069954552 0.34064519
-0.038613275 0.0699405 0.3405838
-0.038302347 0.069922961 0.34050539
-0.037997175 0.069915742 0.3404772
-0.037670497 0.069868527 0.34025416
-0.037353553 0.069838747 0.34011593
-0.037048481 0.069830857 0.34008428
-0.036738016 0.069812581 0.34000203
-0.036440127 0.069818132 0.34003571
-0.03611974 0.069780283 0.33985797
-0.035820827 0.069783643 0.33988091
-0.03549847 0.069741003 0.33967972
-0.035175029 0.069695488 0.33946449
-0.034884889 0.069715731 0.33956945
-0.034571771 0.069690019 0.33945054
-0.034264207 0.069675148 0.33938438
-0.033922803 0.069590598 0.33897874
-0.033616532 0.069577239 0.33891982
-0.033320405 0.069584839 0.33896294
-0.032992892 0.069526441 0.33868453
-0.032700032 0.069540665 0.33875978
-0.0323877 0.069513358 0.3386327
-0.03208388 0.069503993 0.33859292
-0.031782981 0.069500826 0.33858332
-0.031472459 0.069476359 0.33846989
-0.031159816 0.069446698 0.33833107
-0.03083569 0.069390617 0.33806351
-0.030536728 0.069390625 0.33806911
-0.030234594 0.069383353 0.33803925
-0.029934535 0.069380745 0.33803201
-0.029635895 0.069381416 0.33804068
-0.02933697 0.069381423 0.33804607
-0.029039567 0.069385074 0.33806914
-0.028737711 0.069378033 0.33804014
-0.028442129 0.069386162 0.33808494
-0.028139515 0.069377132 0.33804604
-0.027844369 0.069386512 0.33809686
-0.027548596 0.069394514 0.33814088
-0.02725523 0.069408834 0.33821562
-0.026955666 0.069407508 0.33821404
-0.014821795 0.068612136 0.33448607
-0.014514926 0.068559058 0.33422983
-0.014198503 0.068457715 0.33373821
-0.013898821 0.068434507 0.33362746
-0.013600526 0.068417273 0.33354577
-0.013298541 0.068380296 0.33336776
-0.012999253 0.068355829 0.3332507
-0.01270191 0.068340689 0.33317909
-0.01239697 0.068283007 0.3328999
-0.012089881 0.068210378 0.33254787
-0.01179003 0.068175994 0.3323822
-0.011489926 0.068138354 0.33220062
-0.011191525 0.068109095 0.33205983
-0.010894825 0.068088911 0.33196324
-0.010599674 0.068077549 0.33190957
-0.010304158 0.06806314 0.33184099
-0.010008122 0.06804435 0.33175102
-0.0097118365 0.068022691 0.33164698
-0.0094172424 0.068011895 0.33159584
-0.0091239531 0.068010122 0.33158866
-0.0088244136 0.067960113 0.33134621
-0.0085290652 0.067940056 0.33124971
-0.0082361223 0.067938425 0.33124304
-0.0079391645 0.067902327 0.33106828
-0.0076439567 0.067879014 0.33095574
-0.0073504737 0.067869782 0.33091182
-0.0070546228 0.067837015 0.33075309
-0.0067635886 0.067849725 0.33081603
-0.0064661023 0.067795955 0.33055478
-0.0061735264 0.067791015 0.33053157
-0.0058818571 0.067796037 0.33055681
-0.0055906717 0.067807458 0.33061329
-0.0052983472 0.067805566 0.33060473
-0.0050060139 0.067803346 0.33059451
-0.0047152285 0.067823112 0.33069146
-0.0044254391 0.067860767 0.33087558
-0.0041356548 0.067903854 0.3310861
0.0019898694 0.067260772 0.32794648
0.0022795375 0.067255981 0.32792228
0.0025686023 0.067236476 0.32782626
0.0028564928 0.067193285 0.32761472
0.0031472782 0.067219861 0.32774332
0.0034354553 0.067190945 0.32760125
0.0037248603 0.067188665 0.32758901
0.0040116715 0.067143299 0.32736662
0.0043015787 0.067152359 0.32740954
0.0045884624 0.067116044 0.3272312
0.0048784739 0.067127079 0.32728362
0.0051687672 0.067140527 0.32734782
0.0054603084 0.067167893 0.32747975
0.0057483893 0.067152075 0.32740113
-0.046203718 0.070791967 0.3430514
-0.045871399 0.070747785 0.34284559
-0.045557901 0.070732236 0.34277847
-0.045264881 0.070748478 0.34286541
-0.044946373 0.070724852 0.34275904
-0.044615816 0.07068181 0.3425585
-0.044286735 0.070640527 0.34236649
-0.043978848 0.070632719 0.3423366
-0.043664213 0.070613891 0.34225327
-0.043358978 0.070610113 0.34224284
-0.043048915 0.070598356 0.34219366
-0.042739373 0.0705873 0.34214783
-0.042404748 0.070534363 0.34189892
-0.042091176 0.070515938 0.34181726
-0.041767638 0.070480429 0.34165275
-0.041467331 0.070483886 0.34167707
-0.04113983 0.070440844 0.34147587
-0.040817704 0.070406415 0.34131643
-0.040499568 0.070378415 0.34118807
-0.040198006 0.070379019 0.34119833
-0.039882768 0.070355512 0.3410916
-0.039565567 0.070328154 0.34096619
-0.03924574 0.070295669 0.34081584
-0.038933169 0.070275798 0.34072655
-0.03861564 0.07024657 0.34059191
-0.038331088 0.070277348 0.34074816
-0.038006518 0.070234671 0.34054819
-0.037695952 0.070217408 0.34047136
-0.037387203 0.07020326 0.34040958
-0.037075341 0.070183009 0.34031811
-0.036769666 0.070174217 0.34028223
-0.036435392 0.070110261 0.33997875
-0.036134679 0.070110351 0.33998582
-0.035821777 0.070086606 0.33987719
-0.035516605 0.070077702 0.3398405
-0.035203993 0.070053853 0.33973128
-0.034882478 0.070011713 0.33953327
-0.034586474 0.070020489 0.33958218
-0.034282621 0.070013389 0.33955401
-0.033952545 0.069952153 0.3392632
-0.033650734 0.069948561 0.33925197
-0.033348788 0.069944628 0.33923897
-0.03300463 0.069851294 0.33879232
-0.032703117 0.069847338 0.33877909
-0.032397475 0.069834389 0.33872223
-0.032091055 0.06981951 0.33865595
-0.031802103 0.069842711 0.33877429
-0.031489082 0.069813013 0.33863595
-0.031165827 0.069759823 0.33838367
-0.03086938 0.069766194 0.33842018
-0.030540694 0.069699101 0.33810037
-0.030236555 0.069687277 0.33804852
-0.029934511 0.069680095 0.3380191
-0.029633004 0.06967403 0.33799508
-0.029336508 0.069679722 0.3380281
-0.02903666 0.069677502 0.33802265
-0.028735586 0.069672279 0.3380025
-0.028438434 0.069676541 0.33802837
-0.028138058 0.069672912 0.33801594
-0.027839847 0.069674633 0.33802933
-0.027537033 0.069664732 0.33798632
-0.02724755 0.069688722 0.33810768
-0.026945353 0.069680378 0.33807206
-0.02664944 0.069688253 0.33811519
-0.026353097 0.069695197 0.33815363
-0.026042929 0.069665298 0.33801329
-0.025745017 0.069667891 0.33803055
-0.014814584 0.068874896 0.33431154
-0.014515803 0.068859279 0.33423829
-0.014207043 0.06879469 0.33392724
-0.013901545 0.068743505 0.3336812
-0.013599456 0.068707339 0.3335079
-0.013301136 0.068689018 0.33342126
-0.012999339 0.068651505 0.3332414
-0.012692226 0.068583533 0.33291361
-0.012391657 0.068548538 0.33274582
-0.012090568 0.068508901 0.33255544
-0.01179452 0.068496563 0.33249751
-0.011492648 0.068448909 0.33226809
-0.011194305 0.068420336 0.33213127
-0.010899331 0.068411358 0.33208945
-0.010600764 0.068378717 0.33193275
-0.010308737 0.068387605 0.33197758
-0.010011058 0.068358414 0.33183753
-0.0097160814 0.068346478 0.33178115
-0.0094203958 0.068328664 0.33169615
-0.0091248974 0.068311118 0.33161241
-0.0088277301 0.06827949 0.33146027
-0.0085316375 0.068254292 0.33133927
-0.0082411971 0.06827414 0.33143687
-0.0079398537 0.068201795 0.3310869
-0.0076473448 0.068202704 0.33109248
-0.0073541747 0.068197563 0.33106858
-0.0070596286 0.068178713 0.3309781
-0.0067653004 0.068160422 0.3308903
-0.0064709913 0.068140686 0.33079538
-0.0061762622 0.06811446 0.33066893
-0.0058835056 0.068108462 0.33064058
-0.0055905925 0.068099931 0.33059993
-0.0053004371 0.068125911 0.33072674
-0.0050074845 0.068116888 0.33068356
-0.0047168192 0.068139791 0.33079532
-0.0044267969 0.068175629 0.33096978
-0.00413635 0.068209536 0.33113486
0.0022804802 0.067571461 0.32803228
0.002570862 0.067583635 0.32809046
0.0028590884 0.067542389 0.32788929
0.0031478913 0.067521103 0.32778496
0.0034369966 0.067509331 0.32772675
0.0037272118 0.067519501 0.32777497
0.0040151752 0.067490332 0.32763219
0.0043035238 0.067471132 0.32753775
0.0045925332 0.067464046 0.32750204
0.0048825028 0.06747108 0.32753482
0.0051682582 0.06742233 0.32729679
0.0054602595 0.067455903 0.32745829
-0.045901969 0.071099058 0.3430613
-0.045564804 0.071046844 0.34281763
-0.04526848 0.07105805 0.34287989
-0.044959929 0.071050093 0.34284961
-0.044639871 0.07102371 0.34273037
-0.044315528 0.070990115 0.34257627
-0.044011302 0.070988491 0.34257644
-0.043695495 0.070968047 0.34248567
-0.043379825 0.070947543 0.34239456
-0.043054432 0.070910722 0.34222469
-0.042751957 0.070911407 0.34223574
-0.042434078 0.070886366 0.34212261
-0.042115051 0.070859037 0.34199834
-0.041807193 0.070850246 0.3419635
-0.041490454 0.070826158 0.34185478
-0.041172076 0.070798896 0.34173068
-0.04087308 0.070804819 0.34176669
-0.040572893 0.070808731 0.34179297
-0.040208008 0.070698962 0.34127042
-0.039901279 0.070690557 0.34123713
-0.039599396 0.070690677 0.34124491
-0.039274193 0.070648849 0.34105015
-0.038959827 0.07062602 0.34094703
-0.038639702 0.070592314 0.34079134
-0.038335238 0.07058692 0.34077227
-0.038022771 0.070566572 0.34068099
-0.037709065 0.070543602 0.34057698
-0.037389282 0.070508793 0.34041575
-0.037082665 0.070498452 0.34037256
-0.036783136 0.070501529 0.34039411
-0.036476083 0.070490107 0.34034565
-0.036159933 0.070460774 0.34021062
-0.035836544 0.070416734 0.3400045
-0.035529099 0.070403531 0.33994725
-0.03520919 0.070365205 0.33976862
-0.034908254 0.07036446 0.33977139
-0.034595557 0.070339799 0.33965859
-0.034305226 0.070360564 0.33976513
-0.033978842 0.070307106 0.33951321
-0.033662591 0.070273846 0.33935875
-0.033342227 0.070231333 0.33915952
-0.033029363 0.070203975 0.33903342
-0.032733925 0.070213519 0.33908549
-0.032412786 0.070167571 0.33886951
-0.032103524 0.070146739 0.33877474
-0.031798407 0.070134655 0.3387222
-0.03150015 0.070137613 0.33874226
-0.031179989 0.070091389 0.3385247
-0.030873712 0.070075788 0.33845499
-0.030575637 0.070078671 0.33847448
-0.030262483 0.07004673 0.33832571
-0.029947199 0.07000915 0.3381497
-0.029642181 0.069995061 0.33808702
-0.029336639 0.069979444 0.33801693
-0.029035056 0.069973037 0.3379913
-0.028734855 0.069969878 0.33798125
-0.028436957 0.069972299 0.33799815
-0.028134007 0.069962218 0.33795458
-0.027837092 0.069967091 0.33798319
-0.027535476 0.06996014 0.33795458
-0.02723374 0.069952711 0.33792371
-0.026938982 0.069963247 0.3379795
-0.026636822 0.069954582 0.33794245
-0.026336364 0.069950245 0.3379263
-0.026036603 0.069947675 0.33791861
-0.025740987 0.069956318 0.33796498
-0.025442963 0.069958545 0.33798039
-0.025139799 0.06994652 0.33792683
-0.024834136 0.069927171 0.33783787
-0.024531068 0.069914751 0.33778232
-0.023920963 0.069877371 0.33761045
-0.01815119 0.069501169 0.33586374
-0.017543022 0.069444284 0.3355951
-0.017244166 0.069435418 0.33555526
-0.016934386 0.069381483 0.33529764
-0.016635828 0.069372445 0.33525687
-0.016331472 0.069338456 0.33509547
-0.016016563 0.069257572 0.33470741
-0.015715363 0.069234043 0.3345964
-0.01541319 0.069205262 0.33445996
-0.015120422 0.06921839 0.33452606
-0.014820491 0.069198608 0.33443302
-0.014520355 0.069177039 0.3343313
-0.014206886 0.069089755 0.33391187
-0.013901616 0.069039457 0.33367118
-0.01359852 0.068998039 0.33347332
-0.013301153 0.068984486 0.33341008
-0.01299904 0.068945155 0.33322221
-0.012699923 0.068920255 0.33310401
-0.012399845 0.068888843 0.33295426
-0.012097711 0.068844199 0.33274055
-0.011799651 0.068821095 0.33263087
-0.011500392 0.068789653 0.33248073
-0.011201298 0.068757564 0.33232751
-0.010904755 0.068739831 0.33224359
-0.010608188 0.068720959 0.33215415
-0.010309798 0.068688877 0.33200073
-0.010016317 0.068688586 0.33200094
-0.0097186668 0.068658821 0.33185863
-0.0094262129 0.068665065 0.33189031
-0.0091292756 0.068637982 0.33176088
-0.0088350307 0.06863004 0.33172387
-0.0085343951 0.068570212 0.33143601
-0.0082427561 0.068580978 0.33148929
-0.0079463469 0.068551399 0.33134753
-0.0076518627 0.068536781 0.33127806
-0.007359867 0.068544194 0.33131498
-0.0070634536 0.068509378 0.3311477
-0.0067697656 0.068499133 0.33109915
-0.0064740321 0.068466321 0.33094147
-0.0061783306 0.068430781 0.33077052
-0.0058843698 0.068411939 0.33068028
-0.0055937753 0.068432316 0.33077952
-0.0053033256 0.068456821 0.33089861
-0.0050094048 0.068436764 0.33080232
-0.0047183498 0.068455808 0.33089489
-0.0044280891 0.068489656 0.33105901
-0.0041378289 0.068528317 0.33124635
0.0022816136 0.067892827 0.32816964
0.002571441 0.067886882 0.32813999
0.0028604986 0.067863867 0.32802781
0.003151706 0.067891397 0.32815981
0.0034380865 0.067819044 0.3278091
0.0037277874 0.067818359 0.32780463
0.0040166848 0.067804202 0.32773498
0.0043046162 0.067776725 0.32760096
0.0045944289 0.067780457 0.3276177
0.0048843157 0.067784771 0.3276372
0.0051772087 0.067828 0.32784474
-0.045306668 0.071422204 0.34315628
-0.044984836 0.071393542 0.3430267
-0.044664733 0.071367241 0.34290841
-0.044345453 0.071341917 0.34279478
-0.044016588 0.071300715 0.34260473
-0.043710478 0.071296051 0.34259024
-0.043385155 0.071259782 0.3424238
-0.043079074 0.071254805 0.3424077
-0.04276773 0.071241006 0.34234914
-0.042467117 0.071245015 0.34237614
-0.042143535 0.071210273 0.34221679
-0.041819882 0.071174905 0.34205443
-0.041512739 0.071167327 0.34202552
-0.041203536 0.071156077 0.34197894
-0.040894888 0.071145631 0.34193617
-0.040567178 0.071101606 0.34173197
-0.040244721 0.071066216 0.34156916
-0.03993037 0.071044706 0.34147304
-0.039604999 0.071003124 0.34128034
-0.039280787 0.070962973 0.34109455
-0.038968511 0.070943944 0.34101015
-0.038656101 0.070924386 0.34092316
-0.038357396 0.07092984 0.34095636
-0.038057514 0.070933208 0.34097946
-0.03772328 0.070872076 0.34069249
-0.037420966 0.070870422 0.34069136
-0.037122551 0.070876181 0.34072581
-0.036799103 0.070833854 0.34052902
-0.036486655 0.070812181 0.34043145
-0.036155846 0.0707542 0.34015933
-0.035862464 0.070769116 0.34023759
-0.035539649 0.070725717 0.34003538
-0.035232209 0.070712432 0.33997795
-0.034921296 0.070691876 0.3398855
-0.034614652 0.070679694 0.33983323
-0.034311298 0.070674077 0.33981246
-0.034005333 0.070662931 0.33976507
-0.033675492 0.07060153 0.33947599
-0.033366196 0.070582494 0.33939055
-0.033057615 0.070564628 0.33931065
-0.032756262 0.070562005 0.33930403
-0.032429256 0.070503578 0.33902895
-0.032129142 0.070503063 0.33903235
-0.031820301 0.0704832 0.33894262
-0.031514 0.070468657 0.33887845
-0.031196397 0.070428297 0.33869007
-0.030886132 0.070403911 0.33857837
-0.030589376 0.070410125 0.33861384
-0.030285105 0.070398994 0.33856586
-0.029962709 0.070345096 0.33831206
-0.029657168 0.070330068 0.33824524
-0.029344812 0.070298433 0.33809838
-0.029039076 0.070282154 0.33802539
-0.028732426 0.070263296 0.33793995
-0.028429437 0.070253104 0.33789608
-0.028130217 0.070252098 0.33789638
-0.027829746 0.070247918 0.33788133
-0.027525837 0.070234872 0.33782357
-0.0272264 0.070233092 0.33781993
-0.026930694 0.070240989 0.33786282
-0.026627131 0.070228346 0.33780685
-0.026334025 0.070243306 0.33788359
-0.026030997 0.070231847 0.3378332
-0.025725091 0.07021226 0.33774364
-0.025420999 0.07019724 0.33767599
-0.02512175 0.070195384 0.33767161
-0.02482361 0.070196614 0.33768204
-0.024530735 0.07021296 0.3377651
-0.024222627 0.070185564 0.33763769
-0.023913227 0.070153698 0.33748871
-0.023615059 0.070154391 0.33749631
-0.023312654 0.070142366 0.33744264
-0.023011107 0.070132628 0.33739996
-0.022402911 0.070096426 0.33723393
-0.022102887 0.070090525 0.33720949
-0.021799119 0.07007242 0.33712631
-0.020886388 0.07001023 0.33683851
-0.01997041 0.069931127 0.33646879
-0.019669497 0.069918863 0.33641323
-0.019363031 0.06988617 0.33625939
-0.019064859 0.069882862 0.33624691
-0.01875817 0.06984774 0.33608124
-0.018454028 0.069821127 0.33595645
-0.018159239 0.069829598 0.33600041
-0.017843066 0.069754772 0.3356435
-0.017554615 0.069787621 0.33580467
-0.01724471 0.069734834 0.33555371
-0.016937956 0.069693185 0.33535627
-0.016632723 0.069656394 0.33518219
-0.01632558 0.069610164 0.33496252
-0.016023533 0.069584332 0.33484107
-0.015721289 0.069556661 0.33471063
-0.01541845 0.069525257 0.33456218
-0.015109871 0.069466226 0.33428073
-0.014815547 0.069471687 0.33430961
-0.014506076 0.069404915 0.33399075
-0.014211009 0.069405697 0.33399698
-0.013898347 0.069318771 0.33358103
-0.013596645 0.069283918 0.33341566
-0.013298979 0.069268554 0.33334395
-0.013003691 0.069265157 0.33332983
-0.012701433 0.06922362 0.33313209
-0.012404782 0.069211394 0.33307534
-0.012104402 0.069177277 0.33291319
-0.011805518 0.069150202 0.33278486
-0.011506426 0.069120511 0.3326439
-0.011205367 0.069077149 0.33243704
-0.010914015 0.069092885 0.33251458
-0.010615195 0.069060922 0.33236247
-0.010316018 0.069024749 0.33219007
-0.010018985 0.06900122 0.33207846
-0.0097244587 0.068994075 0.33204558
-0.0094256084 0.06895484 0.33185828
-0.009134246 0.068969622 0.33193088
-0.0088379374 0.068946816 0.33182248
-0.0085395714 0.068905845 0.33162662
-0.0082445173 0.068889625 0.33154982
-0.0079481248 0.06886062 0.33141145
-0.0076550837 0.068859547 0.33140743
-0.0073617781 0.068855926 0.3313911
-0.0070658256 0.068826228 0.33124915
-0.0067717875 0.068813406 0.33118844
-0.0064791781 0.068814613 0.33119515
-0.0061850338 0.068798855 0.33112022
-0.0058892416 0.068762317 0.3309451
-0.0055983602 0.06878227 0.3310419
-0.0053049047 0.068771079 0.33098871
-0.0050129271 0.068778858 0.33102676
-0.0047200541 0.068774559 0.33100665
-0.0044296379 0.06880787 0.33116746
-0.0041398033 0.068855561 0.33139747
0.0022822518 0.068199657 0.32823566
0.0025728538 0.06821236 0.32829586
0.0028622933 0.068194762 0.32821026
0.0031518559 0.068183064 0.32815298
0.0034413084 0.068171158 0.3280946
0.0037299697 0.068146639 0.32797545
0.0040185284 0.068123914 0.32786489
0.0043080058 0.068118758 0.32783887
0.00459849 0.068129167 0.32788762
0.0048856568 0.0680921 0.32770792
-0.044990826 0.071707167 0.34305948
-0.044671468 0.071682021 0.34294724
-0.044383556 0.071707346 0.34307638
-0.044044901 0.07165046 0.34281218
-0.043733694 0.071637757 0.34275931
-0.043413643 0.071610279 0.34263575
-0.043087844 0.071572877 0.34246454
-0.04278601 0.071575038 0.3424826
-0.042465635 0.071545973 0.34235126
-0.042161379 0.071543865 0.34234878
-0.041853473 0.071535483 0.34231624
-0.041520003 0.071482956 0.34207246
-0.041231502 0.07150767 0.34219816
-0.040900074 0.071457736 0.3419666
-0.04058706 0.071439467 0.34188658
-0.040251154 0.071380332 0.34161088
-0.039940488 0.071365401 0.34154665
-0.039634455 0.071358599 0.34152126
-0.039333671 0.071361199 0.34154087
-0.038987625 0.071281083 0.34116456
-0.038681552 0.071273394 0.34113473
-0.03837825 0.071270704 0.34112889
-0.038060632 0.071241178 0.34099448
-0.037743498 0.071212113 0.34086218
-0.037441839 0.071212001 0.34086847
-0.037120219 0.071173623 0.34069154
-0.036815736 0.071167737 0.34067005
-0.036510792 0.07116086 0.34064376
-0.036185473 0.071113832 0.34042522
-0.035868663 0.071082868 0.34028354
-0.035563961 0.071075581 0.34025514
-0.035246167 0.071041785 0.34009972
-0.034933053 0.071016923 0.33998707
-0.034617506 0.070986636 0.33984837
-0.034325056 0.071003601 0.33993584
-0.034019779 0.070994094 0.33989656
-0.033711739 0.070978604 0.33982852
-0.033391919 0.070937805 0.33963928
-0.033079457 0.070912056 0.339522
-0.032760702 0.07087221 0.3393372
-0.032465551 0.07088317 0.33939558
-0.032140251 0.070827886 0.33913675
-0.031839598 0.070826404 0.33913541
-0.031533476 0.07081259 0.33907503
-0.031218149 0.070777655 0.33891341
-0.030914016 0.070767678 0.33887124
-0.030587405 0.070705518 0.33857924
-0.03028948 0.070709124 0.33860195
-0.029975493 0.070674919 0.33844364
-0.029683143 0.070691556 0.33852872
-0.029351916 0.070615008 0.33816746
-0.029044908 0.070595749 0.3380805
-0.028736887 0.070573598 0.33797967
-0.028431604 0.070557788 0.3379091
-0.028128782 0.070547804 0.3378664
-0.027827432 0.070541337 0.3378405
-0.027525205 0.070532486 0.3378031
-0.02722365 0.070525184 0.33777308
-0.026930416 0.070539519 0.33784661
-0.026619902 0.070508406 0.33770242
-0.026319919 0.070504807 0.33768994
-0.02602211 0.070507005 0.33770517
-0.02571905 0.07049486 0.33765167
-0.02541922 0.070491396 0.33763969
-0.025117267 0.070481889 0.33759868
-0.02481455 0.070469983 0.33754617
-0.024512902 0.070460863 0.33750689
-0.024208995 0.070444949 0.33743504
-0.023909152 0.070440605 0.33741856
-0.023610851 0.070440777 0.33742359
-0.023305748 0.07042037 0.33733007
-0.023003375 0.070407808 0.33727404
-0.022699926 0.07039158 0.33720034
-0.022396145 0.070373863 0.33711955
-0.022095213 0.070364758 0.33707988
-0.02179632 0.070361979 0.33707047
-0.021496445 0.070355922 0.33704528
-0.021192573 0.070336416 0.3369557
-0.020881435 0.070291907 0.33674619
-0.020582078 0.070286341 0.33672318
-0.020282429 0.070279583 0.33669445
-0.019967781 0.070219912 0.3364121
-0.019662032 0.070190176 0.33627316
-0.01936293 0.07018365 0.3362453
-0.019065008 0.070181243 0.33623719
-0.018755028 0.070133671 0.3360126
-0.01845007 0.07010366 0.33587208
-0.018149985 0.070091486 0.33581692
-0.017840514 0.070042059 0.33558327
-0.017543903 0.070042305 0.33558753
-0.017240012 0.070012994 0.33545014
-0.016934451 0.069975756 0.3352747
-0.01662375 0.069915578 0.33498928
-0.016330892 0.06992963 0.33505943
-0.016022017 0.069874339 0.33479729
-0.015725741 0.069872946 0.33479339
-0.01541787 0.069819011 0.33453763
-0.015110125 0.069763526 0.33427441
-0.014808051 0.069732562 0.33412856
-0.014511065 0.069724768 0.33409372
-0.014198098 0.069638275 0.33368173
-0.013897484 0.069609985 0.33354855
-0.013599695 0.069594927 0.33347869
-0.013302051 0.069579974 0.33340934
-0.013003777 0.06956096 0.33332041
-0.012707791 0.069553606 0.3332873
-0.012408466 0.069527179 0.33316275
-0.01211252 0.069518857 0.33312494
-0.011808823 0.069464549 0.33286664
-0.011515093 0.069467589 0.33288312
-0.011216736 0.069442146 0.33276308
-0.010921326 0.069434069 0.33272609
-0.010623299 0.069408447 0.33260506
-0.010327773 0.069398172 0.33255753
-0.010029078 0.069365382 0.33240202
-0.0097268773 0.069305636 0.33211729
-0.0094336513 0.069308117 0.33213067
-0.0091392146 0.069301575 0.33210075
-0.0088432543 0.069282658 0.33201149
-0.0085464623 0.069255732 0.33188373
-0.0082489923 0.069221184 0.33171946
-0.0079511581 0.069180921 0.33152771
-0.0076555531 0.06915772 0.33141768
-0.0073639145 0.069169939 0.33147731
-0.0070699514 0.069160439 0.33143279
-0.0067752879 0.069142967 0.33135006
-0.0064799818 0.069117062 0.33122686
-0.0061887074 0.069133751 0.33130768
-0.0058927778 0.069097526 0.33113486
-0.0055991351 0.069085717 0.33107901
-0.0053062239 0.069082156 0.33106259
-0.0050141388 0.069089554 0.33109868
-0.0047216099 0.06909138 0.331108
-0.0044302461 0.069111623 0.33120552
-0.0041393857 0.069143161 0.33135709
-0.0038491352 0.069190457 0.33158416
0.0020014248 0.068806663 0.32974035
0.0022837948 0.068533771 0.3284317
0.002574652 0.068548374 0.32850081
0.0028654966 0.068559699 0.32855418
0.0031533891 0.068504818 0.3282901
0.00344165 0.068466492 0.32810542
0.003734529 0.068518862 0.32835522
0.0040212753 0.068459257 0.32806846
0.0043105832 0.06844835 0.32801488
0.0046014152 0.06846147 0.32807651
-0.045020323 0.072058506 0.34327149
-0.044698358 0.072029375 0.34314072
-0.044392344 0.072025731 0.34313136
-0.044067111 0.071990639 0.34297213
-0.043779124 0.072016329 0.34310246
-0.043443728 0.071963847 0.34286025
-0.04313115 0.071948685 0.34279582
-0.042804863 0.071910277 0.34262055
-0.042501222 0.071909644 0.3426252
-0.042185023 0.071887605 0.34252784
-0.041864499 0.071857817 0.34239349
-0.041546322 0.071831651 0.34227633
-0.041230462 0.071809143 0.34217656
-0.040926732 0.071807586 0.34217656
-0.040614258 0.071790554 0.34210274
-0.040272299 0.071720749 0.34177741
-0.039956965 0.071697667 0.34167466
-0.039646763 0.071683511 0.34161437
-0.039339665 0.071674794 0.34157997
-0.039032485 0.071665794 0.34154415
-0.038710505 0.071629271 0.34137714
-0.038405143 0.071623154 0.34135494
-0.0380718 0.071564354 0.34108159
-0.03776719 0.071559057 0.34106323
-0.037447121 0.071524136 0.34090364
-0.037146479 0.071526088 0.34091961
-0.036827575 0.07149259 0.34076667
-0.03651876 0.071478292 0.34070516
-0.036197994 0.071440183 0.3405301
-0.035888556 0.071423963 0.34045932
-0.035582539 0.071414351 0.34041995
-0.035274211 0.07139989 0.34035742
-0.034952767 0.071358398 0.340166
-0.034650695 0.071356103 0.34016132
-0.034338038 0.071331754 0.34005153
-0.034031767 0.07132037 0.34000346
-0.033704918 0.071265265 0.33974686
-0.033392109 0.071239129 0.33962837
-0.033093177 0.071242392 0.33964995
-0.032794144 0.071245492 0.33967069
-0.032468773 0.071190916 0.33941638
-0.032172032 0.071198672 0.33945921
-0.031842619 0.071133599 0.33915472
-0.031535666 0.07111793 0.33908576
-0.031236757 0.071120262 0.33910257
-0.030920558 0.071082905 0.33893007
-0.030607961 0.071053192 0.33879393
-0.030303285 0.071041442 0.33874345
-0.029988067 0.07100451 0.33857277
-0.029695408 0.071020782 0.33865577
-0.029374117 0.070968218 0.33841044
-0.029053248 0.070915595 0.33816481
-0.028750917 0.0709076 0.3381319
-0.028446479 0.070894189 0.33807307
