# .PCD v0.7 - Point Cloud Data file format
VERSION 0.7
FIELDS x y z
SIZE 4 4 4
TYPE F F F
COUNT 1 1 1
WIDTH 1340
HEIGHT 1
VIEWPOINT 0 0 0 1 0 0 0
POINTS 1340
DATA ascii
-0.10825495 -0.015867785 0.40563995
-0.1078781 -0.015865225 0.40559343
-0.10755019 -0.015869871 0.40573105
-0.1072228 -0.015874622 0.40587139
-0.10691335 -0.015882075 0.40608075
-0.1509999 -0.016039239 0.41736594
-0.15066756 -0.01604344 0.41749629
-0.15028614 -0.016042423 0.41749093
-0.14974126 -0.01602391 0.41703022
-0.14931659 -0.016018199 0.41690269
-0.14894456 -0.016018121 0.41692171
-0.14853312 -0.016013796 0.41683024
-0.14804938 -0.016001629 0.4165346
-0.14766546 -0.016000221 0.41651905
-0.14721182 -0.015991233 0.41630611
-0.14685684 -0.015992943 0.4163717
-0.14636254 -0.015979452 0.41604149
-0.1459633 -0.015976293 0.41598034
-0.14554907 -0.015971476 0.415876
-0.1451198 -0.015964979 0.41572788
-0.14471336 -0.015960969 0.41564444
-0.14427102 -0.015952965 0.41545707
-0.14384878 -0.01594715 0.41532665
-0.14347689 -0.0159469 0.41534123
-0.14309905 -0.015945993 0.41533855
-0.14260644 -0.015932249 0.41500157
-0.14225869 -0.015934665 0.41508552
-0.14175177 -0.015919216 0.41470405
-0.14138883 -0.0159199 0.41474286
-0.14096881 -0.015914142 0.41461384
-0.14050297 -0.015903169 0.41434887
-0.14014433 -0.015904302 0.41439939
-0.13969137 -0.015894707 0.41417032
-0.13924 -0.015885247 0.41394466
-0.13885008 -0.015882762 0.41390091
-0.13842794 -0.015876574 0.41376048
-0.13803168 -0.015873324 0.41369668
-0.1376393 -0.015870506 0.41364411
-0.1372138 -0.01586384 0.41349128
-0.13684098 -0.015863253 0.41349679
-0.13636442 -0.015850598 0.41318774
-0.13598582 -0.015849294 0.4131746
-0.13556585 -0.015843146 0.41303512
-0.13514975 -0.015837422 0.41290668
-0.13476102 -0.015834879 0.41286117
-0.13433228 -0.015827611 0.41269246
-0.13392603 -0.015822958 0.41259187
-0.13344999 -0.015810011 0.41227496
-0.1330567 -0.015806826 0.41221261
-0.13269459 -0.015807336 0.41224658
-0.13226849 -0.015800206 0.4120813
-0.13186708 -0.015795991 0.41199204
-0.13147937 -0.0157934 0.41194507
-0.13109154 -0.015790779 0.41189736
-0.13066736 -0.015783755 0.4117347
-0.13026041 -0.015778774 0.41162542
-0.12984452 -0.015772682 0.41148704
-0.12939329 -0.015762256 0.41123551
-0.1289953 -0.015758267 0.41115198
-0.12860332 -0.015754992 0.41108701
-0.12817852 -0.01574767 0.41091645
-0.12781453 -0.015747795 0.41094014
-0.12736857 -0.015737796 0.41069961
-0.12696582 -0.015733091 0.41059723
-0.12661071 -0.01573428 0.41064864
-0.12615356 -0.015722757 0.41036829
-0.12576023 -0.015719146 0.41029435
-0.12536831 -0.01571569 0.41022447
-0.12492613 -0.015705897 0.40998909
-0.12456308 -0.015706021 0.4100126
-0.12412398 -0.015696529 0.40978506
-0.12376789 -0.015697511 0.4098309
-0.12333728 -0.015689019 0.40962934
-0.12294035 -0.015684772 0.40953863
-0.12248166 -0.015672602 0.40924093
-0.12211582 -0.015672272 0.40925243
-0.12173244 -0.015669681 0.40920487
-0.12137194 -0.015670031 0.40923405
-0.12096217 -0.015664002 0.40909663
-0.12064153 -0.015669513 0.40926057
-0.12030475 -0.015672954 0.40937042
-0.11997724 -0.015677629 0.40951249
-0.11968303 -0.015686696 0.40976927
-0.11335761 -0.015567019 0.40693703
-0.1128924 -0.015552636 0.40658045
-0.11251488 -0.015550282 0.40653825
-0.11212336 -0.015545971 0.40644482
-0.1117587 -0.015545369 0.40644836
-0.11132955 -0.015535763 0.40621647
-0.11091393 -0.015527989 0.40603235
-0.1105289 -0.015524463 0.40595928
-0.11014337 -0.015520842 0.4058837
-0.10974406 -0.015515247 0.4057565
-0.10937726 -0.015514228 0.4057489
-0.10898521 -0.01550961 0.40564713
-0.10861185 -0.015507629 0.40561429
-0.10825465 -0.01550795 0.40564162
-0.10789072 -0.015507305 0.40564364
-0.10754515 -0.015509306 0.40571484
-0.10718972 -0.01550989 0.40574899
-0.10685038 -0.015512818 0.40584433
-0.15112634 -0.015680213 0.41771764
-0.15068895 -0.015673421 0.41755784
-0.15023784 -0.015665166 0.41735896
-0.14988211 -0.015666844 0.41742474
-0.14944793 -0.015660306 0.41727167
-0.14898548 -0.015650766 0.41703847
-0.14862674 -0.0156521 0.41709515
-0.1481224 -0.015638068 0.41674238
-0.14774628 -0.015637539 0.4167493
-0.14729173 -0.015628682 0.41653436
-0.14686877 -0.015623142 0.41640773
-0.14645408 -0.015618457 0.41630396
-0.14604224 -0.015614051 0.41620761
-0.14559664 -0.015606004 0.41601416
-0.14519262 -0.015602388 0.41593882
-0.14478233 -0.015598075 0.41584489
-0.14434259 -0.015590557 0.41566551
-0.14388198 -0.015580743 0.41542482
-0.14349149 -0.01557849 0.41538581
-0.14314491 -0.015581006 0.41547391
-0.14270452 -0.015573295 0.41528934
-0.14230919 -0.015570477 0.41523516
-0.14183524 -0.015559019 0.41495058
-0.14147034 -0.015559494 0.41498426
-0.14100428 -0.015548816 0.41472042
-0.14057717 -0.01554239 0.41457
-0.14016759 -0.015537871 0.41447046
-0.13970691 -0.015527652 0.41421878
-0.13929114 -0.015522381 0.4140991
-0.13894175 -0.015524502 0.41417658
-0.13851115 -0.015517534 0.41401157
-0.13811176 -0.015514033 0.41393909
-0.13768961 -0.01550795 0.41379771
-0.137265 -0.01550156 0.41364804
-0.13687113 -0.015498612 0.41359025
-0.13650627 -0.015498945 0.41361997
-0.13605018 -0.015488893 0.41337252
-0.13562317 -0.015482105 0.41321218
-0.13524094 -0.015480406 0.41318765
-0.13476886 -0.015468386 0.4128876
-0.13437797 -0.015465645 0.41283521
-0.13394535 -0.015458072 0.41265377
-0.13358173 -0.015458441 0.41268438
-0.13311508 -0.015446859 0.41239586
-0.13272539 -0.015444166 0.41234469
-0.13230476 -0.015437851 0.41219676
-0.13192661 -0.015436468 0.41218048
-0.13151531 -0.01543119 0.41206014
-0.13109145 -0.015424401 0.41189954
-0.1307283 -0.01542474 0.41192919
-0.13028054 -0.015415069 0.41169146
-0.12990183 -0.015413537 0.41167113
-0.12944657 -0.015402886 0.41140723
-0.12905225 -0.01539945 0.41133595
-0.1286376 -0.015393561 0.41119912
-0.1282714 -0.015393452 0.41121668
-0.12789668 -0.015392316 0.41120678
-0.12743807 -0.015381048 0.41092622
-0.12702113 -0.015374761 0.41077864
-0.12665617 -0.015374745 0.41079864
-0.12620246 -0.015363925 0.41052988
-0.12581456 -0.015361075 0.41047409
-0.125374 -0.015351766 0.4102456
-0.12500113 -0.015350711 0.41023773
-0.12459785 -0.015345906 0.41012958
-0.12417826 -0.015339059 0.40996683
-0.1238113 -0.015338692 0.4099772
-0.12339275 -0.015331911 0.40981615
-0.12295722 -0.015322974 0.40959743
-0.12260674 -0.015324615 0.40966141
-0.1221526 -0.01531327 0.40937823
-0.12177327 -0.015311265 0.4093447
-0.12139417 -0.015309277 0.40931159
-0.12100281 -0.015305721 0.40923661
-0.12064718 -0.015306684 0.40928233
-0.12030321 -0.015309133 0.40936777
-0.12000583 -0.015317543 0.40961263
-0.11969331 -0.015324065 0.40980703
-0.11334897 -0.015204693 0.40690863
-0.11293387 -0.015197387 0.40673247
-0.11255869 -0.015195417 0.40669912
-0.11218743 -0.015193973 0.40667975
-0.11180042 -0.015190376 0.40660274
-0.11136962 -0.015180787 0.40636533
-0.11096264 -0.015174393 0.40621334
-0.11057635 -0.015170795 0.40613621
-0.11019337 -0.015167631 0.40607062
-0.10978951 -0.015161563 0.40592721
-0.10940412 -0.015158012 0.40585119
-0.10900193 -0.015152102 0.40571201
-0.10863006 -0.015150384 0.40568495
-0.10828748 -0.015152753 0.40576729
-0.1079011 -0.015148985 0.40568537
-0.10753434 -0.01514796 0.40567675
-0.10719376 -0.015150626 0.40576699
-0.10684253 -0.015151796 0.40581718
-0.10652307 -0.015157502 0.40598875
-0.10620734 -0.015163775 0.40617549
-0.15153582 -0.015311533 0.41780177
-0.15120892 -0.015316122 0.41794807
-0.15075721 -0.015308058 0.41774911
-0.15036134 -0.01530564 0.41770425
-0.14995219 -0.015301857 0.41762209
-0.14947848 -0.01529145 0.41735914
-0.14905958 -0.015286609 0.41724813
-0.14870423 -0.015288278 0.41731483
-0.14826924 -0.01528175 0.41715768
-0.14779933 -0.015271579 0.41690114
-0.14736134 -0.015264665 0.41673347
-0.14687176 -0.015252355 0.41641849
-0.14648704 -0.015250904 0.4163999
-0.14611086 -0.015250332 0.41640541
-0.14570323 -0.015246469 0.41632095
-0.14526808 -0.0152397 0.41615719
-0.14483352 -0.015232958 0.41599414
-0.14448182 -0.015234916 0.41606873
-0.14394559 -0.015217379 0.41561076
-0.14354901 -0.01521455 0.41555455
-0.14316015 -0.015212529 0.4155204
-0.14275165 -0.015208406 0.41542876
-0.14235054 -0.015205051 0.41535813
-0.14196227 -0.015203051 0.41532457
-0.1414647 -0.015189305 0.41496998
-0.14107801 -0.015187426 0.41493961
-0.14070128 -0.01518661 0.4149383
-0.14022997 -0.015175553 0.41465721
-0.13979989 -0.015168916 0.41449681
-0.13940075 -0.015165606 0.41442728
-0.13904846 -0.015167391 0.41449699
-0.13858461 -0.015156982 0.41423342
-0.1381671 -0.015151602 0.41410726
-0.13777316 -0.015148782 0.41405112
-0.13734473 -0.015142145 0.41389057
-0.13691396 -0.015135214 0.41372201
-0.13651641 -0.015131926 0.41365302
-0.13611487 -0.01512818 0.41357142
-0.13566434 -0.015118953 0.41334
-0.13526198 -0.015115058 0.41325429
-0.13485007 -0.015110073 0.41313881
-0.13445722 -0.0151072 0.41308102
-0.13401759 -0.015099042 0.41287869
-0.13363048 -0.015096774 0.41283742
-0.13325961 -0.015096331 0.412846
-0.13283224 -0.015089468 0.41267908
-0.13235153 -0.01507649 0.41234481
-0.13196535 -0.01507424 0.41230392
-0.13158761 -0.015072944 0.41228908
-0.1311722 -0.01506731 0.41215566
-0.13077351 -0.015063575 0.41207406
-0.13035767 -0.015057834 0.41193762
-0.129941 -0.015051966 0.41179767
-0.12951326 -0.01504478 0.41162163
-0.12906876 -0.015035599 0.41139096
-0.12873636 -0.015039465 0.41151723
-0.12834157 -0.015036041 0.41144407
-0.12795603 -0.015033684 0.41140002
-0.1275081 -0.015023964 0.41115445
-0.12706657 -0.015014943 0.41092798
-0.12666644 -0.015010777 0.41083434
-0.12631841 -0.015012776 0.41090947
-0.1258761 -0.015003555 0.4106774
-0.12542652 -0.014993405 0.41041991
-0.12508853 -0.014996577 0.41052705
-0.12464917 -0.014987581 0.41030103
-0.12422021 -0.014979783 0.41010779
-0.12386031 -0.014980292 0.41014194
-0.12346566 -0.01497659 0.41006079
-0.12304913 -0.014970204 0.40990606
-0.12264132 -0.014964844 0.40977946
-0.12223711 -0.014959891 0.40966395
-0.12182783 -0.014954288 0.40953058
-0.12143812 -0.01495106 0.40946221
-0.12104571 -0.014947479 0.40938422
-0.12068748 -0.014948109 0.4094215
-0.12033057 -0.014948911 0.40946341
-0.1199815 -0.01495069 0.40953213
-0.11966255 -0.014956244 0.40970424
-0.1193485 -0.01496245 0.40989417
-0.11411 -0.014895801 0.40832397
-0.11341349 -0.014852004 0.40714282
-0.1129957 -0.014844544 0.40695772
-0.11259582 -0.014839395 0.40683588
-0.11222266 -0.014837747 0.40681002
-0.11184858 -0.014835965 0.40678045
-0.11144191 -0.014829837 0.40663165
-0.11103619 -0.014823794 0.40648517
-0.11068667 -0.014825242 0.40654403
-0.11023278 -0.01481267 0.40621841
-0.10985404 -0.01481015 0.4061684
-0.10944183 -0.014803086 0.4059937
-0.10905464 -0.014799369 0.40591082
-0.1087082 -0.014801179 0.40597939
-0.1082919 -0.014793455 0.40578648
-0.10791872 -0.01479159 0.40575424
-0.10754971 -0.014790286 0.40573734
-0.10718983 -0.014790232 0.40575475
-0.10684039 -0.014791623 0.40581167
-0.10648929 -0.014792796 0.40586263
-0.10615879 -0.014796845 0.40599242
-0.10584725 -0.014803574 0.40619579
-0.15165865 -0.014951093 0.41814253
-0.15132044 -0.014954482 0.41825846
-0.15092981 -0.014952694 0.41822952
-0.15043552 -0.014940604 0.41791248
-0.14996335 -0.014930653 0.41765526
-0.14954036 -0.014925565 0.41753402
-0.14921288 -0.014930007 0.41767937
-0.14871112 -0.01491699 0.41733634
-0.14833677 -0.014916717 0.41734979
-0.14783122 -0.014903218 0.41699323
-0.14746433 -0.014903666 0.41702685
-0.14698359 -0.014892581 0.41673774
-0.1465974 -0.014891042 0.41671577
-0.14612751 -0.01488097 0.416455
-0.14572179 -0.014877402 0.4163762
-0.14533909 -0.014876167 0.41636273
-0.14484468 -0.014863469 0.41602835
-0.14447364 -0.014863396 0.41604733
-0.14407463 -0.014860436 0.41598552
-0.14360622 -0.014850284 0.4157224
-0.14318873 -0.01484536 0.4156056
-0.14282215 -0.0148457 0.41563615
-0.14238444 -0.014838631 0.41545925
-0.14201279 -0.014838426 0.41547453
-0.1415457 -0.014828221 0.4152098
-0.14110532 -0.014820774 0.41502222
-0.14071719 -0.014818785 0.4149875
-0.14028889 -0.014812546 0.41483375
-0.13991547 -0.014812079 0.41484168
-0.13948336 -0.014805385 0.41467512
-0.13909391 -0.014803195 0.4146347
-0.13863787 -0.014793884 0.41439486
-0.13819386 -0.014785814 0.41418973
-0.13790807 -0.014794675 0.41445884
-0.13736393 -0.014775794 0.41395074
-0.13694881 -0.014770724 0.41382959
-0.13651837 -0.014763974 0.41366127
-0.1361382 -0.014762633 0.41364458
-0.13575584 -0.014761051 0.4136211
-0.13531615 -0.014753208 0.41342211
-0.13496429 -0.014754925 0.41349104
-0.13448818 -0.014743028 0.41317844
-0.13409999 -0.014740734 0.41313487
-0.13368119 -0.014735053 0.41299641
-0.13326605 -0.014729743 0.41286832
-0.13288617 -0.014728312 0.41284895
-0.13243 -0.014718396 0.41259164
-0.13202035 -0.014713607 0.41247809
-0.13162875 -0.014710811 0.41242033
-0.13116463 -0.01469987 0.41213423
-0.130816 -0.014701848 0.41221029
-0.13045357 -0.014702281 0.41224307
-0.12996255 -0.014688184 0.41186833
-0.12957548 -0.014685787 0.41182172
-0.12914044 -0.014677928 0.41162184
-0.12874395 -0.014674415 0.41154382
-0.12837881 -0.01467447 0.41156584
-0.12799428 -0.014672297 0.41152543
-0.12756653 -0.014665147 0.41134527
-0.12719692 -0.014664655 0.41135192
-0.12672226 -0.014652016 0.41101781
-0.12634094 -0.014650128 0.41098517
-0.12589954 -0.014641239 0.4107562
-0.12557447 -0.014645871 0.41090643
-0.12513831 -0.014637534 0.41069281
-0.12470686 -0.014629696 0.41049325
-0.12433657 -0.014629015 0.41049436
-0.12389989 -0.014620491 0.41027543
-0.1235233 -0.014619031 0.41025463
-0.12307 -0.014608456 0.40997803
-0.1227086 -0.014608759 0.41000667
-0.12227711 -0.014600693 0.40980044
-0.1218558 -0.014593802 0.40962708
-0.12148041 -0.014592381 0.40960729
-0.12111167 -0.014591755 0.40960974
-0.12070519 -0.014586566 0.40948406
-0.12032161 -0.014584118 0.40943536
-0.11994985 -0.014583094 0.40942654
-0.11954247 -0.014577719 0.40929559
-0.11919793 -0.01458 0.40937951
-0.11891147 -0.014589419 0.40966386
-0.11410867 -0.014533224 0.40832171
-0.11342262 -0.014491828 0.40717813
-0.11304732 -0.014489999 0.40714613
-0.11266264 -0.014486952 0.40707988
-0.11228549 -0.014484857 0.40704033
-0.11190376 -0.014482155 0.4069837
-0.11148449 -0.014474563 0.40678957
-0.11110783 -0.014472471 0.40674996
-0.11066306 -0.014461464 0.40645981
-0.11029076 -0.014459888 0.40643463
-0.10987319 -0.014452347 0.40624177
-0.10947827 -0.014447743 0.40613142
-0.10911394 -0.014447163 0.4061341
-0.10872144 -0.014442833 0.4060314
-0.10832994 -0.014438609 0.40593159
-0.10795297 -0.014436299 0.40588555
-0.10755946 -0.014431755 0.40577665
-0.10719819 -0.014431522 0.40578893
-0.10685454 -0.014433664 0.40586802
-0.10650795 -0.014435426 0.4059363
-0.10614141 -0.014434486 0.40592858
-0.10580374 -0.014437478 0.40603146
-0.10550494 -0.014445812 0.40628454
-0.15216225 -0.014590812 0.41848397
-0.15181921 -0.014593674 0.41858721
-0.15133901 -0.014583335 0.41831177
-0.15094317 -0.014581094 0.41826865
-0.15057234 -0.014581266 0.41829464
-0.15003778 -0.01456554 0.41786465
-0.14959338 -0.014558512 0.41768414
-0.14921689 -0.014558075 0.41769272
-0.14881915 -0.014555559 0.41764161
-0.14834028 -0.014545071 0.41736183
-0.14795853 -0.014544078 0.41735443
-0.14753231 -0.014538701 0.41722122
-0.14704885 -0.014527638 0.41692483
-0.14669456 -0.014529315 0.41699404
-0.14622092 -0.014519149 0.41672337
-0.1457741 -0.0145116 0.41652778
-0.14541224 -0.01451249 0.41657442
-0.14497648 -0.014505995 0.41640905
-0.14452183 -0.01449757 0.41618824
-0.14409888 -0.014492289 0.41605771
-0.14371178 -0.014490596 0.41603011
-0.14328451 -0.014484834 0.41588575
-0.14285025 -0.014478333 0.41572013
-0.14241755 -0.014471956 0.41555801
-0.14206932 -0.014474153 0.41564208
-0.14156841 -0.014460764 0.41527861
-0.14113657 -0.014454379 0.41511628
-0.14079903 -0.014457646 0.41523105
-0.14033607 -0.014448012 0.41497535
-0.13997938 -0.014449301 0.41503337
-0.13951875 -0.014439839 0.41478252
-0.1391501 -0.014439872 0.4148044
-0.13868263 -0.014429622 0.4145309
-0.13830489 -0.014428679 0.41452473
-0.13785902 -0.014420604 0.41431367
-0.13748427 -0.014419946 0.41431561
-0.13703044 -0.014410967 0.4140785
-0.1366546 -0.014410164 0.4140763
-0.13619934 -0.014400959 0.4138326
-0.13582423 -0.014400202 0.41383174
-0.13540174 -0.014394401 0.41368583
-0.13499725 -0.014390491 0.41359428
-0.13459028 -0.014386294 0.41349441
-0.13413373 -0.014376759 0.41324109
-0.13374734 -0.014374712 0.41320303
-0.13338085 -0.014374797 0.41322622
-0.13288188 -0.014360568 0.41283786
-0.13250887 -0.014359908 0.41283962
-0.13208687 -0.014353922 0.41268817
-0.13168789 -0.014350411 0.41260791
-0.13127021 -0.014344837 0.41246825
-0.13085502 -0.014339504 0.41233557
-0.13045105 -0.014335373 0.41223741
-0.13004927 -0.014331461 0.41214547
-0.12969714 -0.014333015 0.41221073
-0.12919138 -0.014317551 0.41178653
-0.12884298 -0.014319487 0.41186273
-0.12842105 -0.01431324 0.41170353
-0.12802704 -0.014310077 0.41163298
-0.12765895 -0.014309802 0.41164556
-0.12722863 -0.014302529 0.41145682
-0.1267674 -0.014291729 0.41116649
-0.12636618 -0.014287655 0.41106963
-0.12596406 -0.014283451 0.41096905
-0.1256083 -0.014284496 0.41101947
-0.12526594 -0.014287077 0.41111404
-0.1247763 -0.014272825 0.41072425
-0.12433736 -0.014264304 0.4104993
-0.12396337 -0.01426321 0.41048801
-0.12357839 -0.014260838 0.41043997
-0.12317093 -0.014255852 0.41031665
-0.1227529 -0.014249607 0.41015708
-0.12232691 -0.0142424 0.40996972
-0.12194653 -0.014240475 0.40993443
-0.12151215 -0.014232215 0.40971667
-0.12112344 -0.01422927 0.40965194
-0.12072547 -0.014225214 0.4095552
-0.12034608 -0.014223332 0.40952098
-0.11998355 -0.014223436 0.40954393
-0.11958393 -0.014219131 0.40943995
-0.11922634 -0.014219812 0.40947944
-0.11890028 -0.014224268 0.40962768
-0.11869175 -0.014242859 0.41018292
-0.11495242 -0.014185578 0.40871042
-0.11457595 -0.014183844 0.40867996
-0.11410757 -0.014170682 0.40832025
-0.11355604 -0.014147079 0.40765956
-0.11306607 -0.014131016 0.4072161
-0.11268575 -0.014128598 0.4071658
-0.11232784 -0.014128986 0.40719628
-0.11190639 -0.014121357 0.40699568
-0.1115534 -0.014122345 0.40704346
-0.11111984 -0.014113109 0.40679643
-0.11073919 -0.014110551 0.40674192
-0.11036099 -0.014108293 0.40669593
-0.10992307 -0.014098357 0.40642864
-0.10954083 -0.014095522 0.40636596
-0.10913587 -0.014089737 0.40621817
-0.10879122 -0.014091725 0.40629449
-0.10834192 -0.014080124 0.40597898
-0.10799561 -0.014081876 0.40604839
-0.10758285 -0.014074945 0.40586743
-0.10722991 -0.014075821 0.40591154
-0.10684837 -0.014072936 0.40584713
-0.10650497 -0.014075072 0.40592748
-0.10614798 -0.01407542 0.40595627
-0.10579918 -0.014076859 0.40601647
-0.10544331 -0.014077364 0.40604976
-0.10514523 -0.014085615 0.40630636
-0.15226717 -0.01422744 0.41877452
-0.15185922 -0.014224176 0.41869956
-0.15147388 -0.014223018 0.4186866
-0.15108556 -0.014221574 0.4186652
-0.15059499 -0.014210476 0.41835961
-0.15015723 -0.014204316 0.41819936
-0.14965278 -0.014191801 0.41785204
-0.1492811 -0.014191844 0.41787446
-0.14883976 -0.014185253 0.41770142
-0.1483942 -0.014178224 0.41751558
-0.14795506 -0.014171774 0.41734675
-0.14758055 -0.014171496 0.41735968
-0.14717492 -0.014168222 0.41728437
-0.14676303 -0.014164328 0.41719076
-0.1463418 -0.01415951 0.41706994
-0.14591719 -0.014154339 0.41693872
-0.14545445 -0.014145433 0.41669747
-0.14503069 -0.014140283 0.41656682
-0.1445967 -0.014134106 0.41640595
-0.14417118 -0.014128727 0.41626853
-0.14374098 -0.014122862 0.41611677
-0.1432997 -0.014115876 0.41593191
-0.14294329 -0.014117233 0.41599298
-0.14248483 -0.014108492 0.41575643
-0.14209014 -0.014106038 0.41570514
-0.14166909 -0.014100947 0.41557613
-0.14123967 -0.014094993 0.41542163
-0.14080116 -0.0140881 0.41523945
-0.14042258 -0.014087182 0.41523337
-0.14000151 -0.014081984 0.41510111
-0.13960497 -0.014079234 0.415041
-0.13919292 -0.014074899 0.41493422
-0.1387552 -0.01406794 0.41474998
-0.13836162 -0.014065431 0.41469693
-0.13792603 -0.014058626 0.41451719
-0.1375128 -0.01405407 0.41440374
-0.13714786 -0.014054436 0.41443545
-0.1366571 -0.014041879 0.41408607
-0.13626286 -0.014039199 0.41402784
-0.13583457 -0.014032985 0.41386539
-0.13545209 -0.014031481 0.41384184
-0.13502018 -0.014024836 0.4136667
-0.13464259 -0.014023812 0.41365728
-0.13424295 -0.014020481 0.41357976
-0.13380705 -0.014013332 0.41338968
-0.13341454 -0.014010702 0.41333282
-0.13307524 -0.014013659 0.41344079
-0.1325759 -0.013999734 0.41305065
-0.13216454 -0.013995047 0.41293308
-0.13173415 -0.013988312 0.41275507
-0.13136229 -0.013987775 0.41275984
-0.13092597 -0.013980348 0.4125613
-0.13047658 -0.013971483 0.41232029
-0.1300813 -0.013968377 0.41224921
-0.12970637 -0.013967446 0.41224232
-0.12930678 -0.013963846 0.41215658
-0.12885275 -0.013954329 0.4118962
-0.12851222 -0.013957086 0.41199806
-0.12806095 -0.013947797 0.41174436
-0.12769435 -0.013947701 0.411762
-0.12727021 -0.013941303 0.41159353
-0.12688252 -0.013938872 0.41154218
-0.12643805 -0.013930173 0.41130573
-0.12601066 -0.013923306 0.41112337
-0.12562019 -0.013920496 0.41106069
-0.12526834 -0.013921959 0.4111242
-0.12475537 -0.013905472 0.41065761
-0.12439443 -0.013905884 0.41069004
-0.12398627 -0.013901003 0.41056609
-0.12357564 -0.013895817 0.41043317
-0.12323778 -0.013898804 0.41054159
-0.12278497 -0.013888809 0.41026652
-0.12240142 -0.013886612 0.41022176
-0.1219877 -0.01388097 0.41007513
-0.12155297 -0.013872895 0.40985665
-0.12121424 -0.013875761 0.40996137
-0.12078401 -0.013868136 0.40975612
-0.12037054 -0.013862398 0.40960658
-0.1199657 -0.013857624 0.4094854
-0.11961829 -0.013859469 0.40955991
-0.11921404 -0.013854722 0.40943953
-0.11891419 -0.013862119 0.40967801
-0.11866599 -0.013875597 0.41009623
-0.11834861 -0.013881045 0.41027713
-0.11672456 -0.013861078 0.40976605
-0.11552869 -0.013848429 0.40945107
-0.11504768 -0.013834251 0.40905151
-0.11462899 -0.013827505 0.40887156
-0.1140471 -0.013800963 0.40810624
-0.11359461 -0.013789963 0.40780038
-0.11318072 -0.013783591 0.4076314
-0.11279479 -0.013780598 0.40756223
-0.11237823 -0.01377383 0.40738142
-0.11196937 -0.013767962 0.40722716
-0.11154994 -0.013760757 0.40703326
-0.11118487 -0.013760231 0.4070369
-0.11081374 -0.013758947 0.40701815
-0.11040849 -0.013753408 0.4068734
-0.10997815 -0.013744691 0.40663472
-0.10963613 -0.013746997 0.40672195
-0.1091929 -0.013736584 0.40643293
-0.10880854 -0.013733531 0.40636158
-0.10840984 -0.013728644 0.4062359
-0.10802456 -0.013725427 0.40615964
-0.10765053 -0.013723624 0.40612522
-0.10724035 -0.013717184 0.40595347
-0.10686011 -0.013714544 0.40589413
-0.10650755 -0.013715453 0.40593976
-0.10615563 -0.013716449 0.40598798
-0.10580163 -0.013717181 0.40602836
-0.10545194 -0.013718479 0.40608546
-0.10511253 -0.013721129 0.4061825
-0.10481294 -0.013729011 0.40643445
-0.15272212 -0.01386144 0.41897991
-0.15230232 -0.01385721 0.41887313
-0.15190916 -0.013855388 0.41883922
-0.15150119 -0.013852204 0.41876405
-0.15117386 -0.013856394 0.41891187
-0.1506644 -0.013843868 0.41855437
-0.15017778 -0.013833387 0.41825855
-0.14982191 -0.013834927 0.41832626
-0.14928074 -0.013819321 0.4178755
-0.14890701 -0.013819174 0.41789219
-0.1485455 -0.013820166 0.41794327
-0.14810354 -0.013813654 0.41776749
-0.14760081 -0.013801432 0.41741899
-0.14718047 -0.013796872 0.4173021
-0.14678545 -0.013794666 0.4172565
-0.14636566 -0.013790117 0.41713998
-0.14591336 -0.01378247 0.41692978
-0.14554057 -0.013782316 0.4169462
-0.14509165 -0.013774936 0.41674399
-0.14462937 -0.013766244 0.41650212
-0.144271 -0.013767419 0.41655877
-0.14388791 -0.013766242 0.41654417
-0.14342499 -0.013757396 0.41629761
-0.14298099 -0.013750328 0.4161047
-0.14254522 -0.013744014 0.41593471
-0.14219064 -0.013745517 0.4160012
-0.14175345 -0.013739022 0.41582564
-0.14129795 -0.013730712 0.41559514
-0.1408523 -0.013723318 0.41539231
-0.14046989 -0.013722063 0.41537532
-0.14000808 -0.013713023 0.41512266
-0.13967794 -0.013716869 0.41526005
-0.13921036 -0.0137072 0.41498828
-0.13885011 -0.013708077 0.41503575
-0.1384096 -0.013701014 0.41484284
-0.13800724 -0.013697699 0.41476333
-0.1375605 -0.01368995 0.41454962
-0.13716298 -0.01368707 0.41448331
-0.13680214 -0.013687844 0.41452762
-0.13631502 -0.013675953 0.41418839
-0.13592039 -0.013673305 0.41412899
-0.1355242 -0.013670481 0.41406432
-0.13511266 -0.013666091 0.41395214
-0.13473329 -0.013664939 0.41393811
-0.13426359 -0.013654595 0.41364554
-0.13385002 -0.013649918 0.41352457
-0.13348241 -0.013649914 0.41354522
-0.13305916 -0.013644207 0.41339299
-0.13260718 -0.013635512 0.41315028
-0.13221689 -0.01363313 0.41309881
-0.13180381 -0.013628379 0.41297549
-0.13143206 -0.013627884 0.41298121
-0.1309721 -0.013618218 0.41270885
-0.13058501 -0.013616094 0.41266516
-0.13015619 -0.013609595 0.41248873
-0.12978548 -0.013609152 0.41249591
-0.12934963 -0.013601858 0.41229537
-0.12895781 -0.013599164 0.41223422
-0.12853046 -0.013592697 0.41205871
-0.12814908 -0.01359107 0.41202986
-0.12769394 -0.013581586 0.4117628
-0.12733111 -0.013581897 0.41179267
-0.12692337 -0.013577406 0.41167691
-0.12647912 -0.013568969 0.41144153
-0.12610631 -0.013568172 0.41143769
-0.12570892 -0.013564716 0.41135323
-0.12529618 -0.013559578 0.41121778
-0.12489346 -0.013555499 0.41111439
-0.12444866 -0.013546818 0.4108713
-0.12408766 -0.013547231 0.41090411
-0.12369779 -0.013544486 0.41084108
-0.12328696 -0.013539423 0.41070771
-0.12284172 -0.01353054 0.41045839
-0.12246946 -0.013529667 0.41045201
-0.12202942 -0.013521277 0.41021761
-0.12161264 -0.013515425 0.41006011
-0.12123146 -0.013513503 0.41002187
-0.1208516 -0.013511716 0.40998769
-0.12043983 -0.013506344 0.40984464
-0.11998411 -0.013495995 0.40955055
-0.11958621 -0.013492102 0.40945235
-0.11927195 -0.013497653 0.40964076
-0.11893909 -0.013501129 0.40976611
-0.11864141 -0.013508627 0.41001359
-0.11833579 -0.013515268 0.41023499
-0.11793642 -0.013511212 0.41013166
-0.11755403 -0.013509077 0.41008666
-0.11717175 -0.013506941 0.41004166
-0.11678957 -0.013504808 0.4099966
-0.11592339 -0.013488649 0.40954539
-0.11549861 -0.013481463 0.40934682
-0.11509851 -0.013477121 0.40923458
-0.11451244 -0.013450908 0.40845817
-0.11406481 -0.013440841 0.40817192
-0.11367147 -0.013437129 0.40807864
-0.11323044 -0.013427736 0.4078128
-0.11284088 -0.013424407 0.40773109
-0.11238728 -0.013413414 0.40741649
-0.11203214 -0.013414137 0.4074578
-0.11160909 -0.013406711 0.40725148
-0.111251 -0.013407062 0.40728134
-0.11082238 -0.013398887 0.40705222
-0.11046239 -0.013398984 0.40707433
-0.11001157 -0.013388032 0.40676069
-0.10965098 -0.013388022 0.40677944
-0.10924662 -0.013382648 0.40663522
-0.10886223 -0.013379695 0.40656447
-0.1084699 -0.013375743 0.40646335
-0.10805647 -0.013369152 0.40628201
-0.10766758 -0.013365568 0.40619192
-0.10728239 -0.013362416 0.40611503
-0.10691465 -0.013361425 0.4061037
-0.1065314 -0.013358482 0.40603301
-0.10615624 -0.013356538 0.40599269
-0.10580526 -0.013357633 0.4060446
-0.10544077 -0.013357026 0.40604481
-0.10509858 -0.013359245 0.40613091
-0.1047647 -0.013362543 0.40624979
-0.15282628 -0.013497009 0.41926754
-0.15241846 -0.013493975 0.41919443
-0.15197407 -0.01348768 0.41902003
-0.15160666 -0.013488206 0.41905746
-0.15112275 -0.013478342 0.41877213
-0.15070347 -0.013474209 0.41866484
-0.15023862 -0.013465968 0.41842994
-0.1498566 -0.013465129 0.41842502
-0.14942759 -0.013460055 0.41828844
-0.14899723 -0.013454834 0.4181473
-0.14860269 -0.013452826 0.41810608
-0.14813609 -0.013444272 0.41786128
-0.14771515 -0.013439827 0.41774428
-0.14724824 -0.013431166 0.41749617
-0.14682394 -0.01342636 0.41736788
-0.14637087 -0.013418891 0.41715679
-0.14599362 -0.013418352 0.41716114
-0.14555776 -0.013412407 0.4169974
-0.14516643 -0.013410551 0.41696075
-0.14472865 -0.013404379 0.41678995
-0.14432552 -0.013401396 0.41671824
-0.14390655 -0.013396922 0.41660014
-0.14349899 -0.013393485 0.41651437
-0.14303373 -0.013384634 0.41626015
-0.14261569 -0.013380171 0.41614237
-0.14217004 -0.013373083 0.415943
-0.14176168 -0.013369475 0.41585174
-0.14134665 -0.013365218 0.41574037
-0.14102548 -0.013369838 0.41590509
-0.14059539 -0.013364131 0.41574851
-0.14008002 -0.01335026 0.41533801
-0.13968253 -0.013347585 0.41527572
-0.13929246 -0.013345606 0.4152351
-0.13887019 -0.013340521 0.4150978
-0.13850603 -0.013341007 0.41513389
-0.13805847 -0.013333441 0.41491938
-0.13758864 -0.013323677 0.41463643
-0.13720445 -0.013322179 0.41461065
-0.13681489 -0.013320147 0.41456836
-0.13638607 -0.013314271 0.4144063
-0.13597955 -0.013310549 0.41431132
-0.13558052 -0.013307541 0.41423848
-0.13518009 -0.013304376 0.41416079
-0.13477148 -0.01330039 0.41405752
-0.13438833 -0.013298899 0.41403189
-0.13391663 -0.013288613 0.41373244
-0.13352729 -0.013286469 0.41368639
-0.13312325 -0.013282841 0.41359422
-0.13273211 -0.013280486 0.41354156
-0.13232091 -0.013276107 0.41342592
-0.13188605 -0.013269321 0.41323528
-0.13152036 -0.013269477 0.41326082
-0.13103755 -0.013257783 0.41291723
-0.13062111 -0.013252757 0.41278133
-0.13025871 -0.013253203 0.41281584
-0.12983349 -0.013247241 0.41265067
-0.12943141 -0.013243609 0.41255814
-0.12902917 -0.013239945 0.41246453
-0.12858182 -0.013231613 0.41222548
-0.12821841 -0.013231901 0.41225493
-0.12778996 -0.013225459 0.41207469
-0.12738693 -0.013221616 0.41197538
-0.12692173 -0.013211278 0.41167369
-0.12657511 -0.013213265 0.41175595
-0.12613286 -0.013205245 0.41152647
-0.12572078 -0.013200349 0.41139424
-0.12531805 -0.013196408 0.41129172
-0.12495686 -0.013196834 0.41132528
-0.12452517 -0.013189793 0.41112611
-0.12414078 -0.013187734 0.41108218
-0.12369177 -0.013178779 0.41082326
-0.12332664 -0.013178736 0.41084206
-0.12292258 -0.013174519 0.41073078
-0.12252413 -0.01317088 0.41063747
-0.12207124 -0.013161349 0.41036046
-0.12167919 -0.01315834 0.41028669
-0.12128951 -0.01315557 0.41022035
-0.12094365 -0.013157552 0.41030219
-0.12053739 -0.013152953 0.41017881
-0.12010805 -0.013145803 0.40997577
-0.11961266 -0.013131355 0.40954512
-0.11923908 -0.013130235 0.40953007
-0.11891224 -0.013134269 0.40967578
-0.11858666 -0.013138467 0.40982664
-0.11825519 -0.013142036 0.4099578
-0.1179143 -0.013144581 0.41005695
-0.11753673 -0.013143036 0.41002858
-0.11714112 -0.013139458 0.40993673
-0.11674193 -0.013135456 0.40983161
-0.11630481 -0.01312715 0.40959206
-0.11593834 -0.013126787 0.40960044
-0.11546466 -0.013114247 0.40922877
-0.11446654 -0.013083125 0.4082967
-0.11405229 -0.013077142 0.40812942
-0.11369676 -0.013077872 0.40817168
-0.11329813 -0.013073636 0.40805888
-0.11288656 -0.013067876 0.40789846
-0.1124944 -0.013064329 0.40780711
-0.11205208 -0.013054918 0.40753266
-0.1116886 -0.013054659 0.40754384
-0.11126132 -0.013046917 0.40732139
-0.11087971 -0.013044502 0.40726513
-0.1104726 -0.013039057 0.4071143
-0.11006425 -0.01303343 0.40695775
-0.10969211 -0.013032068 0.40693429
-0.10931871 -0.013030548 0.40690586
-0.10891233 -0.013025072 0.40675387
-0.108509 -0.013019927 0.40661216
-0.1081507 -0.013020168 0.40663862
-0.10771129 -0.013010613 0.40635911
-0.1073243 -0.01300735 0.40627599
-0.10692516 -0.013002584 0.40614593
-0.10655849 -0.013001749 0.40613863
-0.1061686 -0.012998062 0.40604225
-0.10580596 -0.012997703 0.40604964
-0.10546583 -0.013000113 0.40614361
-0.10509682 -0.012998968 0.4061265
-0.10475905 -0.013001694 0.40623024
-0.10443463 -0.013006099 0.40638644
-0.15327699 -0.013129733 0.41945937
-0.15290302 -0.013129712 0.41947991
-0.15244763 -0.013122686 0.41927654
-0.15204181 -0.0131199 0.41920868
-0.15175274 -0.013127203 0.41946313
-0.15117554 -0.013109552 0.41892025
-0.15078792 -0.013108296 0.41890129
-0.15035674 -0.013103239 0.41876081
-0.1499006 -0.013095974 0.41854978
-0.14946543 -0.013090509 0.41839623
-0.14902689 -0.013084724 0.41823241
-0.14862065 -0.013081751 0.4181585
-0.1481984 -0.013077349 0.41803893
-0.14779128 -0.013074265 0.41796148
-0.14733863 -0.013067126 0.41775435
-0.14695068 -0.013065705 0.41773003
-0.14651322 -0.013059863 0.41756439
-0.14602101 -0.013049098 0.41724128
-0.145605 -0.013045106 0.41713467
-0.14525665 -0.01304717 0.41722181
-0.14484777 -0.013043794 0.41713491
-0.14442635 -0.013039268 0.41701123
-0.14396252 -0.013030881 0.41676408
-0.1435688 -0.013028813 0.41671896
-0.1431511 -0.01302455 0.41660374
-0.14269187 -0.013016477 0.41636658
-0.14225487 -0.013010397 0.4161931
-0.14181371 -0.013003903 0.41600636
-0.14145122 -0.013004609 0.41604993
-0.14106567 -0.013003192 0.41602561
-0.14063305 -0.012997413 0.41586173
-0.14011054 -0.012983278 0.41543046
-0.13975848 -0.012984907 0.4155035
-0.13938414 -0.012984466 0.41551036
-0.13895205 -0.012978627 0.41534445
-0.13853425 -0.012974097 0.41522044
-0.13812217 -0.012970082 0.41511285
-0.13771522 -0.012966526 0.41501993
-0.13726588 -0.012958948 0.41479826
-0.13683429 -0.01295301 0.41462913
-0.13644965 -0.012951497 0.41460153
-0.13604392 -0.012947968 0.41450942
-0.13559166 -0.012939979 0.41427451
-0.13524881 -0.012942418 0.41437337
-0.13482055 -0.012936674 0.41421029
-0.1344184 -0.012933409 0.41412652
-0.13399038 -0.012927631 0.4139623
-0.13358867 -0.012924368 0.41387856
-0.13314828 -0.012917332 0.413674
-0.13270831 -0.0129103 0.41346952
-0.13234566 -0.012910771 0.41350529
-0.13192762 -0.012905827 0.41336763
-0.13152036 -0.01290191 0.41326281
-0.13109766 -0.012896455 0.41310871
-0.13063139 -0.012886669 0.4128159
-0.13028562 -0.01288875 0.41290313
-0.12989105 -0.012886002 0.41283566
-0.1294657 -0.012880174 0.41266954
-0.12903661 -0.012873941 0.41249037
-0.12861961 -0.012868882 0.41234875
-0.12826088 -0.012869642 0.41239363
-0.12787645 -0.012867818 0.41235563
-0.12746507 -0.012863266 0.41223019
-0.12702501 -0.012855781 0.41201079
-0.12662476 -0.012852299 0.41191956
-0.12619919 -0.012846215 0.41174492
-0.12583908 -0.012846781 0.41178346
-0.12537554 -0.01283676 0.41148254
-0.12497555 -0.012833205 0.4113889
-0.12459617 -0.012831752 0.41136259
-0.12417203 -0.012825667 0.4111878
-0.12377939 -0.012822811 0.41111642
-0.12338649 -0.012819909 0.41104358
-0.12297572 -0.012815128 0.41091046
-0.12257224 -0.01281108 0.41080081
-0.12213805 -0.012803791 0.41058719
-0.12171406 -0.012797527 0.41040641
-0.12133697 -0.012796174 0.41038308
-0.12098402 -0.012797364 0.41044128
-0.12058793 -0.012793987 0.41035298
-0.1201658 -0.012787816 0.41017503
-0.11973882 -0.012781091 0.40997925
-0.11930438 -0.012773526 0.40975651
-0.11891495 -0.01277075 0.40968731
-0.11856258 -0.012771946 0.40974554
-0.11818358 -0.012770277 0.40971178
-0.1178277 -0.012771098 0.40975797
-0.11741825 -0.012766101 0.40961742
-0.11707627 -0.012768433 0.40971199
-0.1166506 -0.012761624 0.40951315
-0.11629011 -0.012761923 0.40954247
-0.11584517 -0.012752929 0.40927348
-0.11542588 -0.012746709 0.4090935
-0.11488255 -0.012726711 0.40847123
-0.11449782 -0.012724211 0.40841049
-0.11409774 -0.012719984 0.40829429
-0.11372672 -0.012718979 0.40828151
-0.11336117 -0.012718583 0.40828818
-0.11291978 -0.012709646 0.40802068
-0.11254925 -0.012708654 0.40800819
-0.11215972 -0.012705503 0.40792632
-0.11170717 -0.012695168 0.40761381
-0.11134758 -0.012695367 0.40763941
-0.1109576 -0.012692091 0.40755343
-0.11050183 -0.012681243 0.40722421
-0.11014379 -0.012681576 0.40725407
-0.10974989 -0.012677768 0.40715086
-0.10936036 -0.012674444 0.40706313
-0.10894595 -0.012668203 0.40688169
-0.10857646 -0.012667161 0.40686718
-0.10816507 -0.012661208 0.40669492
-0.10773955 -0.012653554 0.40646794
-0.10737979 -0.012653599 0.40648824
-0.10700192 -0.012651505 0.40643975
-0.10657955 -0.012644116 0.40622115
-0.10621641 -0.012643726 0.40622735
-0.1058353 -0.012641187 0.4061645
-0.10546929 -0.012640441 0.40615922
-0.10510915 -0.012640397 0.40617642
-0.10476283 -0.012642019 0.40624714
-0.1044238 -0.012644536 0.40634656
-0.10409304 -0.012648075 0.40647879
-0.15342613 -0.012768069 0.41986933
-0.15302366 -0.012765705 0.41981271
-0.1525425 -0.012756746 0.41953921
-0.15214834 -0.012755038 0.4195042
-0.15177633 -0.012755184 0.41953012
-0.15122415 -0.012740151 0.4190568
-0.15083243 -0.012738595 0.41902676
-0.1504433 -0.012737251 0.4190037
-0.14991976 -0.012724493 0.41860509
-0.14957532 -0.012726908 0.4187057
-0.14907657 -0.012716173 0.41837364
-0.14870648 -0.012716386 0.41840184
-0.14823969 -0.012708312 0.41815725
-0.14786364 -0.012707997 0.41816801
-0.14743853 -0.012703449 0.41803947
-0.14699085 -0.012696931 0.41784608
-0.14660601 -0.012695822 0.41783068
-0.14613256 -0.012687013 0.41756189
-0.14575946 -0.012686894 0.41757908
-0.14522664 -0.012672836 0.41713744
-0.14485221 -0.012672564 0.41714954
-0.14445989 -0.01267072 0.41710997
-0.14404869 -0.01266721 0.41701543
-0.14358316 -0.012658888 0.41676253
-0.14315295 -0.012653645 0.41661099
-0.14275746 -0.012651453 0.41655985
-0.14231715 -0.012645267 0.41637716
-0.14193365 -0.012644109 0.41636014
-0.14151271 -0.012639602 0.41623271
-0.14111188 -0.01263687 0.41616374
-0.14065148 -0.012628777 0.4159182
-0.14027707 -0.012628381 0.41592616
-0.13985786 -0.01262394 0.41580084
-0.13942482 -0.012618223 0.4156335
-0.13905762 -0.012618451 0.41566199
-0.1385638 -0.01260716 0.41531095
-0.13818647 -0.012606434 0.41530797
-0.13777149 -0.012602261 0.41519144
-0.13733709 -0.012596285 0.41501543
-0.13690823 -0.012590786 0.41485512
-0.1365391 -0.012590766 0.41487533
-0.13612315 -0.012586416 0.41475284
-0.13573295 -0.012584427 0.4147082
-0.13531497 -0.012579847 0.41457805
-0.13484585 -0.012570474 0.41428998
-0.13442169 -0.012565252 0.41413867
-0.13404854 -0.012564783 0.41414398
-0.13364993 -0.012561921 0.41407037
-0.1332057 -0.012554741 0.41385442
-0.13284892 -0.012555785 0.41390961
-0.13239738 -0.012547856 0.4136689
-0.13197944 -0.012543075 0.41353196
-0.13157365 -0.012539424 0.41343227
-0.13116069 -0.012535069 0.41330934
-0.13077337 -0.012533147 0.41326657
-0.13035527 -0.012528256 0.41312587
-0.12995133 -0.0125247 0.41302922
-0.12952565 -0.012519025 0.41286263
-0.12912865 -0.012516096 0.4127866
-0.12865619 -0.012505817 0.41246808
-0.12831867 -0.012508631 0.41258138
-0.12789269 -0.012502816 0.41241002
-0.12748361 -0.012498621 0.41229215
-0.12704003 -0.012491013 0.41206157
-0.12666512 -0.012490129 0.41205287
-0.12627138 -0.01248738 0.41198254
-0.12583865 -0.012480748 0.41178408
-0.12548043 -0.012481489 0.41182885
-0.12501387 -0.012471425 0.41151708
-0.12459853 -0.012466427 0.41137242
-0.12420383 -0.012463473 0.41129521
-0.12385873 -0.012465489 0.41138196
-0.12338635 -0.012454672 0.41104519
-0.12299705 -0.012452202 0.41098383
-0.12263627 -0.012452611 0.41101748
-0.12222237 -0.012447613 0.41087267
-0.12174524 -0.012436127 0.41051361
-0.12135455 -0.01243343 0.41044462
-0.12100799 -0.01243525 0.41052473
-0.12063139 -0.012433983 0.41050294
-0.12017441 -0.012424401 0.41020656
-0.11978372 -0.012421634 0.41013509
-0.11936792 -0.012416238 0.40997684
-0.11898564 -0.012414306 0.40993294
-0.11859729 -0.012411727 0.40986764
-0.11820313 -0.012408523 0.40978161
-0.11781379 -0.012405804 0.40971166
-0.11740898 -0.012401436 0.40958717
-0.11701416 -0.0123981 0.40949672
-0.11662821 -0.012395686 0.40943667
-0.11623625 -0.012392615 0.40935493
-0.11581182 -0.012386054 0.40915781
-0.11541139 -0.012382023 0.40904424
-0.11499725 -0.012376495 0.40888116
-0.11456471 -0.012368943 0.4086512
-0.11418196 -0.012366736 0.4085978
-0.11376931 -0.012361266 0.40843654
-0.11338651 -0.012359017 0.40838158
-0.11295745 -0.012351691 0.40815893
-0.11262155 -0.012354539 0.40827239
-0.11220902 -0.012348972 0.40810776
-0.11177389 -0.012340874 0.40785944
-0.11137267 -0.012336481 0.40773347
-0.11096889 -0.012331773 0.40759704
-0.11060526 -0.012331512 0.40760759
-0.1101872 -0.012325159 0.40741673
-0.109777 -0.012319649 0.40725362
-0.10937364 -0.012314871 0.40711474
-0.10900743 -0.012314256 0.40711346
-0.10860637 -0.012309689 0.40698144
-0.10822171 -0.012306958 0.40691003
-0.10783397 -0.012303856 0.40682638
-0.10742367 -0.012298149 0.40665656
-0.10702144 -0.012293333 0.4065161
-0.10661356 -0.012287832 0.40635297
-0.10626055 -0.012288639 0.40639839
-0.10588372 -0.012286689 0.40635261
-0.10548415 -0.012282075 0.40621865
-0.10512596 -0.012282264 0.40624356
-0.10478494 -0.01228447 0.40633506
-0.10442116 -0.012284013 0.40633851
-0.1040851 -0.012286823 0.40645
-0.10374794 -0.012289525 0.40655786
-0.1534387 -0.012394648 0.41990545
-0.15311313 -0.01239858 0.42005986
-0.15262553 -0.012389382 0.41976935
-0.15220577 -0.012385657 0.41966426
-0.15178323 -0.01238169 0.41955099
-0.15138641 -0.012379804 0.41950822
-0.15094592 -0.012374328 0.4193438
-0.15050054 -0.012368424 0.41916487
-0.15006632 -0.012363409 0.41901606
-0.14963795 -0.012358854 0.41888279
-0.14917086 -0.01235107 0.41864008
-0.14871737 -0.012344373 0.41843426
-0.14832073 -0.012342376 0.41838765
-0.14787373 -0.012336168 0.41819832
-0.14749156 -0.012335348 0.41819164
-0.14704986 -0.012329534 0.41801563
-0.14664692 -0.012326947 0.41794908
-0.14626637 -0.012326236 0.41794604
-0.14576347 -0.012315184 0.41759238
-0.14532432 -0.012309475 0.41741988
-0.14491695 -0.012306433 0.41733783
-0.14449468 -0.01230211 0.41721228
-0.1441274 -0.012302455 0.41724509
-0.14370349 -0.012297959 0.41711366
-0.14321655 -0.012288029 0.41679794
-0.14280637 -0.012284651 0.41670442
-0.14243279 -0.012284415 0.41671741
-0.14198728 -0.012277954 0.41651925
-0.14159271 -0.012275878 0.41646984
-0.14116144 -0.0122706 0.41631177
-0.14075705 -0.012267635 0.4162322
-0.14033186 -0.012262839 0.41609049
-0.13993596 -0.012260584 0.41603491
-0.13950694 -0.012255407 0.41588023
-0.13908745 -0.012251042 0.41575301
-0.13870081 -0.012249553 0.41572344
-0.13821435 -0.01223922 0.41539371
-0.13776253 -0.012231905 0.41516632
-0.13741116 -0.012233493 0.41524115
-0.13698256 -0.012228197 0.41508225
-0.13659236 -0.012226309 0.41503903
-0.13614947 -0.012219679 0.41483483
-0.13572934 -0.012215066 0.41469908
-0.13531861 -0.012211274 0.41459113
-0.13491528 -0.012208131 0.41450521
-0.13449913 -0.012203807 0.41437921
-0.13411693 -0.012202547 0.41435722
-0.13368344 -0.012196602 0.41417608
-0.13325372 -0.012190969 0.41400552
-0.13292056 -0.012194161 0.41413471
-0.13243152 -0.012183035 0.4137775
-0.13199742 -0.012176912 0.41359025
-0.13163897 -0.012177755 0.41363952
-0.13120413 -0.012171514 0.41344818
-0.13079174 -0.012167327 0.41332656
-0.13041751 -0.012166676 0.4133251
-0.12998119 -0.012160213 0.41312608
-0.12955382 -0.012154554 0.41295442
-0.1291692 -0.012152883 0.41291818
-0.12874775 -0.01214773 0.41276357
-0.12834799 -0.012144598 0.41267768
-0.12794383 -0.01214103 0.41257691
-0.12750888 -0.012134512 0.41237587
-0.12711512 -0.012131888 0.41230714
-0.12671964 -0.012129084 0.41223225
-0.12629491 -0.012123456 0.4120613
-0.12592673 -0.012123239 0.4120743
-0.12552999 -0.012120264 0.4119935
-0.12508489 -0.012112588 0.41175291
-0.12471256 -0.012111933 0.41175088
-0.12431324 -0.012108647 0.41165945
-0.12386861 -0.012100916 0.41141683
-0.12345973 -0.012096641 0.41129166
-0.1230698 -0.012094202 0.41122892
-0.12271254 -0.012094967 0.41127512
-0.1222747 -0.012087773 0.41105059
-0.12188308 -0.012085117 0.4109804
-0.1214325 -0.012076583 0.41071025
-0.1210189 -0.012071686 0.41056371
-0.12067017 -0.01207325 0.41063693
-0.12025522 -0.012068179 0.4104844
-0.11986189 -0.012065251 0.41040477
-0.11933723 -0.012049048 0.40987352
-0.11900967 -0.012052705 0.41001779
-0.11861203 -0.012049264 0.4099206
-0.11825183 -0.01204962 0.40995252
-0.11787035 -0.012047801 0.40991044
-0.11741625 -0.012038525 0.40961459
-0.11701706 -0.012034841 0.40950894
-0.11664075 -0.012033492 0.40948275
-0.11625831 -0.012031502 0.40943471
-0.11584446 -0.012026237 0.40927517
-0.1154279 -0.012020657 0.40910482
-0.11505555 -0.012019661 0.40909052
-0.11463276 -0.012013372 0.40889603
-0.11424872 -0.012011117 0.40883875
-0.11378045 -0.011999966 0.40847862
-0.1134233 -0.012000496 0.40851614
-0.11302941 -0.011997133 0.40842098
-0.11264121 -0.011994354 0.40834576
-0.11225607 -0.011991885 0.40828097
-0.11183983 -0.011986065 0.40810215
-0.11143392 -0.01198132 0.40795979
-0.11099657 -0.01197315 0.40770084
-0.11062139 -0.011971656 0.4076691
-0.1102275 -0.01196812 0.40756783
-0.10981768 -0.011962827 0.40740669
-0.10944402 -0.01196145 0.40737879
-0.10904184 -0.011956937 0.40724412
-0.10872201 -0.011961454 0.40741694
-0.10823466 -0.011947507 0.40696084
-0.10786057 -0.011946013 0.40692887
-0.10746786 -0.01194244 0.40682599
-0.10708706 -0.011940169 0.40676746
-0.10666215 -0.011932949 0.40654024
-0.10626636 -0.01192895 0.40642273
-0.10587672 -0.011925616 0.40632784
-0.10554136 -0.011928394 0.40644112
-0.10512602 -0.011922119 0.40624595
-0.10478093 -0.011923796 0.40632167
-0.10443044 -0.011924868 0.40637678
-0.10406946 -0.011924746 0.40639114
-0.10374347 -0.011928644 0.40654245
-0.10342404 -0.011933328 0.40672052
-0.15398364 -0.012033526 0.42035222
-0.15357351 -0.012030739 0.42027608
-0.15319791 -0.012030654 0.42029423
-0.15280008 -0.012028815 0.4202511
-0.15224279 -0.012014384 0.41976807
-0.15185274 -0.012013112 0.41974479
-0.15143928 -0.012009979 0.41965643
-0.15105039 -0.012008781 0.41963571
-0.15061466 -0.012003847 0.41948447
-0.1501404 -0.011995808 0.41922468
-0.14965312 -0.011986686 0.41892698
-0.14931242 -0.011989287 0.41903907
-0.14875962 -0.011974828 0.41855484
-0.14834794 -0.011971688 0.41846615
-0.14792079 -0.011967277 0.41833311
-0.14752722 -0.01196557 0.41829452
-0.14711908 -0.011962666 0.41821414
-0.14665282 -0.011955012 0.41796762
-0.14627974 -0.011954934 0.41798604
-0.14587936 -0.011952618 0.41792613
-0.14548777 -0.011951013 0.41789111
-0.1449942 -0.011940999 0.41756204
-0.14455131 -0.011935119 0.4173775
-0.14413267 -0.011931219 0.41726217
-0.14373721 -0.01192922 0.41721332
-0.14326403 -0.011920741 0.41693783
-0.1428455 -0.01191678 0.41682035
-0.14243932 -0.011913831 0.41673824
-0.14196782 -0.011905391 0.416464
-0.14164944 -0.011909777 0.41663849
-0.14123712 -0.01190627 0.41653678
-0.14080124 -0.011900752 0.41636476
-0.14041604 -0.011899499 0.4163419
-0.13998912 -0.011894695 0.41619477
-0.13953093 -0.011887202 0.41595355
-0.13916816 -0.01188782 0.4159961
-0.13872033 -0.011881155 0.41578385
-0.13826463 -0.011873778 0.41554663
-0.13783389 -0.011868511 0.41538319
-0.13747317 -0.011869261 0.41543034
-0.13708949 -0.01186803 0.4154081
-0.13662639 -0.011859895 0.41514426
-0.13615723 -0.011851189 0.41486034
-0.13579854 -0.011852078 0.41491231
-0.13535286 -0.011845358 0.41469789
-0.13497454 -0.011844513 0.41468909
-0.13458467 -0.011842647 0.41464457
-0.13418841 -0.011840207 0.4145799
-0.13372584 -0.011831885 0.41430929
-0.13335235 -0.011831424 0.41431385
-0.13290931 -0.011824769 0.41410157
-0.13249753 -0.011820868 0.41398564
-0.132091 -0.011817413 0.41388535
-0.13168205 -0.011813723 0.41377673
-0.13131224 -0.011813532 0.4137907
-0.13079917 -0.011800417 0.41335195
-0.13042526 -0.011799818 0.41335157
-0.13005318 -0.01179938 0.41335681
-0.12964897 -0.011796016 0.41325957
-0.12923859 -0.011792072 0.41314191
-0.1287525 -0.011781178 0.41278073
-0.12840383 -0.011782829 0.41285908
-0.12796819 -0.011776488 0.41265738
-0.12757534 -0.01177406 0.41259274
-0.12716612 -0.011770102 0.41247448
-0.12674697 -0.0117652 0.41232306
-0.12633094 -0.01176056 0.41218081
-0.12591071 -0.011755499 0.41202381
-0.12555799 -0.011756731 0.41208732
-0.12515235 -0.011753001 0.41197687
-0.12475549 -0.011750074 0.41189459
-0.12436074 -0.011747332 0.41181871
-0.12397416 -0.011745347 0.41176936
-0.12351556 -0.011736507 0.41147962
-0.12310125 -0.011731834 0.41133597
-0.12269384 -0.011727793 0.41121441
-0.12232982 -0.011727889 0.41123793
-0.12187584 -0.011719334 0.41095802
-0.12152334 -0.011720514 0.41101947
-0.12108322 -0.011713226 0.41078395
-0.12070923 -0.011712312 0.41077185
-0.12030336 -0.011708288 0.4106507
-0.11989536 -0.011704031 0.41052136
-0.1194953 -0.011700526 0.41041836
-0.1190866 -0.011696152 0.41028482
-0.11866549 -0.011690529 0.4101074
-0.11830132 -0.011690496 0.41012609
-0.11787283 -0.011684089 0.40992108
-0.11745891 -0.011679089 0.40976545
-0.11705247 -0.011674806 0.40963489
-0.11666576 -0.011672469 0.40957257
-0.11628114 -0.011670326 0.40951705
-0.11586579 -0.011665078 0.40935251
-0.11544579 -0.011659327 0.4091703
-0.11509577 -0.011660629 0.40923557
-0.1146533 -0.011652543 0.40897131
-0.11421613 -0.011644947 0.40872419
-0.11386317 -0.011645914 0.40877759
-0.11346042 -0.011641779 0.40865186
-0.11306006 -0.011637864 0.40853381
-0.11264646 -0.011632557 0.40836686
-0.11231422 -0.011635644 0.40849453
-0.11188248 -0.011628408 0.40825981
-0.11151785 -0.011628124 0.40826908
-0.1110844 -0.011620639 0.40802547
-0.11067304 -0.011615424 0.40786153
-0.110301 -0.011614313 0.40784168
