# .PCD v0.7 - Point Cloud Data file format
VERSION 0.7
FIELDS x y z
SIZE 4 4 4
TYPE F F F
COUNT 1 1 1
WIDTH 1379
HEIGHT 1
VIEWPOINT 0 0 0 1 0 0 0
POINTS 1379
DATA ascii
0.026088811 0.056756925 0.38988271
0.02642794 0.056746524 0.38980526
0.026770487 0.056743633 0.38977936
0.027107364 0.056728955 0.38967237
0.027453395 0.05673356 0.38969779
0.027785279 0.056709174 0.38952398
0.028122488 0.056696121 0.38942799
0.028460085 0.056684162 0.38933939
0.02879452 0.056666251 0.38920987
0.029137751 0.056665875 0.38920075
0.02948314 0.056669656 0.38922006
0.029842503 0.056699894 0.38942105
0.030209649 0.056744069 0.38971767
0.030574072 0.056782186 0.3899726
0.058762163 0.055453107 0.38002509
0.059124444 0.055477664 0.38018122
0.059449553 0.055467267 0.38009769
0.059776742 0.055458918 0.38002813
0.06012075 0.055466183 0.38006553
0.060423125 0.055435155 0.37984052
0.060741212 0.055418815 0.37971607
0.061071321 0.055413563 0.37966752
0.061368898 0.055379011 0.37941819
0.061720219 0.055393066 0.37950185
0.062049363 0.055387173 0.3794488
0.062371209 0.055374864 0.37935171
0.062689103 0.055359203 0.37923163
0.062975973 0.055316444 0.37892586
0.063338451 0.055340208 0.37907574
0.063639529 0.055310361 0.3788583
0.063958891 0.05529663 0.37875125
0.064273261 0.055278748 0.37861568
0.064622357 0.055290766 0.37868491
0.06492468 0.055262845 0.37848049
0.065253779 0.055257883 0.37843329
0.065566033 0.055238776 0.37828919
0.065881714 0.055222739 0.37816605
0.066213094 0.055219956 0.37813362
0.066520728 0.0551975 0.37796643
0.066851877 0.05519468 0.37793362
0.067161657 0.055174336 0.37778082
0.067485757 0.055165894 0.37770948
0.067813016 0.055160109 0.37765622
0.068147495 0.055160228 0.37764338
0.068458162 0.055141151 0.37749904
0.068770722 0.055123787 0.37736642
0.069101565 0.055121172 0.37733471
0.069419034 0.055107974 0.3772305
0.069725625 0.055086296 0.37706816
0.070038132 0.055069484 0.37693915
0.070370212 0.055068139 0.37691596
0.070677459 0.055047482 0.37676051
0.07099165 0.055032387 0.37664309
0.071321569 0.055029571 0.37660968
0.07165236 0.055027451 0.37658095
0.071982726 0.05502503 0.37655014
0.072311051 0.05502107 0.37650877
0.072648533 0.055024087 0.37651503
0.072962776 0.055009551 0.37640125
0.01554935 0.057557873 0.3931413
0.015894953 0.057553872 0.3931101
0.016247574 0.057574894 0.39324981
0.016581176 0.057529055 0.39293277
0.016930586 0.057538815 0.39299539
0.017268026 0.057508308 0.39278296
0.017610606 0.057495791 0.39269328
0.01795166 0.057478879 0.39257351
0.018296083 0.057473179 0.39253023
0.018642534 0.057473939 0.39253104
0.018980281 0.057448328 0.39235169
0.019320397 0.05743067 0.39222652
0.019661397 0.057416219 0.39212325
0.020003807 0.057406317 0.39205092
0.020339601 0.057378091 0.39185339
0.020680171 0.057364039 0.39175263
0.021022324 0.057354767 0.39168444
0.021360502 0.057335135 0.39154541
0.021710325 0.057346884 0.39162061
0.022042301 0.057311859 0.39137632
0.022381295 0.057295874 0.39126199
0.022725662 0.057293925 0.39124343
0.02305945 0.057265762 0.39104581
0.023397552 0.057248984 0.39092588
0.023741657 0.057247169 0.390908
0.024078585 0.057228342 0.39077392
0.024425631 0.057233758 0.3908053
0.024759188 0.057207853 0.39062274
0.025101561 0.057202749 0.39058214
0.025442058 0.057193566 0.39051366
0.025775125 0.057168148 0.39033422
0.026105748 0.057138048 0.3901228
0.026451237 0.057140838 0.39013582
0.026786918 0.057122651 0.39000559
0.027123997 0.05710787 0.38989851
0.027470352 0.057112738 0.38992554
0.027801856 0.057086989 0.38974348
0.028132487 0.057060104 0.38955352
0.028469283 0.057046212 0.38945228
0.028806236 0.057032965 0.38935536
0.029144663 0.057022918 0.3892802
0.029505195 0.05705585 0.38949838
0.02984939 0.057056785 0.38949808
0.030219333 0.057106365 0.38982975
0.058821209 0.055845395 0.38039541
0.059117809 0.055807784 0.38012704
0.059473928 0.05582647 0.38024205
0.059818625 0.055834282 0.38028294
0.060133033 0.055813894 0.38013169
0.060459003 0.055804398 0.38005459
0.060757928 0.055770189 0.37980911
0.061092746 0.055769116 0.37978926
0.061423358 0.055764236 0.37974346
0.061743367 0.055749837 0.37963274
0.062083729 0.055753868 0.37964755
0.062389549 0.055727009 0.37945187
0.06272047 0.055722728 0.37940994
0.06302084 0.05569151 0.37918451
0.063338049 0.055675417 0.37906206
0.063677162 0.055678636 0.37907103
0.063993417 0.05566195 0.3789444
0.064334847 0.055667222 0.3789672
0.064651608 0.055651199 0.37884504
0.064967051 0.055634201 0.3787162
0.065289892 0.055623699 0.37863147
0.06558685 0.055591363 0.37839806
0.06589698 0.055570453 0.37824243
0.066231415 0.055570152 0.37822706
0.066548049 0.055554993 0.37811044
0.066860646 0.055536635 0.37797204
0.067181736 0.055525482 0.3778826
0.067519329 0.055528007 0.37788624
0.067832299 0.05551035 0.37775248
0.068164989 0.055508934 0.37772915
0.068481438 0.055494364 0.37761632
0.068819098 0.055497047 0.37762082
0.069135986 0.055483032 0.37751162
0.069421656 0.055444211 0.37723365
0.069766715 0.05545298 0.3772794
0.07007698 0.055434126 0.37713718
0.070399716 0.055425286 0.37706301
0.070720285 0.055414815 0.37697774
0.071022622 0.055390228 0.37679642
0.071366206 0.055397898 0.37683442
0.071683012 0.0553848 0.37673113
0.07199508 0.055368174 0.37660381
0.072339676 0.055376612 0.37664691
0.072689235 0.055388741 0.37671506
0.073004551 0.055374794 0.37660584
0.073337778 0.055374496 0.37658939
0.073709756 0.055403326 0.37677097
0.015221368 0.057975896 0.39361525
0.015561514 0.057949863 0.39343476
0.015907351 0.057945706 0.3934027
0.016256429 0.057953265 0.39345014
0.016590675 0.057908747 0.39314395
0.01693834 0.057911925 0.39316148
0.017275644 0.05788026 0.3929424
0.017622735 0.057881992 0.39294997
0.017957009 0.057842363 0.39267671
0.018308483 0.057858586 0.39278251
0.018646179 0.057831474 0.3925941
0.018988373 0.05781905 0.39250526
0.019330418 0.057806622 0.39241636
0.01967347 0.057797588 0.39235044
0.020009061 0.057767332 0.39214036
0.020354489 0.057766005 0.39212662
0.020686399 0.057727009 0.39185709
0.021028163 0.057716336 0.39177975
0.021373108 0.057714604 0.391763
0.021716787 0.057709556 0.39172372
0.022058398 0.057699248 0.39164868
0.022396823 0.057681073 0.39152011
0.022735422 0.057663873 0.39139813
0.023074007 0.057647161 0.39127937
0.023411056 0.057627153 0.3911382
0.023747044 0.057605144 0.3909834
0.024084445 0.057587158 0.39085576
0.024433171 0.057596371 0.39091271
0.024766425 0.057569358 0.39072371
0.025113393 0.057574529 0.39075306
0.025453793 0.057564709 0.39068061
0.025781399 0.057526596 0.39041612
0.026128421 0.057532243 0.39044845
0.026453594 0.057490256 0.39015752
0.026804263 0.057504047 0.39024502
0.027140543 0.057487011 0.39012325
0.027476925 0.057470605 0.39000574
0.027816297 0.057460796 0.38993287
0.028154954 0.057449762 0.38985163
0.028484961 0.057421546 0.38965374
0.028819645 0.057403333 0.38952366
0.029154725 0.057386313 0.38940164
0.029518595 0.057425704 0.3896623
0.029862825 0.05742643 0.38966048
0.030223195 0.057457801 0.38986662
0.059157435 0.056181762 0.38037026
0.059505858 0.056193072 0.3804346
0.059837583 0.05618858 0.38039184
0.06017524 0.056189679 0.38038689
0.060476266 0.056156751 0.38015154
0.060796943 0.05614233 0.38004148
0.061145876 0.056154016 0.38010803
0.06142826 0.056104794 0.37976229
0.061770428 0.056110408 0.37978765
0.062088113 0.056093849 0.37966287
0.062423147 0.056093059 0.37964478
0.062744752 0.056080274 0.37954545
0.063069291 0.056070223 0.37946457
0.063406549 0.056071535 0.37946054
0.063691556 0.056026872 0.37914532
0.064012162 0.056013819 0.379044
0.064346962 0.05601326 0.37902719
0.064647332 0.055982895 0.37880862
0.064987913 0.055987488 0.3788265
0.065324828 0.055988885 0.37882274
0.065638676 0.055970598 0.37868577
0.065946959 0.055947773 0.37851804
0.066274017 0.05594103 0.37845904
0.066593587 0.05592807 0.37835795
0.066899978 0.055904217 0.37818313
0.067241058 0.055909455 0.37820506
0.067534119 0.055874899 0.37795776
0.067876607 0.055881388 0.37798804
0.06819208 0.055865668 0.37786809
0.068506129 0.055848949 0.37774128
0.068836361 0.055845533 0.37770438
0.069155581 0.055833243 0.37760746
0.069453835 0.05580423 0.37739739
0.069776997 0.055795413 0.3773239
0.070128098 0.055808906 0.37740117
0.070423074 0.055777825 0.377177
0.070746906 0.055769786 0.37710857
0.071063511 0.055756144 0.3770023
0.071389794 0.055750199 0.37694791
0.071710862 0.055740241 0.37686643
0.072032057 0.055730484 0.37678623
0.07235714 0.055723812 0.37672684
0.07269524 0.055727176 0.37673527
0.073036827 0.05573317 0.37676138
0.073370874 0.055733375 0.37674835
0.015223606 0.058331579 0.39365891
0.015567885 0.058320694 0.39358169
0.015913738 0.058316048 0.39354655
0.016258022 0.058305971 0.39347464
0.016605845 0.058308747 0.39348942
0.016950132 0.058299243 0.39342123
0.017289463 0.058273412 0.39324281
0.017631749 0.058258351 0.39313704
0.017969828 0.058230247 0.39294311
0.018316247 0.058229722 0.39293525
0.01865877 0.058217056 0.39284539
0.018996948 0.058191542 0.39266875
0.01934075 0.05818386 0.3926124
0.019680217 0.058163635 0.39247131
0.020019149 0.05814255 0.39232436
0.020364033 0.058139179 0.39229685
0.020703733 0.058121365 0.39217183
0.021037696 0.058088295 0.39194381
0.021380242 0.058079604 0.39188021
0.021724045 0.058074556 0.39184111
0.022065664 0.058063917 0.39176422
0.022405539 0.058049079 0.39165896
0.022751812 0.05805102 0.39166683
0.023083244 0.058015607 0.39142257
0.023421984 0.057999328 0.39130738
0.023760231 0.057982322 0.39118716
0.024093715 0.057954341 0.39099288
0.024442777 0.05796409 0.39105308
0.024781376 0.0579491 0.3909463
0.025130594 0.05795902 0.39100745
0.025463698 0.057932001 0.39081937
0.025795136 0.057901964 0.39061087
0.026134914 0.05789119 0.39053228
0.026466314 0.057862382 0.39033195
0.026805984 0.057852164 0.39025694
0.027148154 0.057847533 0.39021954
0.027496025 0.057855003 0.39026374
0.027828444 0.057830185 0.39008999
0.028171742 0.057828307 0.39007097
0.028502267 0.057800561 0.38987744
0.028831854 0.057771601 0.38967559
0.029176276 0.0577727 0.38967642
0.029518755 0.057769969 0.38965139
0.029875826 0.057795528 0.38981709
0.030215504 0.057787243 0.38975441
0.059194066 0.056553327 0.3805941
0.059522439 0.056545462 0.38052896
0.059872959 0.056558609 0.3806051
0.060190912 0.056541018 0.38047436
0.060501862 0.056517076 0.38030085
0.060834479 0.056513533 0.38026452
0.061137628 0.056482796 0.38004521
0.061471045 0.056480218 0.38001525
0.061789673 0.056464143 0.37989447
0.062116336 0.056455545 0.37982395
0.062462714 0.056464862 0.37987387
0.062767252 0.056436464 0.37967002
0.063093379 0.056427665 0.37959802
0.063407026 0.056407865 0.3794519
0.063700899 0.05637078 0.37918949
0.064041093 0.056374852 0.37920389
0.064374156 0.056372635 0.37917593
0.064695336 0.056360092 0.37907845
0.065030657 0.056359928 0.3790642
0.065353408 0.056348938 0.37897709
0.065659873 0.05632408 0.37879667
0.06597545 0.056307264 0.37867022
0.06627401 0.056276157 0.37844768
0.066611476 0.056278232 0.37844825
0.0669173 0.05625369 0.37826973
0.067236125 0.056240257 0.37816596
0.067587934 0.056254432 0.37824768
0.067909636 0.05624352 0.37816072
0.068234727 0.056235503 0.37809318
0.068529114 0.056202386 0.37785682
0.068868279 0.056206129 0.37786826
0.069192491 0.056197699 0.37779775
0.069507152 0.056181628 0.37767586
0.069826312 0.056169335 0.37757933
0.070149012 0.056159988 0.37750256
0.070468694 0.056148332 0.3774102
0.070786215 0.056135062 0.37730697
0.071120232 0.056134943 0.3772921
0.071421951 0.056109451 0.37710661
0.071738124 0.056095492 0.37699863
0.072047465 0.056076348 0.37685573
0.072405256 0.056094918 0.37696627
0.072707988 0.056070853 0.37679023
0.073056512 0.056082163 0.37685189
0.073387489 0.056079969 0.37682265
0.015226068 0.058688223 0.39370832
0.015574541 0.058692873 0.39373574
0.015917361 0.058676474 0.39362195
0.016269794 0.058695469 0.39374545
0.016613103 0.058681432 0.39364731
0.016953358 0.058657385 0.393482
0.017293569 0.058634173 0.39332217
0.017637407 0.058623929 0.39324927
0.017977811 0.058602873 0.39310378
0.018316722 0.058577839 0.39293155
0.018660503 0.058569022 0.39286801
0.019012794 0.05858675 0.39298248
0.019353243 0.058568005 0.39285219
0.019697729 0.058561914 0.39280674
0.020034695 0.058534071 0.39261529
0.020378523 0.058526874 0.3925623
0.020710738 0.058487125 0.39229086
0.021048388 0.058463778 0.39212936
0.021393197 0.058460739 0.39210403
0.021734187 0.058447547 0.39201051
0.022072978 0.058428928 0.39188051
0.022417122 0.058424834 0.39184791
0.022761999 0.058422748 0.39182869
0.023098812 0.058400337 0.39167306
0.023430426 0.058365636 0.39143494
0.023767604 0.058345597 0.39129511
0.02410832 0.05833469 0.39121646
0.024449712 0.058325704 0.39115059
0.024788467 0.058310773 0.3910448
0.025138156 0.058321614 0.39111176
0.025474189 0.058300901 0.39096707
0.025804309 0.058267392 0.39073652
0.026146047 0.058260653 0.39068538
0.026482115 0.058241613 0.39055169
0.026818819 0.058224458 0.39043057
0.027159026 0.058215227 0.39036256
0.027501753 0.05821158 0.39033183
0.027841303 0.058201369 0.39025712
0.028187739 0.058205627 0.39027929
0.028520867 0.058182631 0.39011872
0.02884979 0.058151715 0.38990492
0.02919982 0.058163561 0.38997781
0.029555395 0.058186051 0.39012194
0.029917363 0.058220457 0.39034596
0.059537381 0.05689647 0.38061276
0.059880506 0.056902584 0.3806414
0.0601971 0.056883566 0.38050181
0.060549669 0.05689856 0.38058969
0.060872406 0.056885511 0.38048992
0.061186012 0.05686412 0.38033435
0.061477102 0.056822155 0.38004106
0.061825357 0.056833182 0.38010225
0.062156226 0.056828208 0.38005626
0.062463 0.056801371 0.37986404
0.06279394 0.056796674 0.37981984
0.063120067 0.056787703 0.379747
0.06344761 0.056780104 0.37968326
0.063752443 0.056752358 0.3794848
0.064070523 0.056736633 0.37936667
0.064389229 0.05672162 0.37925324
0.064716734 0.056714475 0.37919238
0.065028764 0.056693904 0.37904173
0.065366887 0.056696191 0.37904379
0.06569358 0.056688588 0.37897971
0.065989003 0.056654207 0.37873662
0.066345342 0.056672219 0.37884364
0.066646703 0.056643315 0.37863702
0.066972613 0.056635454 0.37857103
0.067288034 0.056618854 0.37844655
0.067595556 0.056595813 0.378279
0.067953512 0.056615006 0.37839368
0.068268962 0.056598775 0.37827155
0.0685689 0.056569904 0.37806487
0.068899997 0.05656689 0.37803102
0.069210857 0.05654737 0.37788677
0.069506191 0.056515418 0.37765941
0.069864713 0.056534912 0.37777576
0.07016167 0.056504626 0.37755948
0.070489019 0.056498997 0.37750787
0.070809454 0.056487899 0.37741968
0.071149968 0.056492846 0.37743869
0.071473792 0.056484554 0.37736914
0.071780413 0.056462813 0.37720972
0.072083741 0.056438703 0.3770344
0.07241343 0.056435343 0.37699771
0.072739646 0.05642933 0.37694323
0.073082313 0.056436073 0.3769739
0.073417574 0.056437053 0.37696606
0.015242831 0.05910043 0.39412743
0.015585099 0.059080139 0.39398837
0.015927281 0.059060413 0.39385304
0.016275601 0.059063815 0.39387178
0.016616995 0.059042443 0.39372531
0.016961122 0.059031468 0.39364809
0.017303033 0.05901337 0.39352331
0.017651198 0.059016898 0.39354268
0.01798697 0.058979653 0.39329004
0.018333655 0.058978915 0.39328083
0.018675243 0.058962114 0.3931644
0.019016806 0.058945846 0.39305145
0.019361824 0.058940683 0.39301249
0.019703003 0.058924221 0.39289811
0.020040108 0.058896344 0.39270756
0.020386364 0.058895856 0.39269954
0.020720653 0.058861386 0.39246491
0.0210649 0.058855869 0.39242324
0.02140243 0.058832064 0.39225957
0.021745026 0.058822729 0.3921923
0.022086048 0.058809485 0.3920989
0.022432264 0.058810275 0.39209899
0.02276605 0.058778938 0.39188483
0.023108361 0.058770228 0.39182144
0.023450747 0.058761947 0.39176086
0.023783626 0.058730446 0.39154539
0.024122305 0.058713954 0.39142993
0.024464145 0.058705516 0.39136806
0.024802119 0.058688156 0.39124671
0.025135472 0.0586605 0.3910566
0.025479458 0.058658063 0.39103454
0.025819965 0.058647785 0.39096019
0.026154818 0.058625109 0.39080307
0.026496161 0.05861738 0.39074555
0.026832625 0.058599185 0.39061821
0.027171515 0.058586698 0.3905288
0.027508769 0.058571026 0.39041814
0.027851848 0.058567997 0.39039165
0.028196434 0.058568165 0.39038643
0.028520204 0.058525626 0.39009646
0.028871819 0.058540538 0.39018938
0.029226998 0.058562256 0.39032757
0.059573576 0.057268068 0.38083237
0.059915427 0.057272807 0.3808516
0.060226742 0.057248473 0.3806774
0.060553551 0.057239052 0.38060233
0.060893513 0.057242095 0.38061014
0.061200283 0.057214078 0.38041133
0.061539449 0.057216488 0.38041475
0.061838925 0.05718217 0.38017398
0.062173404 0.057180416 0.38014963
0.062514491 0.057184722 0.38016552
0.062823847 0.057160113 0.37998918
0.063159645 0.057159692 0.3799735
0.063468829 0.057135325 0.37979865
0.063800082 0.057130974 0.37975678
0.064124629 0.057120685 0.37967542
0.064425357 0.057089411 0.37945446
0.064740323 0.057071004 0.37931904
0.065084718 0.057078596 0.37935635
0.065401211 0.057061777 0.37923136
0.065730803 0.057056479 0.37918293
0.066043288 0.057036474 0.37903669
0.066373609 0.057031997 0.37899357
0.066682853 0.057009533 0.37883091
0.067025647 0.057015851 0.37885943
0.06731873 0.056980014 0.37860781
0.067642301 0.056970228 0.37852919
0.067967668 0.056962013 0.37846109
0.068302013 0.056961387 0.37844324
0.068610519 0.056939323 0.37828299
0.068915665 0.056914698 0.37810564
0.06923034 0.056898139 0.37798184
0.069548406 0.056884509 0.3778775
0.069886923 0.056887668 0.37788457
0.070217237 0.05688414 0.37784719
0.07051339 0.056853108 0.3776271
0.070833869 0.056841884 0.37753853
0.071146525 0.056824524 0.37740916
0.071482413 0.056825791 0.37740344
0.071806587 0.056817781 0.37733606
0.072117731 0.056799572 0.37720096
0.07244882 0.05679718 0.3771708
0.072790861 0.056803357 0.37719747
0.073091611 0.056777392 0.3770107
0.073459275 0.056803409 0.37716907
0.073793299 0.05680329 0.37715384
0.015587741 0.059437688 0.39404076
0.01593194 0.059425157 0.39395389
0.016280012 0.059427291 0.39396417
0.01662229 0.059408635 0.39383653
0.016968792 0.059405532 0.39381188
0.017311526 0.059389621 0.39370233
0.01765326 0.059370968 0.39357454
0.017997134 0.059360094 0.39349818
0.01833388 0.059326563 0.39327157
0.018682763 0.059332825 0.3933087
0.019023005 0.059311911 0.39316559
0.01936822 0.059306968 0.39312834
0.019707136 0.059283264 0.39296657
0.020048263 0.059266895 0.39285344
0.020393025 0.059261657 0.39281395
0.020732984 0.059242878 0.39268464
0.021070985 0.059219204 0.39252284
0.021411128 0.059202209 0.39240527
0.02175625 0.059199307 0.39238098
0.022097269 0.059185505 0.39228439
0.02244135 0.0591802 0.39224407
0.022781072 0.059163738 0.39212972
0.023114342 0.059131261 0.39190918
0.023458024 0.05912599 0.39186886
0.023794258 0.059102364 0.39170682
0.024142677 0.059109248 0.39174691
0.024474535 0.059075959 0.39152071
0.024820743 0.059077762 0.391527
0.025160704 0.059064835 0.39143559
0.025497466 0.05904486 0.39129743
0.02583278 0.059022099 0.39114073
0.026171967 0.05900868 0.39104587
0.026504977 0.058981866 0.39086217
0.026846701 0.058974873 0.39080974
0.027186187 0.058963206 0.39072633
0.027525939 0.058952399 0.39064848
0.027866701 0.058943998 0.39058653
0.02820793 0.058936775 0.39053231
0.028545378 0.058921922 0.3904275
0.028881963 0.058905657 0.39031327
0.029242652 0.058938365 0.39052337
0.029574662 0.058913179 0.39034989
0.029935861 0.058946043 0.39056095
0.059917517 0.057611872 0.38085309
0.060249496 0.057607129 0.38080943
0.060580321 0.057601348 0.38075879
0.060915906 0.057600137 0.38073832
0.061221734 0.057570949 0.38053286
0.061565284 0.05757736 0.38056272
0.061860032 0.057538316 0.380292
0.062206108 0.057547167 0.38033786
0.062531613 0.057537004 0.38025793
0.062846266 0.057517011 0.38011304
0.063188814 0.057522628 0.38013732
0.063504376 0.057503745 0.37999967
0.063819252 0.057484452 0.37985921
0.064150169 0.057479721 0.37981501
0.064446591 0.057444301 0.37956789
0.064783864 0.05744547 0.37956253
0.065107852 0.057434905 0.37947959
0.065424956 0.057418413 0.37935746
0.065748483 0.057407692 0.37927336
0.066078283 0.057402536 0.37922597
0.066409536 0.057398673 0.37918717
0.066722549 0.057379164 0.37904489
0.067045704 0.057368539 0.37896121
0.067331068 0.05732584 0.37866572
0.067682534 0.057339568 0.37874281
0.067979254 0.057307012 0.3785142
0.068322271 0.057313602 0.37854409
0.068624191 0.057285827 0.37834695
0.068962276 0.057288356 0.3783499
0.069269896 0.057265688 0.37818643
0.069590271 0.057253726 0.3780936
0.069893263 0.057227641 0.37790748
0.07023865 0.057236351 0.37795109
0.070550643 0.057217903 0.37781528
0.070866242 0.057202529 0.37769976
0.071195215 0.057198055 0.37765613
0.071512289 0.057184108 0.37754992
0.071825132 0.057166915 0.37742227
0.07215225 0.057161193 0.37737027
0.072486527 0.057161167 0.37735584
0.072806083 0.057149585 0.3772651
0.073129028 0.057140768 0.3771925
0.073475756 0.057150513 0.37724248
0.073865324 0.057193346 0.37751079
0.074172691 0.05717244 0.37735826
0.015594733 0.059812035 0.3942031
0.015939008 0.059799135 0.39411426
0.016289385 0.059809186 0.3941766
0.016630376 0.059785075 0.39401376
0.016976217 0.059779033 0.39396992
0.017324457 0.05978151 0.39398211
0.017666057 0.059761424 0.39384559
0.018009372 0.059747804 0.39375156
0.018350208 0.059726629 0.39360771
0.018688811 0.059699096 0.39342189
0.019035203 0.059697013 0.39340368
0.019375119 0.059675042 0.39325437
0.019716084 0.059657015 0.39313099
0.020061933 0.059654135 0.39310732
0.020400671 0.059630569 0.39294729
0.020742474 0.059616603 0.39285043
0.021082824 0.059598986 0.39272946
0.02142326 0.059582178 0.39261374
0.021759925 0.059555579 0.39243343
0.022104211 0.059550345 0.39239386
0.022449862 0.059548888 0.39237908
0.02278468 0.059519179 0.39217809
0.023131758 0.059521902 0.39219072
0.023461599 0.05948085 0.39191487
0.023804694 0.059474103 0.39186496
0.024146499 0.059464362 0.39179528
0.024489056 0.059456728 0.39173937
0.024835872 0.0594595 0.39175197
0.025172951 0.059439212 0.39161259
0.025505776 0.059409555 0.39141139
0.025833948 0.05937 0.39114493
0.026179543 0.059370991 0.39114556
0.026527531 0.059377324 0.39118123
0.026860053 0.059349313 0.39099064
0.027202405 0.059343461 0.39094594
0.027542923 0.059333801 0.39087608
0.02788298 0.059323397 0.39080131
0.028224664 0.059316661 0.39075059
0.028557928 0.059292614 0.39058575
0.028897576 0.059282232 0.39051086
0.029249616 0.059297219 0.39060307
0.029582692 0.059273858 0.39044255
0.029944681 0.059308305 0.39066273
0.05995743 0.057987515 0.38109484
0.06029655 0.057989407 0.38109493
0.060617726 0.057974111 0.38098201
0.060946181 0.057965916 0.3809157
0.061236415 0.057921655 0.38061234
0.061583418 0.057931274 0.38066301
0.061913077 0.057924561 0.38060629
0.06222678 0.057903077 0.38045245
0.062554896 0.057895165 0.38038772
0.062874489 0.057879489 0.38027197
0.063214399 0.057882588 0.38027948
0.063513689 0.057848655 0.38004369
0.063853532 0.057851814 0.38005152
0.064181976 0.057844676 0.37999165
0.064485148 0.057814945 0.3797833
0.0648119 0.057806555 0.37971509
0.06513755 0.057797279 0.37964106
0.065458335 0.057783801 0.37953934
0.065795705 0.057785034 0.37953416
0.066088632 0.057747398 0.37927371
0.066428199 0.057750709 0.37928212
0.066736251 0.057726722 0.37911117
0.067058548 0.057715237 0.3790223
0.067376018 0.057699718 0.37890697
0.067711689 0.057699874 0.37889445
0.068029754 0.057685103 0.37878385
0.068340413 0.057664227 0.37863311
0.068662457 0.05765311 0.37854645
0.06899897 0.057654191 0.3785398
0.069311731 0.057635505 0.37840337
0.069657952 0.057644699 0.37844986
0.069959551 0.057617042 0.37825441
0.070233144 0.057566706 0.37791008
0.070599332 0.057592381 0.37806463
0.070907928 0.05757105 0.37791058
0.071220249 0.05755293 0.37777755
0.071542002 0.057542555 0.37769541
0.071876474 0.057542477 0.37768069
0.072193429 0.057528429 0.37757432
0.072534181 0.057533387 0.37759259
0.072833583 0.05750566 0.37739632
0.073159501 0.057499021 0.37733841
0.073520392 0.057519801 0.37746039
0.073878251 0.057538036 0.37756559
0.015603011 0.060191642 0.39439777
0.015951918 0.060195461 0.39441898
0.016295673 0.060180079 0.39431429
0.016640153 0.060167965 0.39423096
0.016982263 0.060147963 0.3940959
0.017327057 0.060138058 0.39402688
0.017673904 0.060135543 0.39400622
0.018016277 0.060118187 0.39388826
0.018358542 0.060101137 0.39377224
0.018696748 0.060071662 0.39357477
0.019041348 0.060063452 0.39351645
0.019386705 0.060057864 0.39347538
0.019732861 0.060054913 0.39345142
0.020070637 0.060026996 0.39326385
0.020407455 0.059997208 0.39306396
0.020751944 0.059990592 0.3930158
0.021089362 0.059964079 0.39283726
0.021433886 0.059958316 0.39279452
0.02177359 0.059939459 0.39266598
0.022120016 0.059939411 0.39266056
0.022461012 0.059924871 0.39256012
0.022802368 0.059911724 0.39246875
0.023144148 0.059900057 0.39238703
0.023475721 0.059862711 0.39213699
0.023818173 0.059853781 0.39207309
0.024154408 0.059829708 0.39190987
0.024496661 0.059821017 0.39184737
0.024842037 0.059820078 0.39183557
0.025178896 0.059798945 0.39169142
0.025527062 0.059804868 0.39172441
0.025862249 0.059780635 0.39155981
0.026205467 0.059775352 0.39151928
0.026530502 0.059729274 0.39121148
0.026872167 0.059721343 0.39115348
0.027202077 0.059687816 0.39092773
0.027556466 0.059708159 0.39105475
0.027893158 0.059690136 0.39093044
0.028238311 0.059690438 0.39092609
0.028576275 0.05967572 0.39082325
0.028919877 0.059672985 0.39079887
0.029277803 0.059699513 0.39096606
0.029603135 0.059659734 0.39069891
0.059995893 0.058362205 0.38132736
0.060304519 0.058334399 0.38113335
0.060642712 0.058335342 0.38112715
0.060969267 0.058325149 0.38104805
0.061268535 0.058289096 0.38080004
0.061615076 0.058298174 0.38084677
0.061938498 0.058285397 0.38075072
0.06224345 0.058255471 0.38054255
0.062595218 0.058269445 0.38062111
0.062911525 0.058250431 0.38048413
0.063237593 0.058240619 0.38040721
0.063549437 0.058217868 0.38024575
0.063866101 0.058199763 0.38011456
0.064198658 0.058196239 0.38007858
0.064524077 0.05818633 0.38000083
0.064846553 0.058173869 0.37990642
0.06517721 0.058168851 0.37986043
0.065482549 0.058141399 0.37966803
0.065798506 0.058123603 0.37953857
0.066136338 0.058125213 0.37953582
0.066450529 0.058106139 0.37939796
0.066786252 0.058105994 0.37938359
0.067084625 0.058073506 0.37915805
0.06742765 0.058079805 0.37918571
0.067754567 0.058072243 0.37912279
0.068064809 0.058050524 0.37896743
0.068396196 0.058046971 0.37893057
0.068715453 0.058033206 0.37882707
0.069015734 0.058003623 0.37862024
0.069354974 0.058006912 0.37862793
0.069670513 0.057990447 0.37850663
0.070012696 0.057996202 0.37853029
0.07030759 0.057962913 0.37829915
0.070608646 0.057935011 0.37810302
0.070936456 0.05792921 0.37805119
0.07126569 0.057924617 0.37800717
0.071576618 0.057905257 0.37786672
0.071921796 0.057913665 0.37790745
0.072228827 0.057891421 0.37774807
0.072555646 0.057885163 0.377693
0.072869524 0.057868686 0.3775712
0.073173672 0.057844665 0.37740019
0.073526211 0.057858948 0.37747899
0.073890552 0.057882339 0.37761709
0.015279587 0.06063661 0.3950195
0.01560994 0.060566384 0.39455825
0.015961077 0.060578104 0.39463082
0.016303103 0.060555488 0.39447957
0.016651457 0.060556822 0.39448431
0.01699708 0.060548365 0.39442524
0.017337292 0.060521372 0.39424527
0.017675348 0.060488053 0.39402404
0.018026849 0.060501136 0.39410508
0.01837017 0.060486801 0.39400735
0.018704522 0.060444009 0.3937242
0.019045895 0.060425047 0.39359623
0.019395826 0.060433425 0.3936463
0.019740317 0.060424861 0.39358592
0.020078341 0.060397141 0.39340067
0.020423656 0.060391922 0.39336193
0.0207677 0.060383171 0.39330015
0.021098556 0.060337003 0.39299452
0.02144568 0.060338091 0.39299667
0.021775918 0.060292393 0.392694
0.02212256 0.060292833 0.39269176
0.02246947 0.060293976 0.39269406
0.022815131 0.060291771 0.39267448
0.023160342 0.060288478 0.39264771
0.023485117 0.060232859 0.3922801
0.023827603 0.06022362 0.39221448
0.02416743 0.060208019 0.39210737
0.024510834 0.060201645 0.39206028
0.024850193 0.060185656 0.39195049
0.025187122 0.060164291 0.39180568
0.025534699 0.060168598 0.39182788
0.025874699 0.060155176 0.39173463
0.026212642 0.060137387 0.39161286
0.026555369 0.060130887 0.39156452
0.026883533 0.060092013 0.3913053
0.027220484 0.060073499 0.39117861
0.027562264 0.060065981 0.39112347
0.027904855 0.060060397 0.39108083
0.028251994 0.060064614 0.39110196
0.028591307 0.060052294 0.39101532
0.028931577 0.060042251 0.39094344
0.029247116 0.059981722 0.39054278
0.029608561 0.060015656 0.39075708
0.060337692 0.058704011 0.38133103
0.060669065 0.058698181 0.38128075
0.060994048 0.058686268 0.38119096
0.061316118 0.058671698 0.38108379
0.0616199 0.058639888 0.38086465
0.061972428 0.058654558 0.38094732
0.062276594 0.058623545 0.38073325
0.062620394 0.058629978 0.38076231
0.06296289 0.058635116 0.38078293
0.063245781 0.058584992 0.38044459
0.063578114 0.058580961 0.38040552
0.063906923 0.058573727 0.38034564
0.064240292 0.058570735 0.38031328
0.064556427 0.05855215 0.38017952
0.064864784 0.058526728 0.3800014
0.065180376 0.058508068 0.37986714
0.065509647 0.058501814 0.37981331
0.065829724 0.058487456 0.37970692
0.066160925 0.058483079 0.37966523
0.066491619 0.058478296 0.37962082
0.066810951 0.058463611 0.37951213
0.067132547 0.058451053 0.37941721
0.067454517 0.058438949 0.37932512
0.067766316 0.058418185 0.37917686
0.068109594 0.05842464 0.37920514
0.068435244 0.058415975 0.37913528
0.068737812 0.058387794 0.37893873
0.069065996 0.058381539 0.37888438
0.069353998 0.058341537 0.37861103
0.069680557 0.058334198 0.37854961
0.070032477 0.058348063 0.37862569
0.070321262 0.058309443 0.37836117
0.070655532 0.058308728 0.3783426
0.070976943 0.058297459 0.37825546
0.071277671 0.058269382 0.37805924
0.07162258 0.058277521 0.37809795
0.071936205 0.058260243 0.37797168
0.072277308 0.058265273 0.37799016
0.072584175 0.058242798 0.37783009
0.072909772 0.058235481 0.37776834
0.073236242 0.058228929 0.37771147
0.073577225 0.058233917 0.37772948
0.073886625 0.058213983 0.37758571
0.015280722 0.06098954 0.39503404
0.015615948 0.060937833 0.3946954
0.01596508 0.060941469 0.39471516
0.016306577 0.060916416 0.39454901
0.016654661 0.060916509 0.39454561
0.017002856 0.060916997 0.39454478
0.017344011 0.060892735 0.39438355
0.017687904 0.060878865 0.39428952
0.018033165 0.06087013 0.39422873
0.018380197 0.0608676 0.39420801
0.018716678 0.060830865 0.39396572
0.019060295 0.06081824 0.3938795
0.019401152 0.060797423 0.39374015
0.019743543 0.060782053 0.39363599
0.020080565 0.060750972 0.39343005
0.02042946 0.060756251 0.39345953
0.020771906 0.060742501 0.39336565
0.021114338 0.060729157 0.39327437
0.021446181 0.060686279 0.39299175
0.021799861 0.060705572 0.39311168
0.022129122 0.060657334 0.39279419
0.022480609 0.060670558 0.39287466
0.022824053 0.060662005 0.39281407
0.023168059 0.06065518 0.39276457
0.023502288 0.06062334 0.392553
0.023837071 0.060593821 0.39235643
0.024178812 0.060582589 0.39227816
0.024516918 0.060562696 0.39214376
0.024860406 0.060556464 0.39209777
0.025200967 0.060543362 0.3920072
0.025541568 0.060530718 0.39191955
0.025879627 0.060512457 0.39179546
0.026227841 0.060518112 0.39182618
0.026559478 0.060485866 0.3916114
0.026898751 0.06047162 0.39151305
0.027244134 0.060471289 0.39150482
0.027580755 0.060451772 0.39137223
0.027921539 0.060441744 0.39130104
0.028263185 0.060433805 0.39124328
0.028597659 0.060410902 0.3910886
0.028952923 0.060431931 0.3912183
0.029319784 0.060476393 0.39149955
0.029674292 0.060494639 0.39161101
0.060351647 0.059055168 0.38140711
0.060692035 0.059058011 0.38141304
0.06102122 0.059049975 0.38134873
0.061346438 0.059038214 0.38126025
0.061677471 0.059032138 0.38120848
0.062004972 0.059022769 0.38113537
0.062329885 0.059011053 0.38104707
0.062626541 0.058972847 0.38078767
0.062972672 0.058981407 0.38083014
0.0632926 0.058965448 0.3807143
0.063605621 0.058943264 0.38055819
0.063940741 0.05894167 0.38053501
0.064264096 0.058929324 0.38044232
0.064587623 0.058917254 0.38035136
0.064884193 0.058880843 0.38010326
0.065222383 0.058882389 0.3801001
0.065548196 0.058872797 0.38002503
0.065864511 0.058854811 0.37989572
0.066182271 0.058838308 0.37977591
0.066514641 0.058834877 0.37974045
0.066834092 0.058820121 0.37963185
0.067153908 0.058805831 0.3795262
0.067460194 0.058779892 0.3793453
0.067805618 0.058788139 0.37938505
0.068132333 0.058780171 0.37932003
0.068451099 0.058765452 0.37921143
0.068748862 0.058732934 0.37898791
0.06909588 0.058742613 0.37903666
0.069396511 0.058712944 0.37883145
0.069714665 0.058698319 0.37872329
0.070046969 0.058695685 0.37869245
0.070361637 0.058678366 0.3785668
0.070694521 0.05867634 0.37853977
0.071016558 0.058665369 0.37845498
0.07133738 0.058653504 0.37836441
0.071632937 0.058621064 0.37814105
0.071980782 0.058631528 0.37819439
0.072297096 0.058616322 0.37808216
0.072609402 0.058598034 0.37794995
0.072933473 0.058589347 0.37787965
0.073271587 0.058591988 0.37788233
0.073581643 0.058572255 0.37774068
0.01562439 0.061319098 0.39489397
0.01597278 0.061319187 0.39489076
0.016317653 0.061306048 0.39480224
0.016662462 0.061293233 0.39471576
0.017009558 0.061289176 0.39468563
0.017352453 0.061270453 0.39456093
0.017695095 0.061251584 0.39443523
0.018038543 0.061236177 0.39433178
0.018387448 0.061239522 0.39434904
0.018725172 0.061206199 0.39413005
0.019073199 0.06120716 0.39413181
0.019409563 0.061171319 0.39389649
0.019749817 0.061148781 0.39374676
0.020100042 0.061157372 0.3937974
0.020437347 0.061127014 0.39359719
0.020785198 0.061128683 0.39360312
0.021123614 0.061103009 0.39343292
0.021458752 0.061068837 0.39320794
0.021804811 0.061066333 0.39318684
0.022147497 0.06105461 0.39310625
0.022486867 0.061034251 0.39297
0.022831691 0.061029084 0.39293149
0.023174858 0.0610197 0.39286578
0.023513621 0.060999177 0.39272827
0.023860067 0.060998887 0.39272097
0.024197279 0.060975339 0.39256385
0.024534075 0.060951419 0.39240426
0.024876198 0.060941212 0.39233291
0.025216918 0.060927898 0.39224148
0.02555806 0.06091594 0.39215869
0.025901591 0.060909934 0.39211416
0.026234074 0.06087843 0.39190546
0.026573757 0.060864251 0.39180815
0.026912915 0.060849234 0.39170545
0.027249483 0.060828835 0.39156798
0.027585754 0.060808282 0.39142948
0.027928976 0.060803365 0.39139155
0.028272031 0.060798209 0.39135203
0.028616764 0.060796745 0.39133617
0.028962806 0.060798056 0.39133817
0.029315302 0.060812734 0.39142606
0.029680008 0.060852095 0.39167282
0.030020364 0.060841203 0.39159602
0.060395844 0.059436265 0.38167432
0.060700402 0.059403803 0.38145351
0.061051037 0.059416559 0.38152295
0.061379351 0.059407558 0.38145271
0.061691724 0.05938331 0.38128445
0.062036138 0.059390012 0.38131484
0.062343635 0.059361488 0.38111904
0.062666208 0.05934754 0.38101685
0.062996745 0.059341244 0.38096365
0.063312292 0.059320975 0.38082075
0.063642241 0.059314344 0.38076526
0.063943245 0.059280939 0.38053796
0.064272203 0.059273671 0.38047832
0.064629421 0.059292406 0.38058555
0.064952649 0.059279922 0.38049236
0.065249898 0.059243981 0.38024858
0.065563992 0.059223622 0.38010475
0.06591551 0.059237104 0.38017803
0.066254817 0.059239525 0.3801803
0.066560514 0.059212029 0.37999052
0.066850349 0.059170764 0.37971234
0.067181453 0.059166256 0.37967002
0.067515321 0.059164222 0.3796435
0.067814246 0.059131738 0.37942153
0.068150967 0.059132367 0.37941203
0.06848906 0.059134174 0.37940997
0.068789169 0.059103321 0.3791984
0.069128565 0.059106369 0.37920418
0.069426581 0.059074175 0.37898391
0.069750778 0.059064455 0.37890777
0.070056945 0.059039634 0.37873468
0.070408188 0.059052862 0.37880564
0.070728101 0.059039805 0.37870795
0.071036913 0.059017651 0.37855181
0.071371414 0.059016947 0.37853327
0.071662962 0.058980905 0.378288
0.071989782 0.058974076 0.37823009
0.072311506 0.058963172 0.37814596
0.07264372 0.058960874 0.378117
0.072964832 0.058949631 0.3780306
0.073304735 0.058953598 0.37804174
0.07362128 0.058938831 0.37793267
0.073971123 0.058950733 0.3779946
0.074296221 0.058942899 0.3779299
0.015634492 0.061707299 0.39513448
0.015984565 0.061713018 0.39516729
0.016327251 0.06169058 0.39501974
0.016672812 0.06167971 0.39494619
0.017017789 0.061667182 0.39486194
0.017360445 0.061646905 0.394728
0.017707935 0.061644249 0.39470685
0.018046124 0.061609942 0.39448294
0.018393008 0.061606061 0.39445373
0.018735673 0.061588448 0.39433661
0.019076023 0.061564006 0.39417565
0.019424265 0.061565451 0.39418039
0.019767197 0.061550312 0.39407885
0.020108815 0.061531678 0.3939549
0.020453425 0.061522663 0.39389247
0.020795628 0.061506845 0.39378631
0.02112817 0.061463431 0.39350355
0.021468744 0.061444409 0.3933768
0.021812938 0.061436195 0.39331919
0.022159513 0.061434831 0.39330533
0.022498716 0.061413385 0.39316291
0.022843942 0.061408784 0.39312822
0.02318964 0.061405558 0.39310226
0.02352199 0.061367612 0.39285398
0.023868676 0.061367631 0.39284864
0.024197286 0.061321836 0.39254996
0.024545584 0.061326515 0.39257434
0.024887342 0.061314952 0.39249468
0.025230758 0.061307736 0.39244279
0.025575496 0.061303888 0.39241236
0.025915252 0.061288353 0.39230704
0.026252137 0.06126653 0.39216143
0.026580777 0.061226275 0.3918978
0.026922055 0.061215807 0.39182466
0.027261447 0.061201356 0.39172608
0.027598388 0.061181832 0.39159492
0.027946344 0.061186913 0.39162114
0.028294548 0.061192401 0.39164996
0.028630232 0.061171003 0.39150658
0.02897891 0.061177552 0.39154205
0.029354285 0.061239645 0.39193287
0.029703649 0.061246652 0.39197111
0.060453303 0.059830964 0.38202521
0.060740191 0.059780624 0.3816914
0.061069582 0.059772439 0.38162667
0.061394915 0.059760392 0.38153726
0.061720729 0.05974894 0.38145164
0.062044568 0.059735704 0.38135454
0.062362928 0.059717376 0.38122487
0.062670887 0.059689336 0.38103321
0.063004851 0.059686229 0.38100061
0.063338242 0.059682623 0.38096479
0.063666306 0.059674051 0.38089722
0.063983537 0.059655465 0.38076568
0.064311221 0.059646774 0.38069728
0.064658545 0.0596563 0.38074505
0.064952217 0.059616476 0.38047785
0.065289468 0.059616856 0.38046718
0.065616295 0.059607767 0.38039598
0.065929972 0.059586871 0.38024944
0.066260979 0.05958179 0.38020372
0.066589206 0.059574261 0.38014236
0.066891536 0.059543759 0.3799344
0.06721884 0.059535686 0.37986943
0.067530923 0.059514262 0.37971932
0.067844324 0.059494227 0.37957796
0.0681732 0.059487883 0.37952396
0.068498626 0.059478607 0.37945116
0.068809889 0.059457183 0.37930083
0.069140598 0.059452683 0.37925842
0.069477379 0.059453428 0.37924939
0.069777958 0.059423342 0.3790437
0.07009992 0.059411652 0.3789553
0.070412733 0.059392367 0.37881839
0.070753828 0.059397001 0.37883398
0.071064465 0.059376147 0.37868702
0.071399316 0.059375618 0.37866959
0.071706057 0.059351824 0.37850377
0.072015271 0.059330307 0.3783524
0.072348729 0.05932885 0.37832898
0.072672158 0.059319228 0.3782534
0.073000737 0.059313886 0.37820506
0.073334903 0.059313104 0.37818575
0.073643245 0.059291534 0.37803388
0.073984645 0.05929666 0.37805215
0.074352197 0.059322599 0.37820306
0.015642948 0.062089402 0.39533326
0.015986318 0.062068395 0.39519572
0.016334191 0.062065408 0.3951728
0.016682638 0.06206467 0.39516416
0.017021799 0.062030129 0.3949402
0.017368693 0.062024582 0.3949008
0.017714718 0.062016211 0.39484334
0.018057434 0.06199681 0.39471555
0.018404026 0.061991185 0.3946754
0.018747112 0.061974183 0.39456281
0.019087164 0.061947949 0.39439133
0.01943092 0.061934464 0.39430094
0.019771818 0.061912503 0.39415652
0.020118892 0.061910305 0.39413789
0.020462286 0.061897043 0.39404872
0.020805476 0.061883621 0.39395848
0.021146949 0.061865613 0.39383894
0.021492567 0.061860111 0.39379898
0.021834169 0.061843421 0.3936877
0.022160573 0.061784871 0.39330986
0.022509053 0.06178873 0.39332932
0.022850158 0.061772525 0.39322093
0.023195954 0.061769307 0.39319512
0.023536809 0.061753213 0.3930873
0.023870558 0.061719216 0.39286548
0.024211373 0.061704192 0.39276433
0.024556074 0.061699368 0.39272803
0.024896255 0.061683472 0.39262119
0.025233539 0.061660923 0.392472
0.025578627 0.061657809 0.39244637
0.025925493 0.061658997 0.39244807
0.026263578 0.061639551 0.39231837
0.026588207 0.061589431 0.3919934
0.026928239 0.061575826 0.39190072
0.027265698 0.06155676 0.39177325
0.027613381 0.061560955 0.39179376
0.027951151 0.061543234 0.3916747
0.028287454 0.061522733 0.3915379
0.028637445 0.061532151 0.39159143
0.028995534 0.061558533 0.39175287
0.029336981 0.061549369 0.39168802
0.060498621 0.060214233 0.3822993
0.060771208 0.060149197 0.38187405
0.061091766 0.060132094 0.38175306
0.061417449 0.060120206 0.38166508
0.061750777 0.060115878 0.38162509
0.062066194 0.060094263 0.38147527
0.062390935 0.060081858 0.38138393
0.06272468 0.060078219 0.3813481
0.063032031 0.060049459 0.38115281
0.063369766 0.06004981 0.38114223
0.063710779 0.060053237 0.38115111
0.064010285 0.060017716 0.38091278
0.064326517 0.059998162 0.38077575
0.064676978 0.060010575 0.38084152
0.065000489 0.059997983 0.38074854
0.065314695 0.05997698 0.38060215
0.065639086 0.059965484 0.38051605
0.065948777 0.059940755 0.38034591
0.066284366 0.05993969 0.38032588
0.06662827 0.059946127 0.38035345
0.06693273 0.059917178 0.38015643
0.067262053 0.059910666 0.38010171
0.067560345 0.059876733 0.37987292
0.067887329 0.059868418 0.37980667
0.068196073 0.059844188 0.37963942
0.068537369 0.05984861 0.37965387
0.06886518 0.059841279 0.37959373
0.069177181 0.059820347 0.37944722
0.069477864 0.059789881 0.37924027
0.069816351 0.059792079 0.37924042
0.07013873 0.059780531 0.37915331
0.070454307 0.059763316 0.37903026
0.070794106 0.059766721 0.37903792
0.071111552 0.059751298 0.37892613
0.07141038 0.05972046 0.37871653
0.071743369 0.059718356 0.37868908
0.072066024 0.059707686 0.37860733
0.072378896 0.059689067 0.37847507
0.072708473 0.059684318 0.37843075
0.073024258 0.059668355 0.37831527
0.073363945 0.059671961 0.37832385
0.073682271 0.059658255 0.37822258
0.074018292 0.059658933 0.37821248
0.074364841 0.059668042 0.37825578
0.015648542 0.062460445 0.39545956
0.01599751 0.062460706 0.39545739
0.016339848 0.062435616 0.39529467
0.016686875 0.062429126 0.39524963
0.017028637 0.062403597 0.39508399
0.017381458 0.062418811 0.3951762
0.017721672 0.062389042 0.39498356
0.018061621 0.062359501 0.39479229
0.018410783 0.062362291 0.39480564
0.018757336 0.062356289 0.39476326
0.019091554 0.062310264 0.39446744
0.019435646 0.062297527 0.39438227
0.01977752 0.062278245 0.39425561
0.020125872 0.062279686 0.39426008
0.020464765 0.062252302 0.39408198
0.020814285 0.062257607 0.39411077
0.021152522 0.062229551 0.39392832
0.021499934 0.062228963 0.39391959
0.021846924 0.062227182 0.39390329
0.022175681 0.062174335 0.39356369
0.022516035 0.062155131 0.39343697
0.022864657 0.062158991 0.39345619
0.02319997 0.062127087 0.39324898
0.023545563 0.06212325 0.39321929
0.023890104 0.062116791 0.39317298
0.024233839 0.062108442 0.39311463
0.024571739 0.062085591 0.39296439
0.024910204 0.062064778 0.39282703
0.02524415 0.062033433 0.39262292
0.0255911 0.062034458 0.39262363
0.025934689 0.062027421 0.39257321
0.026270049 0.062001143 0.39240101
0.026614297 0.061996255 0.39236405
0.026947351 0.061965749 0.39216492
0.027281089 0.061937559 0.39198044
0.027625924 0.061934963 0.39195779
0.02796847 0.061927356 0.3919034
0.028300621 0.061897211 0.39170626
0.02865137 0.061907966 0.39176795
0.029006662 0.061928164 0.3918893
0.029360106 0.061943997 0.39198291
0.029715683 0.061963901 0.39210224
0.060531396 0.060585439 0.38249406
0.060812436 0.060528275 0.38212079
0.061129488 0.060507387 0.38197649
0.061463583 0.060503498 0.38193947
0.061778449 0.060480829 0.38178384
0.062100157 0.060465071 0.38167179
0.062437877 0.060464993 0.38165864
0.06275624 0.060446262 0.38152775
0.063075401 0.060428493 0.38140285
0.063402049 0.060418066 0.38132423
0.063734159 0.060412906 0.38127884
0.064049512 0.060392015 0.38113406
0.064381808 0.060387224 0.38109088
0.064683266 0.060353711 0.38086641
0.065016322 0.060349878 0.38082913
0.065337323 0.060334958 0.38072193
0.065654494 0.060316663 0.38059333
0.065992862 0.06031793 0.38058811
0.06632109 0.060309961 0.38052461
0.066641241 0.060294773 0.38041547
0.066964209 0.06028226 0.38032317
0.067291386 0.060273658 0.38025549
0.067599803 0.060248408 0.38008273
0.067912452 0.060227174 0.37993526
0.068212248 0.060194798 0.3797175
0.068543687 0.060190517 0.37967691
0.068870157 0.060181953 0.37960926
0.069194801 0.060171876 0.37953198
0.069525145 0.060166832 0.37948644
0.069848396 0.060155723 0.37940258
0.070164554 0.060138643 0.37928101
0.070501223 0.060139216 0.37927079
0.070816472 0.060121618 0.37914583
0.071134605 0.060106602 0.3790372
0.071455806 0.060094312 0.37894565
0.071782894 0.060087062 0.3788859
0.07210508 0.060075801 0.37880075
0.072411679 0.060051724 0.37863475
0.072735257 0.060041875 0.37855843
0.073049553 0.060024481 0.37843457
0.073389553 0.060028285 0.37844422
0.073710158 0.06001626 0.37835407
0.07404954 0.060019556 0.37836048
0.074369863 0.060007453 0.3782697
0.015655443 0.062836982 0.39561883
0.016002469 0.062829025 0.39556491
0.016348859 0.062818967 0.39549768
0.01669693 0.062815636 0.39547279
0.017041318 0.06279888 0.39536324
0.017384499 0.062778428 0.39523044
0.017730536 0.062768906 0.39516625
0.018071035 0.062740512 0.39498326
0.018418143 0.062735692 0.39494866
0.018762376 0.062721461 0.39485464
0.01910343 0.062697299 0.39469808
0.019444702 0.062674709 0.39455137
0.019788736 0.062661655 0.39446461
0.020133873 0.062652484 0.39440224
0.020478904 0.062643297 0.39433965
0.020819889 0.062622257 0.39420235
0.021164458 0.062612489 0.39413604
0.021504831 0.062590845 0.39399481
0.02184858 0.062579542 0.39391869
0.022192581 0.062569313 0.39384922
0.022538144 0.06256374 0.39380896
0.022876073 0.062537447 0.39363825
0.023209857 0.06250079 0.39340219
0.023561213 0.062511832 0.39346635
0.023898693 0.062486276 0.39330003
0.024242925 0.062478844 0.39324775
0.024589693 0.062478069 0.39323729
0.024922941 0.062443431 0.39301369
0.025261294 0.062422372 0.3928754
0.0256001 0.062402975 0.39274752
0.02594528 0.062399436 0.39271942
0.02628164 0.062375054 0.39256003
0.026627492 0.062373538 0.39254451
0.026965914 0.062354878 0.39242101
0.02730184 0.062330991 0.39226452
0.027644416 0.062322691 0.39220613
0.027984837 0.062309802 0.39211875
0.028331533 0.062311031 0.39212015
0.028674271 0.062303618 0.3920671
0.029022394 0.062307958 0.39208791
0.029383125 0.062338941 0.39227635
0.029728372 0.062336724 0.39225575
0.060572602 0.060965508 0.38274205
0.060820412 0.060874533 0.38215855
0.061157197 0.060873121 0.38213724
0.061500795 0.060878463 0.38215834
0.061815944 0.06085575 0.38200322
0.062141009 0.060842995 0.38191056
0.062480543 0.060844459 0.38190711
0.062779225 0.060806338 0.38165516
0.063115068 0.060804434 0.38163045
0.063416183 0.060769264 0.38139695
0.063758433 0.060773682 0.38141182
0.064083062 0.060761329 0.38132143
0.064403512 0.060745183 0.38120711
0.064724706 0.060729895 0.38109824
0.065056242 0.060724419 0.38105083
0.065384492 0.060715951 0.38098454
0.065678246 0.060675696 0.38071883
0.066019006 0.060679063 0.38072675
0.066348135 0.060671758 0.38066766
0.066673622 0.060661204 0.3805882
0.066992901 0.060645144 0.38047406
0.067326844 0.060642444 0.38044375
0.067647442 0.060627826 0.38033855
0.067946501 0.060594134 0.38011375
0.068260513 0.06057404 0.37997416
0.06857653 0.06055592 0.3798469
0.068909973 0.060553286 0.37981674
0.069211833 0.060523063 0.37961346
0.069557212 0.060531002 0.37964955
0.069866739 0.060507808 0.37949029
0.070222653 0.060524821 0.37958315
0.070506528 0.060479876 0.37928745
0.070853755 0.06048945 0.37933353
0.071165524 0.060468804 0.37919006
0.071489528 0.060458682 0.3791126
0.071819991 0.060454108 0.37906986
0.07212735 0.060430221 0.37890595
0.072441556 0.060412254 0.37877914
0.072751917 0.060391266 0.37863335
0.073076047 0.060381848 0.37856007
0.07341706 0.060386397 0.37857431
0.073744833 0.060380075 0.37852031
0.074071258 0.060372699 0.37845972
0.074421197 0.060384475 0.37851909
0.074835651 0.060448252 0.37890437
0.015659032 0.063200459 0.39569435
0.016010899 0.063211255 0.39575812
0.01636236 0.063220032 0.39580914
0.016704047 0.063191451 0.39562628
0.01704842 0.063174002 0.395513
0.017393714 0.063160591 0.39542496
0.017736934 0.063140325 0.39529392
0.018086614 0.063143395 0.39530891
0.01842811 0.063118309 0.39514756
0.018773273 0.063106485 0.39506915
0.019115515 0.063085452 0.39493299
