# .PCD v0.7 - Point Cloud Data file format
VERSION 0.7
FIELDS x y z
SIZE 4 4 4
TYPE F F F
COUNT 1 1 1
WIDTH 1359
HEIGHT 1
VIEWPOINT 0 0 0 1 0 0 0
POINTS 1359
DATA ascii
-0.12704761 0.0844604 0.41927013
-0.12667111 0.084458351 0.41927794
-0.12617165 0.084374055 0.41887745
-0.12582886 0.084394351 0.41899613
-0.12535122 0.084324054 0.41866508
-0.12491088 0.084278487 0.41845676
-0.12450086 0.084253192 0.418349
-0.12411309 0.084242821 0.41831544
-0.12379579 0.084280379 0.41851977
-0.12344681 0.084296532 0.41861781
-0.12305755 0.084285185 0.41857934
-0.12269445 0.084291749 0.41862974
-0.12235795 0.084316678 0.41877139
-0.12201404 0.084336653 0.41888836
-0.12160183 0.084309377 0.4187707
-0.1212147 0.084299386 0.41873881
-0.12078138 0.084257111 0.41854653
-0.11939818 0.084070101 0.41767052
-0.1190162 0.084062845 0.4176521
-0.11846507 0.0839357 0.41703799
-0.11789706 0.083795756 0.4163602
-0.11750954 0.083783612 0.41631737
-0.11710176 0.083756909 0.41620219
-0.11669227 0.083728813 0.41608
-0.11624616 0.08367417 0.4158259
-0.11580031 0.083619379 0.41557094
-0.11540865 0.083603486 0.41550934
-0.11505211 0.083613008 0.41557404
-0.11463549 0.083578795 0.41542131
-0.11422901 0.083551779 0.41530433
-0.11377925 0.083492823 0.41502851
-0.11337014 0.083463416 0.41489953
-0.113004 0.083465546 0.41492733
-0.11258608 0.083429344 0.41476449
-0.11218581 0.083406001 0.41466558
-0.11183665 0.083420634 0.41475549
-0.090507127 0.081811868 0.40760419
-0.090109065 0.081778921 0.40745509
-0.089719839 0.081753775 0.40734476
-0.089352354 0.081748307 0.40733242
-0.08896938 0.08172857 0.407249
-0.088552706 0.081677586 0.40700981
-0.088180609 0.081667468 0.4069742
-0.087783962 0.08163444 0.40682438
-0.087386936 0.081600778 0.40667132
-0.086991742 0.081568584 0.40652549
-0.086602643 0.081541821 0.40640676
-0.086219363 0.081520364 0.40631437
-0.085825875 0.081489027 0.40617269
-0.085451379 0.081475534 0.40611991
-0.085050546 0.081436701 0.4059408
-0.084657796 0.081405327 0.40579876
-0.084271096 0.081379518 0.40568441
-0.083873406 0.081342831 0.40551585
-0.083491638 0.081321344 0.40542293
-0.083122641 0.081312157 0.40539131
-0.082715042 0.081264965 0.40517017
-0.082298607 0.081208639 0.40490341
-0.081956759 0.081225753 0.40500274
-0.081569359 0.081197672 0.40487671
-0.081170343 0.081157722 0.40469143
-0.080793679 0.081139863 0.40461627
-0.080403194 0.0811079 0.40447074
-0.080025978 0.081089109 0.40439081
-0.079637811 0.081059016 0.40425441
-0.079241179 0.081019975 0.40407339
-0.078865856 0.081002466 0.40399966
-0.078467235 0.080960765 0.40380526
-0.078083038 0.08093363 0.40368348
-0.077695429 0.080902688 0.40354261
-0.077311844 0.080875687 0.40342131
-0.076939352 0.080860086 0.40335685
-0.076554611 0.080831394 0.40322706
-0.076182328 0.080815665 0.40316182
-0.075829975 0.080821022 0.40320179
-0.075453639 0.080800749 0.40311381
-0.075102605 0.080807514 0.40316063
-0.074775532 0.080840237 0.403337
-0.074417792 0.080839969 0.40334862
-0.074076466 0.080857627 0.40344971
-0.12871087 0.084946275 0.41973913
-0.12829311 0.084917262 0.41961381
-0.12793694 0.084928952 0.4196896
-0.1275097 0.084893405 0.41953191
-0.1270909 0.084863275 0.41940099
-0.12673396 0.084874392 0.41947395
-0.12632269 0.084849082 0.41936681
-0.12585445 0.08478526 0.41906932
-0.1254237 0.084746376 0.41889501
-0.12504029 0.08473935 0.41887817
-0.12462565 0.084711052 0.41875616
-0.12414372 0.084636703 0.41840649
-0.1237187 0.084600829 0.41824698
-0.12339034 0.084631026 0.41841409
-0.12306648 0.084664524 0.41859746
-0.12273003 0.08468952 0.4187389
-0.12233861 0.084676623 0.41869289
-0.12198707 0.084691338 0.41878346
-0.12157331 0.08466281 0.4186601
-0.12114947 0.084627077 0.41850114
-0.12071861 0.084586196 0.41831669
-0.12031945 0.084567346 0.41824108
-0.11984301 0.084493898 0.41789547
-0.11940171 0.084444828 0.41767043
-0.11894918 0.084387504 0.41740447
-0.11851111 0.08434011 0.4171876
-0.11792598 0.084187426 0.41644984
-0.11755888 0.084189922 0.41647968
-0.11715079 0.084162988 0.41636389
-0.11678613 0.084167182 0.4164021
-0.11630211 0.084085114 0.41601345
-0.11589314 0.084056951 0.4158915
-0.11546142 0.084012061 0.41568673
-0.11506639 0.083993658 0.415613
-0.11466537 0.08397074 0.41551694
-0.11425849 0.083943389 0.41539881
-0.11384968 0.083914429 0.41527274
-0.11346593 0.083903819 0.41523743
-0.11301094 0.083840266 0.41494012
-0.11268815 0.083874717 0.41512778
-0.11236443 0.083908692 0.41531307
-0.11207059 0.083965279 0.41561025
-0.090496451 0.082164437 0.40754244
-0.09015701 0.082184754 0.40765822
-0.089780472 0.082171269 0.40760636
-0.089412369 0.082165442 0.40759236
-0.089012347 0.082130112 0.40743196
-0.088586375 0.082070448 0.4071508
-0.088206291 0.082052983 0.40707898
-0.087841727 0.082049876 0.4070783
-0.087447673 0.082019083 0.40694022
-0.087038845 0.081974111 0.40673178
-0.086702034 0.081996903 0.40685943
-0.086257607 0.081917658 0.40648082
-0.085903592 0.081923984 0.40652668
-0.08547812 0.081861913 0.40623319
-0.085102409 0.081847191 0.40617454
-0.084695168 0.081801899 0.40596408
-0.084314242 0.081781715 0.40587828
-0.083899818 0.081728756 0.40562966
-0.083541676 0.081730396 0.40565202
-0.083158806 0.081707746 0.40555376
-0.082754083 0.08166334 0.40534747
-0.082401335 0.081670061 0.40539494
-0.082011022 0.081639454 0.40525699
-0.081627138 0.081614994 0.40514958
-0.081204131 0.08155103 0.40484598
-0.080845378 0.081551313 0.40486124
-0.080437198 0.081501529 0.40462786
-0.080077261 0.081500381 0.404636
-0.079670787 0.081451662 0.40440777
-0.079306938 0.081446268 0.40439469
-0.078905456 0.081402011 0.40418854
-0.07848715 0.081339911 0.40389377
-0.078143336 0.081354789 0.40398118
-0.077759013 0.081327446 0.40385884
-0.077379122 0.081304505 0.40375829
-0.076987348 0.081268817 0.40359443
-0.076589674 0.081226528 0.40339771
-0.076220259 0.081213951 0.40334848
-0.075871594 0.081223473 0.403409
-0.075492099 0.081199914 0.40330514
-0.075118385 0.081182398 0.4032312
-0.074782886 0.081206203 0.40336248
-0.074433297 0.08121486 0.40341851
-0.074079946 0.081219487 0.40345448
-0.07375636 0.081256948 0.40365347
-0.12880456 0.085382842 0.42003277
-0.12835474 0.08533255 0.41980338
-0.12802912 0.085364789 0.41998002
-0.12756461 0.085304335 0.41970053
-0.12722602 0.085327983 0.41983485
-0.1268331 0.08531522 0.41979
-0.12635621 0.085245743 0.41946608
-0.12590918 0.085196041 0.4192394
-0.12551452 0.085181594 0.4191862
-0.12508795 0.085145324 0.41902563
-0.12468925 0.085127898 0.41895771
-0.12419507 0.085044958 0.41856736
-0.12372307 0.08497677 0.41824955
-0.12334052 0.084969781 0.41823295
-0.12303879 0.085018598 0.41849101
-0.12267467 0.085024484 0.41853771
-0.12231788 0.085035488 0.41860962
-0.12194914 0.085038237 0.41864091
-0.12155175 0.085020952 0.41857353
-0.12112174 0.084980682 0.41839296
-0.12072141 0.084961034 0.41831389
-0.12031765 0.084938869 0.41822237
-0.11983462 0.084860429 0.4178538
-0.11940777 0.084821396 0.41767919
-0.11892735 0.084743947 0.41731539
-0.11844938 0.08466778 0.4169578
-0.11799725 0.08460965 0.41668904
-0.11763498 0.084615782 0.41673672
-0.11721615 0.084581167 0.41658366
-0.11676562 0.084523372 0.41631642
-0.11637247 0.084506877 0.41625252
-0.11596893 0.084482707 0.41615084
-0.11554208 0.084441356 0.41596448
-0.11514214 0.084419459 0.41587394
-0.11471429 0.084376894 0.41568151
-0.11432093 0.084359497 0.41561306
-0.11392822 0.084342495 0.41554651
-0.11348387 0.084287003 0.4152903
-0.11309832 0.084274977 0.41524819
-0.11279578 0.084324919 0.41551143
-0.11249708 0.084378079 0.41579056
-0.090149522 0.082540207 0.40761065
-0.089792736 0.082544796 0.4076483
-0.089433834 0.082547478 0.40767646
-0.089051194 0.082528181 0.40759602
-0.088657938 0.082498848 0.40746596
-0.088271536 0.082475685 0.40736634
-0.087890796 0.082457632 0.40729189
-0.087466836 0.08239872 0.40701559
-0.087085217 0.082379378 0.40693468
-0.086714529 0.082370259 0.40690425
-0.086317971 0.082336374 0.40675139
-0.085903227 0.082284801 0.4065111
-0.085508645 0.082252175 0.40636438
-0.08511056 0.08221589 0.40619951
-0.084742971 0.082208894 0.40617931
-0.084349364 0.082176484 0.40603346
-0.083955757 0.082143791 0.4058862
-0.083588816 0.082137033 0.40586698
-0.083183296 0.082092136 0.40565926
-0.082803957 0.082072794 0.40557781
-0.082443252 0.082071841 0.40558717
-0.082081005 0.08206933 0.40558881
-0.081650198 0.081997961 0.40525004
-0.081290841 0.08199802 0.40526426
-0.080891669 0.08195775 0.40507907
-0.080480814 0.081905223 0.40483326
-0.080097526 0.081880406 0.40472436
-0.079729885 0.081871435 0.40469372
-0.079350851 0.081850633 0.40460455
-0.078925423 0.081781574 0.40427676
-0.078533381 0.081746638 0.40411758
-0.078161493 0.081732444 0.40406093
-0.077789247 0.081717759 0.40400177
-0.077423513 0.08170981 0.40397587
-0.07702671 0.081668839 0.40378666
-0.076648965 0.081647784 0.40369582
-0.07623522 0.081588015 0.40341353
-0.07588388 0.081594765 0.40346014
-0.075538591 0.081608139 0.40353936
-0.075138368 0.081561998 0.40332434
-0.074782185 0.081563458 0.40334457
-0.074434914 0.081574693 0.40341312
-0.074088007 0.081586443 0.40348414
-0.073743202 0.081600629 0.40356719
-0.073440537 0.08166182 0.40388265
-0.12885126 0.085788667 0.42017308
-0.12844178 0.085765198 0.4200761
-0.1280904 0.085780479 0.42016897
-0.12766539 0.085746408 0.42002004
-0.12727791 0.085737437 0.41999403
-0.12688726 0.085726246 0.41995719
-0.12645121 0.085684232 0.41976929
-0.12597473 0.085614495 0.41944548
-0.12556107 0.085587166 0.41932949
-0.1251401 0.085554682 0.41918817
-0.12475785 0.085548542 0.41917595
-0.12439948 0.085558794 0.41924399
-0.12336623 0.08536049 0.41830784
-0.12298107 0.085351676 0.41828242
-0.12259949 0.085345298 0.41826886
-0.12228096 0.085382909 0.41847092
-0.12188837 0.085368879 0.41841984
-0.12151452 0.085367933 0.41843289
-0.12110515 0.085341953 0.41832319
-0.12069783 0.085317262 0.41821977
-0.12025923 0.085270226 0.41800684
-0.11980068 0.085208721 0.41772294
-0.11945276 0.085225761 0.417824
-0.1189413 0.085125871 0.41735181
-0.11849136 0.085069515 0.41709298
-0.118012 0.084991626 0.41672859
-0.11768434 0.085022822 0.41689903
-0.11723322 0.08496476 0.41663173
-0.11684832 0.084954463 0.41659859
-0.11640649 0.084902577 0.41636157
-0.11604004 0.084905528 0.41639337
-0.11561127 0.084862746 0.41620088
-0.11520538 0.084836543 0.41608962
-0.11476266 0.084782951 0.41584408
-0.11438213 0.084775105 0.41582283
-0.11400153 0.08476717 0.41580111
-0.11357261 0.08472313 0.41560224
-0.11319826 0.084719643 0.4156023
-0.11285474 0.08473929 0.41571578
-0.089799307 0.082913168 0.40766436
-0.089438818 0.082914419 0.4076854
-0.08906541 0.082903631 0.40764725
-0.088683985 0.082885295 0.40757188
-0.088315077 0.082878545 0.40755343
-0.08792828 0.082854882 0.40745178
-0.087515958 0.08280687 0.40723038
-0.087112799 0.082767166 0.40704972
-0.086769477 0.082784221 0.40714815
-0.086358979 0.082737058 0.40693074
-0.085959285 0.082699887 0.40676245
-0.085601851 0.082703255 0.40679342
-0.085173689 0.082638018 0.4064869
-0.084815837 0.082640722 0.40651461
-0.084382579 0.082569674 0.40617937
-0.084018655 0.082566157 0.40617633
-0.083612524 0.082520939 0.4059681
-0.083244652 0.082513265 0.4059445
-0.082835726 0.082464658 0.40571943
-0.082456641 0.082445465 0.40563905
-0.082092337 0.082440943 0.4056308
-0.081683643 0.082391605 0.40540197
-0.081322312 0.082389817 0.40540707
-0.080943123 0.082369842 0.40532267
-0.080518253 0.082303002 0.40500751
-0.08013884 0.08228223 0.40491903
-0.079753451 0.082255103 0.40479925
-0.079400443 0.082261294 0.40484336
-0.078991048 0.082208842 0.4045988
-0.078629442 0.082205869 0.40459779
-0.078226775 0.082159773 0.40438434
-0.077860773 0.082151912 0.4043591
-0.077474192 0.082122169 0.40422609
-0.077063426 0.082066409 0.40396494
-0.076691799 0.082051992 0.40390727
-0.07634066 0.082059473 0.40395734
-0.075938299 0.082011685 0.40373528
-0.075544797 0.081973083 0.40355834
-0.075171538 0.08195617 0.40348816
-0.074809574 0.081951469 0.40347803
-0.074449502 0.081948824 0.40347797
-0.074109286 0.081968091 0.40358579
-0.073764838 0.081982858 0.40367132
-0.073413745 0.081990339 0.403721
-0.12887792 0.086181365 0.420248
-0.12855302 0.086214557 0.42042786
-0.1281496 0.086195126 0.42035112
-0.12772517 0.08616142 0.42020464
-0.12733962 0.08615382 0.42018551
-0.12697679 0.086161599 0.42024133
-0.12653598 0.086116344 0.42003855
-0.12612452 0.08609084 0.41993204
-0.12566318 0.086031057 0.4196583
-0.12523957 0.085996836 0.41950914
-0.12478006 0.085937664 0.41923833
-0.12439329 0.085928388 0.41921091
-0.12404402 0.08594504 0.41930991
-0.12358274 0.085883953 0.41902959
-0.1230712 0.08578746 0.4185766
-0.12266987 0.085767448 0.41849664
-0.12223274 0.085722201 0.41829351
-0.12188779 0.085741505 0.41840541
-0.12145574 0.085699491 0.41821805
-0.12106901 0.085689291 0.41818592
-0.12062442 0.085637949 0.41795292
-0.12022951 0.085621685 0.41789109
-0.1198174 0.085593008 0.41776872
-0.11945017 0.085596323 0.41780242
-0.11901298 0.085549369 0.4175908
-0.1185393 0.085475817 0.4172492
-0.11818995 0.085491724 0.41734433
-0.11775023 0.085442163 0.4171198
-0.11731076 0.08539246 0.41689458
-0.11693303 0.085387543 0.41688794
-0.11649631 0.085339375 0.41667014
-0.11604147 0.085277587 0.41638577
-0.11566275 0.08527153 0.41637346
-0.11524561 0.085237004 0.41622216
-0.11487391 0.085235976 0.4162344
-0.11444655 0.085193515 0.41604421
-0.11405123 0.085174695 0.41596955
-0.11366891 0.085165516 0.41594183
-0.1132855 0.085155442 0.4159098
-0.11293799 0.085172363 0.41600958
-0.088735647 0.083296008 0.40779543
-0.088351935 0.08327546 0.40770963
-0.087952174 0.08323957 0.40754861
-0.087598316 0.083247006 0.40759969
-0.087212794 0.083224282 0.40750301
-0.086815029 0.083189651 0.40734804
-0.086400121 0.083138213 0.40711069
-0.085997202 0.083097942 0.40692794
-0.085624233 0.083086379 0.40688577
-0.085225634 0.083049759 0.40672082
-0.084822394 0.083008282 0.40653205
-0.084461555 0.083008125 0.40654552
-0.084076323 0.082983904 0.40644109
-0.083679795 0.082948267 0.40628073
-0.083324924 0.082953773 0.40632188
-0.082903393 0.082892686 0.40603676
-0.082510918 0.082860269 0.40589198
-0.082150795 0.082860187 0.40590554
-0.081714585 0.082783014 0.40554148
-0.081350312 0.082778364 0.4055326
-0.08097785 0.082765304 0.40548244
-0.080572389 0.082718253 0.40526572
-0.080162816 0.082666531 0.40502605
-0.07977543 0.08263734 0.40489671
-0.07942085 0.082642019 0.40493324
-0.079025038 0.082603641 0.40475875
-0.078645289 0.082581773 0.40466517
-0.0782509 0.082544267 0.40449485
-0.077886976 0.082538702 0.40448102
-0.07752575 0.08253596 0.40448093
-0.077110149 0.082475029 0.40419564
-0.076721683 0.082442686 0.40405044
-0.07631962 0.082395367 0.40383175
-0.07594946 0.08238221 0.4037804
-0.07557942 0.082369059 0.40372905
-0.075211078 0.082357638 0.40368614
-0.074863508 0.082368962 0.40375468
-0.074493855 0.082355991 0.40370405
-0.074123561 0.08234217 0.40364921
-0.073778428 0.082356311 0.40373138
-0.073421501 0.082357369 0.40374935
-0.073085971 0.082382537 0.40388554
-0.072758466 0.082417063 0.40406752
-0.12896255 0.086613134 0.42051187
-0.12860939 0.086627617 0.42060012
-0.12823929 0.086630724 0.42063314
-0.12779869 0.086586088 0.42043439
-0.12743008 0.086590104 0.42047179
-0.12698427 0.086541556 0.42025393
-0.12660605 0.086538889 0.42025885
-0.12611884 0.086461514 0.41990095
-0.12570813 0.086436264 0.41979617
-0.12525554 0.086381987 0.41955036
-0.12486445 0.086369917 0.41950956
-0.12449422 0.086372256 0.41953868
-0.12404917 0.086322546 0.41931501
-0.1236397 0.086297356 0.41921037
-0.12319747 0.086249091 0.41899362
-0.12278814 0.086223647 0.4188877
-0.12234181 0.086171977 0.41865432
-0.12192141 0.086138293 0.41850835
-0.12156206 0.086147696 0.41857168
-0.12111358 0.086093783 0.41832733
-0.1206743 0.0860461 0.41811323
-0.12023348 0.085997023 0.41789231
-0.11988614 0.086014718 0.41799581
-0.11947609 0.085987382 0.41788051
-0.11913563 0.086010113 0.41800848
-0.11862923 0.085912816 0.4175531
-0.118256 0.085911661 0.41756487
-0.11779191 0.085844286 0.41725484
-0.11738619 0.08581914 0.41714999
-0.11702029 0.085823044 0.41718635
-0.11655822 0.08575622 0.41687885
-0.1160813 0.085678011 0.41651592
-0.11569928 0.08566957 0.41649219
-0.11532989 0.085670471 0.4165138
-0.11488017 0.085611477 0.41624424
-0.11458267 0.085665934 0.4165262
-0.11408535 0.085570864 0.41608113
-0.11375632 0.085601814 0.41624877
-0.11334044 0.085567407 0.41609856
-0.088369645 0.083654553 0.40777743
-0.087990291 0.083637968 0.40771127
-0.087640896 0.083649859 0.40778384
-0.087229699 0.083602592 0.40756807
-0.086884394 0.083618365 0.40765944
-0.086424962 0.083523959 0.40721375
-0.086055413 0.083515994 0.40718937
-0.085666046 0.083488658 0.40707049
-0.08526063 0.083445363 0.40687382
-0.084887885 0.083433837 0.40683192
-0.084510773 0.083417885 0.40676838
-0.084116191 0.083384492 0.40661976
-0.083744764 0.083373852 0.40658209
-0.083337858 0.083327651 0.40637091
-0.082928523 0.083278619 0.40614581
-0.082558863 0.083269164 0.40611374
-0.082182623 0.083252959 0.40604872
-0.081796736 0.083226807 0.40593505
-0.081391856 0.083181001 0.40572554
-0.081013553 0.083162077 0.40564707
-0.080605671 0.083112486 0.40541893
-0.080238506 0.083104625 0.40539429
-0.079818599 0.083041817 0.4051016
-0.079438947 0.083020516 0.40501133
-0.079063646 0.083003595 0.4049423
-0.078695841 0.082994416 0.40491104
-0.078312486 0.082968682 0.40479895
-0.077919856 0.082932837 0.40463749
-0.077527784 0.082897261 0.4044773
-0.077158913 0.082886279 0.40443701
-0.076779433 0.082863741 0.4043403
-0.076383397 0.082823053 0.40415496
-0.075999074 0.082794726 0.40402991
-0.075626165 0.082778625 0.40396446
-0.07523527 0.082742602 0.40380168
-0.074860089 0.082723603 0.40372196
-0.074501999 0.082723379 0.40373382
-0.074130401 0.082708098 0.40367213
-0.073788606 0.082726076 0.40377271
-0.073438108 0.082734436 0.4038263
-0.073091179 0.082746901 0.40389991
-0.072769992 0.08278878 0.40411705
-0.12906839 0.087059736 0.42084497
-0.12866214 0.087038554 0.42076051
-0.12828568 0.087037466 0.42077315
-0.12791437 0.08703988 0.42080277
-0.12746775 0.086990915 0.42058393
-0.12707026 0.086975291 0.42052624
-0.12664895 0.086943217 0.42038903
-0.12623224 0.086914122 0.42026621
-0.12577498 0.086856864 0.42000714
-0.12537755 0.086840689 0.41994673
-0.12491094 0.086776361 0.41965342
-0.12455513 0.086788848 0.41973156
-0.12413529 0.086756676 0.41959372
-0.12373237 0.086736158 0.41951221
-0.1232812 0.086681589 0.41926599
-0.12284482 0.086637132 0.41906863
-0.12243862 0.086613737 0.41897315
-0.12205786 0.086608268 0.4189643
-0.12161947 0.086561732 0.41875681
-0.12122016 0.086542822 0.41868293
-0.12079368 0.08650434 0.41851431
-0.12029412 0.086413115 0.41809049
-0.11987942 0.086382486 0.41795978
-0.11950438 0.086380318 0.41796678
-0.11918212 0.086416416 0.41815898
-0.11868799 0.086327724 0.41774723
-0.11827045 0.08629436 0.41760319
-0.11788122 0.086281508 0.4175584
-0.11744911 0.086237103 0.41736087
-0.11703661 0.086206838 0.41723174
-0.11665279 0.086197585 0.41720429
-0.11622696 0.086157136 0.41702577
-0.1158125 0.086124875 0.4168869
-0.11542157 0.086109973 0.416832
-0.11496579 0.086046427 0.41654161
-0.11462288 0.086067237 0.41665953
-0.11420684 0.086033076 0.4165113
-0.11392594 0.086100832 0.41685647
-0.11349656 0.086056456 0.41665879
-0.088032998 0.084041081 0.40789518
-0.087663934 0.084034324 0.40787703
-0.087271899 0.084005401 0.40775123
-0.086888805 0.083984874 0.40766615
-0.086479262 0.083938509 0.40745553
-0.086076736 0.083898589 0.40727624
-0.085713565 0.083896853 0.4072822
-0.085334212 0.083879203 0.40721089
-0.084910318 0.08381743 0.40692529
-0.084521912 0.083790325 0.40680793
-0.084152423 0.083781809 0.40678078
-0.083797961 0.083788238 0.4068262
-0.083411418 0.083762519 0.40671542
-0.082980901 0.08369223 0.40638819
-0.082617357 0.083689153 0.4063873
-0.082206301 0.083637729 0.40615153
-0.081821114 0.083612278 0.40604183
-0.081413694 0.08356379 0.40582022
-0.081075028 0.083585739 0.40594065
-0.080669343 0.083538488 0.40572494
-0.080274634 0.08350224 0.40556261
-0.079917148 0.083504558 0.40558749
-0.079469211 0.083411954 0.40515137
-0.07914903 0.083453216 0.40536535
-0.078750603 0.083411977 0.40517852
-0.078352146 0.08337032 0.40498966
-0.077953488 0.083328083 0.40479788
-0.077567458 0.083299011 0.40466997
-0.077197999 0.083287537 0.40462756
-0.076799586 0.083244592 0.40443212
-0.076400921 0.083200954 0.40423331
-0.076002359 0.08315701 0.40403298
-0.07563211 0.083143793 0.40398183
-0.075250842 0.083118275 0.40387088
-0.074876636 0.083100356 0.40379679
-0.074520141 0.083101995 0.40381771
-0.074171491 0.083112471 0.40388149
-0.07379996 0.083097257 0.4038204
-0.073452495 0.083109148 0.40389094
-0.073099673 0.083115049 0.40393239
-0.072770484 0.083148032 0.40410534
-0.12910227 0.087458186 0.42094329
-0.12872688 0.087457947 0.42096007
-0.12836474 0.087466754 0.42102036
-0.1279798 0.087460011 0.42100579
-0.12752132 0.087402843 0.42074847
-0.12715377 0.087407827 0.42079034
-0.1267001 0.087353483 0.42054653
-0.12629075 0.087329462 0.42044869
-0.12586224 0.087292008 0.42028621
-0.12542696 0.087249614 0.42009985
-0.1249755 0.087195687 0.41985795
-0.12455485 0.087162994 0.41971827
-0.12418677 0.087167002 0.41975528
-0.12374038 0.087115906 0.4195269
-0.12330996 0.08707577 0.41935131
-0.12290446 0.087053046 0.41925955
-0.12253849 0.087058268 0.41930234
-0.12212317 0.087028362 0.41917589
-0.12164364 0.086952373 0.41882747
-0.12122577 0.08692012 0.41868973
-0.12083807 0.086909361 0.41865546
-0.12039129 0.086855941 0.41841561
-0.11997085 0.086821228 0.41826591
-0.11957674 0.086805426 0.41820726
-0.11914475 0.086761929 0.41801512
-0.11879845 0.086780764 0.4181233
-0.11837456 0.086742863 0.41795811
-0.11801867 0.086754709 0.41803253
-0.11747657 0.086629309 0.41744566
-0.11711331 0.086635411 0.41749239
-0.11668709 0.086594835 0.41731414
-0.11626782 0.086559169 0.41715956
-0.11585889 0.086530998 0.41704103
-0.11548716 0.086530522 0.41705596
-0.11501105 0.086451598 0.41669276
-0.11465614 0.086463541 0.41676745
-0.11435333 0.086514987 0.4170326
-0.1139744 0.086508997 0.41702086
-0.11361852 0.086520508 0.41709346
-0.087678224 0.084410571 0.40792945
-0.087316729 0.0844111 0.40794662
-0.086942643 0.084399417 0.40790465
-0.086547919 0.084367506 0.40776494
-0.086191066 0.084372416 0.40780309
-0.08575438 0.084298871 0.40746203
-0.08536505 0.084271468 0.40734389
-0.084983438 0.084251478 0.40726161
-0.084578954 0.084208548 0.40706834
-0.084181584 0.084172368 0.40690762
-0.083798751 0.084150456 0.40681586
-0.08344733 0.084160052 0.40687636
-0.083018944 0.084091775 0.40656027
-0.082641892 0.084075123 0.40649378
-0.082230181 0.084022902 0.40625525
-0.081839688 0.083992012 0.40611979
-0.081486478 0.083999284 0.40616879
-0.08110027 0.083972439 0.40605283
-0.080706522 0.083937518 0.40589768
-0.080323532 0.083913527 0.40579537
-0.079918288 0.083865955 0.405579
-0.079542987 0.083849534 0.40551317
-0.079169527 0.083834909 0.40545601
-0.078757286 0.083778895 0.40519857
-0.0783621 0.083740592 0.40502679
-0.078011304 0.083749607 0.40508378
-0.077605128 0.083698958 0.40485215
-0.077232271 0.08368396 0.40479285
-0.076848939 0.083657399 0.40467763
-0.076489873 0.083657153 0.40468961
-0.076091327 0.083613493 0.40449157
-0.075682238 0.083557799 0.40423518
-0.075297527 0.083528608 0.40410703
-0.074931011 0.083519429 0.40407559
-0.074536122 0.083478384 0.40388995
-0.074178569 0.08347895 0.40390554
-0.073806934 0.083463609 0.40384412
-0.073458619 0.083474621 0.40391019
-0.07312005 0.083496869 0.40403056
-0.072772302 0.083508797 0.40410092
-0.072452419 0.083552979 0.40432736
-0.072088599 0.083546683 0.40430948
-0.12921546 0.087910794 0.4213002
-0.12874374 0.08784505 0.42100301
-0.12845354 0.087903142 0.42129931
-0.12801038 0.087856613 0.42109415
-0.12757072 0.0878122 0.42089918
-0.12719658 0.087812774 0.42091975
-0.12675411 0.087766029 0.42071348
-0.12636617 0.08775688 0.42068744
-0.12586957 0.087671995 0.42029828
-0.12552157 0.08769042 0.42040434
-0.1251301 0.0876785 0.42036492
-0.1246405 0.087597527 0.41999444
-0.12423742 0.08757706 0.41991401
-0.12383226 0.087554999 0.41982594
-0.12341259 0.087522522 0.41968787
-0.12293284 0.087447107 0.41934383
-0.12255737 0.087445639 0.41935444
-0.12219386 0.08745271 0.41940597
-0.12171023 0.087373614 0.41904417
-0.12128983 0.087339543 0.41889834
-0.12090775 0.087332956 0.41888428
-0.1204662 0.087283231 0.41866329
-0.12006365 0.087261543 0.41857672
-0.11964428 0.087227471 0.41843072
-0.11925834 0.087217622 0.41840094
-0.11881048 0.087162293 0.4181529
-0.11839544 0.087130763 0.41801903
-0.11801668 0.08712583 0.41801274
-0.11763062 0.087115429 0.41798019
-0.11716702 0.087047376 0.41767099
-0.11677888 0.087035149 0.41762954
-0.11631448 0.086965807 0.41731408
-0.11591041 0.086941272 0.41721356
-0.11552275 0.086928934 0.41717157
-0.11516062 0.086935788 0.41722164
-0.087353222 0.084809087 0.40810302
-0.086961314 0.084780104 0.40797812
-0.086592458 0.084773473 0.40796065
-0.086210363 0.084753767 0.40788025
-0.085813344 0.084719159 0.40772808
-0.085418843 0.084686749 0.40758646
-0.085001245 0.08463107 0.40733272
-0.084620297 0.084611572 0.40725312
-0.084231295 0.084583811 0.40713364
-0.083835647 0.084549099 0.40698078
-0.083470017 0.084544517 0.40697274
-0.083095029 0.084530361 0.40691864
-0.082714528 0.084510453 0.40683681
-0.082308948 0.084464625 0.40663013
-0.081928112 0.084443912 0.40654427
-0.081517838 0.084392533 0.4063108
-0.081141584 0.084376074 0.40624535
-0.080736518 0.084329374 0.40603423
-0.08035937 0.084311537 0.40596208
-0.079964034 0.084274396 0.40579686
-0.079589069 0.084258467 0.40573373
-0.079183832 0.08421021 0.4055149
-0.078813031 0.084198304 0.40547106
-0.078424402 0.084167138 0.40533441
-0.07807041 0.084173054 0.40537629
-0.077647336 0.084104188 0.40505797
-0.077281572 0.084097035 0.40503681
-0.076856516 0.084025003 0.40470308
-0.076510124 0.084038712 0.4047823
-0.076132521 0.084018096 0.40469611
-0.075737819 0.083978325 0.40451762
-0.075353749 0.083950028 0.40439436
-0.074962191 0.083913073 0.40422925
-0.074578881 0.083885044 0.40410712
-0.074221216 0.083885722 0.40412328
-0.073828846 0.083847001 0.40394956
-0.073490642 0.083869711 0.40407172
-0.0731273 0.083863817 0.40405604
-0.072794348 0.083892904 0.40420884
-0.072450697 0.083909869 0.40430319
-0.07212463 0.083947487 0.404497
-0.12926976 0.088323824 0.42146501
-0.12886792 0.088305801 0.42139688
-0.1284987 0.088310078 0.42143518
-0.12810239 0.088295728 0.42138451
-0.12770693 0.08828187 0.42133623
-0.12728578 0.08825013 0.42120254
-0.12679963 0.088172987 0.42085218
-0.12641241 0.088164397 0.42082894
-0.12599146 0.088132188 0.42069292
-0.12558326 0.088108696 0.42059854
-0.12516646 0.088079013 0.42047459
-0.12475339 0.088051789 0.42036232
-0.12434722 0.088029303 0.42027265
-0.12393931 0.088005424 0.4201763
-0.12344509 0.087919936 0.4197858
-0.12301624 0.087880634 0.41961575
-0.12266916 0.087899677 0.41972432
-0.12221644 0.087842919 0.41947085
-0.12179355 0.08780732 0.41931838
-0.12135656 0.087761298 0.41911614
-0.12093681 0.087727509 0.41897228
-0.12054965 0.087717205 0.4189406
-0.12019996 0.087734215 0.41903928
-0.11972798 0.087661758 0.41871065
-0.11926153 0.087592937 0.41839933
-0.11884787 0.087562568 0.41827166
-0.11844494 0.087539949 0.41818097
-0.11805382 0.087525941 0.41813141
-0.11765872 0.087508872 0.41806719
-0.11721844 0.087458 0.41784143
-0.11683747 0.08745119 0.41782618
-0.11639763 0.087400138 0.4175995
-0.11600282 0.087382682 0.41753328
-0.11557954 0.087343588 0.41736364
-0.11515088 0.087300181 0.41717342
-0.11480659 0.087320641 0.41728833
-0.11454173 0.087401874 0.41769364
-0.11419695 0.087422423 0.41780895
-0.086984441 0.085165344 0.40807247
-0.086617701 0.085160837 0.40806538
-0.086242281 0.085147746 0.40801704
-0.085855193 0.085122965 0.4079127
-0.085487425 0.085117221 0.40789944
-0.085088491 0.085080251 0.4077366
-0.084669143 0.085022487 0.40747395
-0.084275246 0.084989876 0.40733185
-0.083882548 0.084958196 0.40719417
-0.083499707 0.084936284 0.40710321
-0.08313451 0.084932201 0.40709767
-0.082730845 0.084888622 0.40690273
-0.082339369 0.084857211 0.40676612
-0.081957668 0.084835641 0.40667659
-0.081590235 0.084828719 0.40665725
-0.081194982 0.084792696 0.40649831
-0.080800317 0.084756948 0.40634072
-0.08039663 0.084711388 0.40613595
-0.080038391 0.084713526 0.40615982
-0.079619937 0.084651642 0.4058767
-0.079223648 0.084612884 0.40570441
-0.078848206 0.084596135 0.40563756
-0.078469872 0.084576115 0.40555501
-0.078096293 0.084561065 0.40549621
-0.077708431 0.084530324 0.40536216
-0.077320457 0.08449921 0.40522617
-0.076906241 0.084438972 0.4049505
-0.076576062 0.084470868 0.40511665
-0.076171167 0.084420256 0.40488705
-0.075777128 0.084381275 0.40471309
-0.075411014 0.084373139 0.40468711
-0.075016446 0.084332958 0.40450734
-0.074622773 0.084293388 0.40433043
-0.074259616 0.084288068 0.4043178
-0.07387013 0.084252685 0.40416086
-0.073521718 0.084264033 0.40422803
-0.073154315 0.084253609 0.40419072
-0.072810687 0.084270604 0.40428492
-0.072454274 0.084272906 0.40430853
-0.072121732 0.084303141 0.40446612
-0.12927179 0.088701308 0.42145941
-0.12893188 0.088725828 0.42159376
-0.12854542 0.08871837 0.42157614
-0.12815352 0.088707089 0.42154041
-0.12773213 0.088675283 0.42140704
-0.127334 0.08865948 0.42134973
-0.12694125 0.088647351 0.42130989
-0.12646377 0.088575788 0.42098752
-0.12604056 0.08854194 0.42084435
-0.12564826 0.088529669 0.42080379
-0.12524824 0.088511862 0.42073682
-0.12478556 0.088449538 0.42045826
-0.12439995 0.088441618 0.42043829
-0.1239736 0.088404611 0.42028001
-0.12353757 0.088360451 0.42008767
-0.12308558 0.088304594 0.41983968
-0.1226572 0.088265367 0.41967079
-0.12230159 0.088278428 0.41975045
-0.12185819 0.088228017 0.41952825
-0.12147862 0.088223651 0.41952503
-0.12105285 0.088185593 0.41936153
-0.12064967 0.088163808 0.41927543
-0.1201903 0.088100709 0.41899276
-0.11977143 0.088066995 0.41884986
-0.11941945 0.088082395 0.41894051
-0.11892055 0.087989204 0.41851461
-0.11851755 0.087966599 0.41842446
-0.11809413 0.08792866 0.41826129
-0.11770934 0.08791931 0.41823417
-0.11729077 0.087884605 0.41808632
-0.11689568 0.087867327 0.41802135
-0.11643401 0.087799735 0.41771704
-0.11603927 0.087782338 0.41765144
-0.11566865 0.08778315 0.41767246
-0.11518993 0.087701656 0.41730186
-0.11491293 0.087773703 0.41766182
-0.1145706 0.087796159 0.41778573
-0.11422485 0.087816142 0.41789794
-0.086662762 0.085568003 0.40826347
-0.086275958 0.085543737 0.40816212
-0.08590205 0.085532121 0.40812105
-0.085499518 0.085491784 0.40794286
-0.085120872 0.08547508 0.40787748
-0.084706254 0.085421965 0.40763822
-0.084296346 0.085373186 0.40741956
-0.083908319 0.085346214 0.40730497
-0.083528668 0.085327581 0.40723011
-0.083159767 0.08531981 0.40720704
-0.08276514 0.08528547 0.40705708
-0.082406722 0.085288301 0.40708449
-0.081997268 0.085238092 0.40685874
-0.081636049 0.085237809 0.40687123
-0.081228033 0.085188456 0.40664938
-0.08083833 0.085157946 0.40651748
-0.080459364 0.085138522 0.40643844
-0.080102347 0.085142247 0.40646988
-0.079685353 0.085081995 0.40619573
-0.079267576 0.085020341 0.4059149
-0.078879312 0.084989913 0.40578315
-0.078494713 0.084963188 0.40566891
-0.07811974 0.084946685 0.4056035
-0.077752613 0.084938586 0.40557814
-0.077363946 0.084906794 0.40543959
-0.076977633 0.084877282 0.40531185
-0.076586761 0.084842458 0.40515873
-0.076207131 0.084819801 0.40506366
-0.075815856 0.084783927 0.40490538
-0.075450934 0.08477731 0.40488678
-0.075075209 0.084758446 0.40480959
-0.074651785 0.084685288 0.4044731
-0.074276894 0.084666736 0.40439731
-0.073902503 0.084648579 0.4043234
-0.073534951 0.084638111 0.40428618
-0.073197633 0.084662527 0.40441543
-0.072823778 0.084644713 0.40434295
-0.072473034 0.08465372 0.40439859
-0.072124034 0.084664859 0.40446433
-0.071800359 0.084705986 0.40467331
-0.1293769 0.089149825 0.4217898
-0.12894358 0.089110106 0.42161968
-0.12859777 0.089130811 0.42173544
-0.12823774 0.089141756 0.42180505
-0.12780774 0.089103982 0.42164406
-0.12736347 0.089056015 0.42143488
-0.12697315 0.089045592 0.42140329
-0.12656254 0.089020826 0.42130384
-0.12613858 0.088986509 0.42115915
-0.12573665 0.088967584 0.42108729
-0.12527652 0.088907219 0.42081925
-0.12486802 0.088883258 0.42072347
-0.12448596 0.088878028 0.4207164
-0.12406065 0.088841803 0.42056254
-0.12356906 0.088757731 0.42018217
-0.12318255 0.088748872 0.42015782
-0.12280598 0.088747136 0.42016715
-0.12234244 0.088682353 0.41987792
-0.12199018 0.088698074 0.41996995
-0.12150571 0.088617474 0.41960576
-0.12113278 0.08861798 0.41962567
-0.12066037 0.088545486 0.41929981
-0.12026175 0.08852686 0.41922903
-0.11983627 0.088488288 0.41906378
-0.11942779 0.088462062 0.41895694
-0.11898055 0.088406883 0.41871294
-0.11857305 0.088380955 0.4186075
-0.11812285 0.088322952 0.41835007
-0.11778347 0.088347711 0.41848463
-0.11733551 0.088290915 0.41823286
-0.11693119 0.088266701 0.41813537
-0.11650632 0.08822678 0.41796345
-0.11606412 0.088173442 0.41772795
-0.11569434 0.088174939 0.41775221
-0.11523288 0.088106357 0.41744438
-0.1149737 0.0881925 0.41786957
-0.11465389 0.088232525 0.41807634
-0.08630722 0.085937604 0.40829572
-0.085932046 0.085924812 0.40824923
-0.085566521 0.085921593 0.40824825
-0.085177213 0.085894361 0.40813312
-0.084785655 0.085864618 0.40800598
-0.084390789 0.085831262 0.40786165
-0.083975136 0.085776374 0.40761492
-0.083609506 0.085772336 0.40760979
-0.083234861 0.085758977 0.40756032
-0.082826078 0.085710183 0.40734237
-0.082412325 0.085655779 0.40709776
-0.082041159 0.08564537 0.40706211
-0.081650101 0.085613996 0.40692681
-0.081264809 0.085588425 0.40681905
-0.080928668 0.085614622 0.40695727
-0.080490969 0.085533135 0.40658358
-0.080117166 0.08551912 0.40653059
-0.079734378 0.085495353 0.40643114
-0.0793209 0.085438311 0.40617347
-0.078948162 0.085424818 0.4061228
-0.078548558 0.085382022 0.40593269
-0.078135557 0.085324183 0.40567109
-0.077779457 0.085328221 0.4057036
-0.077416725 0.08532501 0.40570161
-0.077021539 0.085285828 0.40552849
-0.076642379 0.085264117 0.40543836
-0.076241575 0.085217997 0.40523216
-0.075855859 0.085188381 0.4051044
-0.075472943 0.085161649 0.40499026
-0.075094223 0.085139416 0.40489745
-0.07468088 0.085077539 0.40461606
-0.074319877 0.085074976 0.40461665
-0.073942058 0.085053034 0.4045251
-0.073563725 0.085030302 0.4044297
-0.073195778 0.08501941 0.40439054
-0.072842851 0.085025929 0.4044342
-0.072490923 0.085033692 0.40448368
-0.072139859 0.085042551 0.40453836
-0.071833685 0.085104674 0.40484637
-0.12948029 0.089597777 0.42211452
-0.1290442 0.08955618 0.42193636
-0.12868331 0.089566678 0.42200366
-0.12830961 0.089568287 0.42202902
-0.12790579 0.089548841 0.42195514
-0.12738775 0.089449063 0.42150271
-0.12701532 0.089451253 0.42153078
-0.12661773 0.089435674 0.42147511
-0.12622182 0.089421205 0.4214246
-0.12581666 0.08940006 0.42134261
-0.12530921 0.089305907 0.42091653
-0.12490223 0.089283004 0.4208262
-0.12449413 0.089259148 0.4207314
-0.12413836 0.08927279 0.42081329
-0.12367551 0.089209266 0.42053145
-0.12324227 0.089166805 0.42034882
-0.1228524 0.08915554 0.42031327
-0.12238175 0.089085393 0.42000014
-0.12199454 0.089075759 0.41997218
-0.12159487 0.089056946 0.41990095
-0.12114969 0.089004561 0.41967142
-0.12075745 0.088990882 0.41962433
-0.12031922 0.088943124 0.41941655
-0.11989623 0.088906348 0.41926053
-0.11954022 0.0889192 0.41933843
-0.11908404 0.088857368 0.41906422
-0.11865943 0.088818774 0.41889951
-0.11820251 0.08875569 0.41861928
-0.11780636 0.08873798 0.41855294
-0.11740817 0.088718615 0.41847885
-0.11699945 0.088691138 0.41836646
-0.1166103 0.088678367 0.41832343
-0.11618987 0.088641666 0.41816741
-0.11580174 0.088629432 0.41812682
-0.11536715 0.088581458 0.41791764
-0.11503226 0.088609986 0.4180693
-0.11468408 0.088628396 0.41817325
-0.085971005 0.086326748 0.40842
-0.085609987 0.086328231 0.40844125
-0.085206874 0.086287089 0.40826082
-0.0848388 0.086281225 0.40824732
-0.084428206 0.086231902 0.40802804
-0.084012888 0.086177297 0.40778375
-0.083645321 0.086171433 0.40777001
-0.083258331 0.086145394 0.40766078
-0.082872421 0.086120263 0.40755582
-0.082485802 0.086094163 0.40744624
-0.082078531 0.086046189 0.40723303
-0.081692494 0.086020157 0.40712363
-0.081294864 0.085981622 0.40695494
-0.080945574 0.085994102 0.40702778
-0.08053641 0.085942812 0.4067986
-0.080136269 0.085900716 0.40661296
-0.079762705 0.085886873 0.40656099
-0.079397343 0.085881777 0.40655032
-0.079015784 0.085859023 0.40645608
-0.0785878 0.085785396 0.4061209
-0.078198329 0.085753307 0.40598232
-0.077824861 0.085738569 0.40592587
-0.077439032 0.085710004 0.40580389
-0.077068903 0.085698642 0.40576321
-0.076667786 0.085652545 0.40555811
-0.076295733 0.085638635 0.40550533
-0.075884379 0.085580274 0.40524203
-0.075512208 0.085565761 0.40518627
-0.075140297 0.085551403 0.40513122
-0.074742742 0.085507594 0.40493658
-0.074377626 0.085500605 0.40491635
-0.073955983 0.085428283 0.40458661
-0.073564664 0.085390456 0.40442017
-0.073214173 0.085399881 0.40447742
-0.072855607 0.085399926 0.40449026
-0.072511293 0.085416764 0.40458259
-0.072163798 0.085430004 0.40465781
-0.071814597 0.085441351 0.40472403
-0.071509309 0.085505314 0.40503943
-0.12915832 0.090012245 0.42229712
-0.1287352 0.089979522 0.42216137
-0.12834601 0.089970402 0.42213637
-0.12796128 0.089964353 0.42212573
-0.12757896 0.089959987 0.42212293
-0.12704325 0.089847103 0.42161095
-0.12667149 0.089849837 0.4216415
-0.12624952 0.089816876 0.42150453
-0.12585528 0.089803502 0.42145941
-0.1254697 0.089796245 0.42144296
-0.1249418 0.089686781 0.42094687
-0.12452392 0.089655876 0.4208194
-0.12415866 0.089662798 0.42086944
-0.12376847 0.089651689 0.42083487
-0.12335508 0.08962366 0.42072082
-0.12289122 0.089558676 0.42043331
-0.12244811 0.089508459 0.4202151
-0.12206213 0.089499839 0.42019206
-0.12163903 0.08946386 0.42004058
-0.12121835 0.089429453 0.41989645
-0.12083523 0.089422606 0.41988173
-0.12042403 0.08939489 0.41976899
-0.11996543 0.089331701 0.41948965
-0.11954293 0.089295074 0.41933498
-0.11918153 0.089304008 0.41939428
-0.11872802 0.089243777 0.41912869
-0.11836556 0.089251809 0.41918367
-0.11789154 0.0891755 0.41884252
-0.11745145 0.089124463 0.41862005
-0.11706775 0.089116037 0.41859764
-0.11665172 0.089082845 0.41845888
-0.11627635 0.089080609 0.41846555
-0.11583441 0.089027189 0.41823173
-0.11548045 0.089041255 0.41831487
-0.11509643 0.089032166 0.41828924
-0.11480322 0.089093499 0.41859445
-0.1145083 0.089153901 0.4188953
-0.11411972 0.089141525 0.41885418
-0.085993037 0.086711951 0.40851024
-0.085611388 0.086692646 0.40843353
-0.085279949 0.086724229 0.40859652
-0.084862977 0.086668722 0.40834922
-0.084455922 0.086622931 0.40814757
-0.08407712 0.086605832 0.40808108
-0.083664507 0.086553603 0.40784904
-0.083321854 0.086573623 0.40795735
-0.082934842 0.086547524 0.40784827
-0.082505502 0.086476833 0.40752903
-0.082120508 0.086452201 0.40742677
-0.081755415 0.086448401 0.40742266
-0.081354052 0.086406037 0.40723673
-0.080969267 0.086380981 0.40713236
-0.080577575 0.086348303 0.40699199
-0.080173172 0.086301655 0.40678564
-0.079812191 0.086301535 0.40679863
-0.079403512 0.086249597 0.40656731
-0.079040885 0.086247437 0.40657055
-0.078663297 0.08622887 0.40649641
-0.078236364 0.086155787 0.40616518
-0.07784044 0.086116329 0.40599242
-0.077465698 0.086100049 0.40592897
-0.077099681 0.086093359 0.40591058
-0.076693684 0.086041778 0.40568048
-0.076347157 0.086056709 0.40576398
-0.075961947 0.086027987 0.40564159
-0.07555481 0.085974045 0.40540019
-0.075139113 0.085909799 0.40511015
-0.074801676 0.085934848 0.4052411
-0.074411735 0.085899524 0.40508735
-0.074020527 0.085862391 0.40492499
-0.073616251 0.085809663 0.40468898
-0.073239923 0.085789144 0.40460491
-0.072869502 0.08577539 0.40455261
-0.072531275 0.08579959 0.4046793
-0.072175972 0.085803717 0.40471128
-0.071834698 0.085824661 0.4048225
-0.071509302 0.085864872 0.40502453
-0.12916358 0.090392783 0.42230189
-0.12881875 0.090414904 0.42242295
-0.12845129 0.090421207 0.42247015
-0.12800995 0.090375379 0.42227381
-0.12766983 0.090400971 0.42241105
-0.12718631 0.090324864 0.42207316
-0.12682672 0.090336584 0.42214561
-0.12640327 0.090302765 0.42200521
-0.12594344 0.090242669 0.42174199
-0.12548481 0.090183057 0.42148104
-0.12505916 0.090146884 0.42132959
-0.12458447 0.090075038 0.42101136
-0.12422785 0.090088375 0.42109126
-0.12381915 0.090063915 0.42099446
-0.1234095 0.090038598 0.42089364
-0.12296622 0.08998853 0.42067713
-0.12253455 0.08994668 0.42049891
-0.12213321 0.089926898 0.4204239
-0.12168607 0.08987318 0.42019019
-0.12131627 0.089876421 0.42022276
-0.12089157 0.089838877 0.4200646
-0.12046584 0.089800335 0.41990179
-0.12004936 0.089768477 0.41977018
-0.11965873 0.089755811 0.41972828
-0.11922902 0.089713663 0.41954842
-0.11880533 0.089675792 0.41938862
-0.11837251 0.089630753 0.41919523
-0.11797335 0.089611024 0.41912019
-0.11757595 0.089592487 0.41905069
-0.11714917 0.089551389 0.41887563
-0.1167202 0.089508347 0.41869143
-0.1163397 0.08950232 0.41868037
-0.11589953 0.089450203 0.41845366
-0.11551911 0.089444011 0.41844174
-0.1151717 0.08946342 0.41854963
-0.11482157 0.089480832 0.41864812
-0.11456206 0.089569211 0.41907868
-0.085650012 0.087094925 0.40860334
-0.085288048 0.087095641 0.40862089
-0.084913768 0.08708372 0.40857911
-0.084527433 0.087059289 0.40847862
-0.084122173 0.087015077 0.40828526
-0.083723664 0.086977497 0.4081229
-0.083342172 0.086957328 0.40804225
-0.082977608 0.086954735 0.40804401
-0.082562551 0.08689899 0.40779626
-0.08216352 0.086859673 0.40762562
-0.081802703 0.08686059 0.40764368
-0.08140377 0.086820871 0.407471
-0.081012487 0.08678899 0.40733504
-0.080627784 0.086763911 0.40723094
-0.080240235 0.086735509 0.40711126
-0.079836167 0.086688943 0.40690619
-0.079431973 0.086641811 0.40669841
-0.079068482 0.086638823 0.40669784
-0.078685597 0.086614497 0.40659699
-0.07828711 0.086572669 0.40641394
-0.077875994 0.086516432 0.40616322
-0.077520303 0.086521529 0.40620035
-0.07711754 0.086473897 0.40598989
-0.076751009 0.08646664 0.4059689
-0.076377518 0.086451434 0.40591058
-0.075986117 0.086415708 0.40575588
-0.075597316 0.08638262 0.40561345
-0.075210847 0.086351909 0.40548211
-0.074817359 0.086312778 0.40531126
-0.074437976 0.086289637 0.40521538
-0.074037187 0.086241342 0.40500131
-0.073696442 0.086262845 0.40511501
-0.073278263 0.086193487 0.40480193
-0.072924174 0.086199194 0.4048413
-0.072537117 0.086165808 0.40469703
-0.072190531 0.086180389 0.404778
-0.071835749 0.086185314 0.4048135
-0.071520269 0.086237654 0.40507177
-0.071233235 0.086325005 0.40549442
-0.12925379 0.090833053 0.42258435
-0.12892406 0.090866089 0.42275578
-0.12855469 0.090871297 0.42279771
-0.12804756 0.090778857 0.42238531
-0.12770884 0.090805627 0.42252755
-0.12723045 0.090732954 0.42220706
-0.12687311 0.090746425 0.42228737
-0.12646066 0.090720445 0.42218414
-0.12594631 0.090620995 0.42173895
-0.12561929 0.090656139 0.42192009
-0.12510727 0.090557568 0.42147899
-0.12468605 0.090524346 0.4213419
-0.12434706 0.090550803 0.42148256
-0.12382824 0.090446062 0.42101255
-0.12349052 0.090473376 0.42115715
-0.12302607 0.090407714 0.42086902
-0.12255421 0.090336196 0.42055354
-0.12221739 0.090364084 0.42070082
-0.12176374 0.090305492 0.42044544
-0.12136693 0.09028884 0.4203853
-0.12092724 0.090240076 0.42017564
-0.12053669 0.090227798 0.4201358
-0.12007697 0.090163499 0.41985372
-0.11963668 0.090113439 0.41963792
-0.119252 0.090105072 0.41961625
-0.11884527 0.090079956 0.4195165
-0.11845389 0.090066351 0.41947037
-0.11804872 0.090042137 0.41937479
-0.11763256 0.090009354 0.41923931
-0.11718782 0.089954436 0.41900069
-0.11683696 0.08997146 0.4190971
-0.11643638 0.089950182 0.41901508
-0.11596246 0.089871943 0.41866767
-0.11555109 0.089841805 0.41854435
-0.11522683 0.089879438 0.4187367
-0.11490856 0.089921996 0.41895199
-0.11462343 0.089990847 0.4192898
-0.085306108 0.087477326 0.40869287
-0.084953532 0.087487794 0.40875593
-0.084551759 0.087447472 0.40858164
-0.084174767 0.087432541 0.40852591
-0.083789274 0.087408617 0.40842813
-0.083374918 0.087354243 0.40818802
-0.083015651 0.08735735 0.40821651
-0.082639076 0.087342218 0.40815961
-0.082231849 0.0872944 0.40794998
-0.081821717 0.087243065 0.40772381
-0.081432462 0.087213635 0.40759999
-0.081053361 0.08719486 0.4075259
-0.080696821 0.087200306 0.40756497
-0.080257669 0.087116122 0.40718502
-0.079888962 0.087107994 0.40716058
-0.079478309 0.087053835 0.40692091
-0.079114608 0.087050863 0.4069204
-0.078723356 0.08701741 0.40677738
-0.078340031 0.086992443 0.40667397
-0.077951305 0.08696121 0.40654123
-0.077572525 0.086940855 0.40645927
-0.077162005 0.086884558 0.40620923
-0.076784022 0.086864538 0.40612873
-0.076400235 0.086837761 0.40601656
-0.076024011 0.086819336 0.40594342
-0.075618833 0.086767524 0.40571412
-0.075270601 0.086780876 0.40578943
-0.074883834 0.08674971 0.40565655
-0.074483044 0.08670193 0.4054459
-0.074082494 0.086653955 0.40523428
-0.073716737 0.086646415 0.40521169
-0.073311478 0.086592145 0.40497053
-0.072936401 0.086573176 0.40489435
-0.072563209 0.086556248 0.40482771
-0.072210662 0.0865639 0.40487599
-0.071865872 0.086580999 0.40496838
-0.071520016 0.086596958 0.4050554
-0.071183398 0.086624332 0.40519571
-0.07089214 0.086707458 0.40559685
-0.12934753 0.091276363 0.42287835
-0.12892701 0.091245458 0.42275289
-0.12856001 0.091252387 0.42280269
-0.12812279 0.091209345 0.42262092
-0.12770191 0.091177717 0.42249206
-0.12732309 0.091176018 0.42250183
-0.12691356 0.091152266 0.42240939
-0.12650788 0.091131143 0.42232913
-0.12606777 0.091085009 0.42213294
-0.12563749 0.091045722 0.42196843
-0.12520519 0.091004752 0.42179611
-0.1247829 0.090970814 0.4216564
-0.12439604 0.090962596 0.42163578
-0.12395999 0.090918235 0.42144769
-0.12355231 0.090894483 0.42135507
-0.1231157 0.090849236 0.42116278
-0.12267534 0.090800948 0.42095634
-0.12228634 0.09079048 0.42092523
-0.12187707 0.090764858 0.42082384
-0.12147043 0.090741046 0.4207308
-0.12055457 0.090615876 0.42018509
-0.12019007 0.090623148 0.42023614
-0.11979987 0.090611041 0.42019728
-0.11888866 0.090487011 0.41965657
-0.11846311 0.090447359 0.41948989
-0.11806582 0.090429097 0.41942239
-0.11770283 0.090437084 0.41947663
-0.11726088 0.090384252 0.4192487
-0.11687071 0.090371139 0.41920495
-0.11647766 0.090355694 0.41915038
-0.11604983 0.090313092 0.41896981
-0.11571009 0.090338983 0.41910699
-0.11537492 0.090368621 0.41926152
-0.11496519 0.090339877 0.41914514
-0.11467382 0.090404227 0.41946071
-0.085353732 0.087889619 0.40890646
-0.084993511 0.087892443 0.40893373
-0.084594205 0.087854691 0.40877217
-0.084215134 0.087837718 0.40870723
-0.0838162 0.087799788 0.40854478
-0.083413698 0.087757781 0.40836322
-0.083025917 0.087730959 0.40825233
-0.082651101 0.087717667 0.40820432
-0.082268499 0.087695964 0.40811709
-0.081874728 0.087662101 0.40797326
-0.081461258 0.087606765 0.40772942
-0.081101827 0.087609291 0.40775484
-0.080714323 0.087581404 0.40763864
-0.080314867 0.087540217 0.40746048
-0.079953805 0.087540708 0.40747628
-0.079552837 0.087497309 0.40728769
-0.079169996 0.087473549 0.4071905
-0.078787088 0.087449484 0.40709186
-0.078382365 0.087400883 0.40687892
-0.078007951 0.087385789 0.40682188
-0.077625871 0.087361924 0.40672395
-0.077223584 0.087314986 0.40651858
-0.076808631 0.087253213 0.40624407
-0.076433674 0.087236509 0.40617934
-0.076057769 0.087218575 0.40610883
-0.07569281 0.087213084 0.40609616
-0.075296588 0.087171331 0.40591463
-0.074921675 0.087153986 0.40584669
-0.074517563 0.087102316 0.40561891
-0.074135631 0.087076217 0.40551004
-0.073751502 0.087047271 0.40538791
-0.073365927 0.087016322 0.40525639
-0.073003404 0.087012544 0.40525135
-0.072603166 0.086963549 0.40503567
-0.072217032 0.08693105 0.4048968
-0.07187476 0.086951308 0.40500352
-0.071532607 0.086971886 0.40511173
-0.071245871 0.087060399 0.40553635
-0.070892066 0.087067455 0.40558144
-0.12902127 0.091689743 0.42304945
-0.12866557 0.091704935 0.42313722
-0.12822965 0.091662861 0.42296076
-0.12782477 0.091642797 0.42288584
-0.12739226 0.091602758 0.4227187
-0.126954 0.091558345 0.42253134
-0.1265257 0.091520853 0.42237589
-0.12612188 0.091500901 0.42230138
-0.12574796 0.091502585 0.42232674
-0.12529835 0.091449045 0.42209715
-0.124846 0.091393173 0.42185679
