# .PCD v0.7 - Point Cloud Data file format
VERSION 0.7
FIELDS x y z
SIZE 4 4 4
TYPE F F F
COUNT 1 1 1
WIDTH 1398
HEIGHT 1
VIEWPOINT 0 0 0 1 0 0 0
POINTS 1398
DATA ascii
0.088864751 0.056288775 0.40440825
0.089188881 0.056267031 0.40423498
0.089523748 0.056252211 0.40411144
0.089870669 0.056245051 0.40404287
0.090206951 0.056231316 0.40392703
0.09056557 0.056231558 0.40391159
0.090904258 0.056219481 0.40380755
0.091277882 0.056229014 0.40385872
0.091606572 0.056210902 0.40371129
0.092028208 0.056249734 0.4039728
0.092398785 0.056257188 0.4040089
0.092763186 0.056260828 0.40401754
0.11651336 0.055452649 0.39690039
0.11678833 0.055415489 0.39661494
0.11708742 0.055389963 0.39641273
0.11734923 0.055347003 0.3960858
0.11770397 0.055348005 0.39607343
0.11794795 0.055297069 0.39568943
0.11829443 0.055294346 0.39565042
0.11862521 0.055284332 0.39555919
0.11896166 0.055277012 0.39548725
0.11929871 0.055269998 0.39541751
0.11963023 0.055260479 0.3953298
0.11990796 0.05522624 0.39506531
0.12030768 0.055248227 0.39520293
0.1205626 0.055203784 0.39486542
0.1208906 0.055192955 0.39476833
0.12124053 0.055192176 0.39474314
0.12157372 0.055183806 0.39466363
0.12189522 0.055170197 0.3945466
0.12223443 0.055164654 0.39448729
0.12256542 0.055155437 0.39440173
0.12290172 0.055148665 0.3943336
0.12320809 0.055128537 0.39416996
0.12354033 0.055120062 0.3940897
0.12387121 0.055111036 0.39400539
0.1241562 0.055081695 0.39377594
0.12449182 0.055074919 0.39370778
0.12482211 0.05506584 0.39362314
0.12508288 0.055026222 0.3933202
0.12547383 0.055043928 0.39342704
0.12583739 0.05504955 0.39344746
0.12615719 0.055036072 0.39333135
0.12653743 0.055048946 0.39340359
0.12682427 0.055021226 0.39318573
0.12707408 0.054977648 0.39285454
0.12746935 0.054997068 0.39297351
0.12769948 0.054945312 0.392584
0.12801206 0.054929234 0.39244929
0.12839442 0.054943096 0.39252856
0.12872522 0.054934874 0.39245006
0.12906699 0.054931372 0.39240524
0.12941076 0.054928739 0.39236665
0.12976512 0.054930605 0.39236018
0.13009696 0.054922942 0.39228565
0.13039947 0.054902978 0.39212325
0.13069351 0.054879572 0.3919363
0.13100117 0.054861989 0.39179096
0.13134499 0.054859601 0.39175409
0.13167103 0.054849811 0.39166442
0.13201439 0.054847278 0.39162657
0.13237284 0.054851018 0.39163345
0.076853655 0.057047848 0.40782517
0.077236623 0.057063997 0.40792519
0.077567965 0.057042025 0.40775272
0.077939376 0.057049591 0.40779126
0.078277692 0.057032973 0.40765694
0.078617968 0.05701793 0.40753379
0.078963883 0.057007097 0.40744066
0.079315208 0.057000246 0.40737602
0.079670005 0.056995939 0.4073295
0.080015391 0.056984972 0.40723529
0.080352239 0.056968052 0.40709853
0.08070787 0.056964528 0.40705746
0.081046239 0.056948926 0.40692997
0.081342652 0.056904096 0.40659365
0.081717871 0.056914549 0.4066523
0.082045719 0.056892063 0.40647551
0.08241006 0.056894969 0.40648016
0.082776435 0.056899246 0.40649453
0.083090864 0.056867938 0.40625465
0.083425939 0.05685097 0.40611714
0.083768375 0.056839135 0.40601623
0.084133163 0.056842506 0.40602395
0.084471174 0.056827836 0.40590274
0.084785931 0.056797709 0.40567112
0.085168898 0.056813337 0.40576619
0.085475296 0.056777973 0.40549704
0.085840814 0.056782003 0.40550926
0.086147875 0.056747504 0.40524626
0.08649274 0.05673809 0.4051623
0.086823843 0.056719769 0.40501472
0.087178357 0.056716815 0.40497687
0.087529227 0.056711532 0.40492231
0.08785972 0.056693133 0.4047741
0.088200323 0.056681398 0.40467337
0.088579297 0.05669431 0.40474859
0.088891752 0.056664713 0.4045203
0.089210697 0.05663947 0.40432307
0.089550301 0.05662749 0.40422049
0.089910485 0.056628574 0.40421113
0.090272635 0.056630883 0.40421042
0.0905862 0.056602813 0.40399286
0.090924218 0.056590185 0.40388548
0.091297038 0.056599233 0.40393275
0.091634579 0.056586422 0.40382403
0.092003174 0.056592815 0.40385225
0.092387207 0.05660861 0.40394756
0.092760399 0.056617673 0.40399474
0.093164042 0.056645174 0.40417349
0.093514308 0.056640141 0.40412003
0.093916088 0.056666229 0.40428853
0.1162368 0.05584291 0.39717269
0.1165285 0.055813305 0.39694268
0.11678296 0.055766087 0.3965874
0.1171082 0.055752855 0.39647382
0.11741263 0.055729825 0.39629057
0.11770002 0.055698872 0.39605093
0.11796417 0.05565713 0.39573464
0.11837997 0.055686984 0.3959274
0.11864779 0.055647247 0.39562532
0.11899935 0.055646911 0.39560339
0.11930656 0.055625897 0.39543441
0.11967155 0.055631865 0.3954573
0.11999682 0.055619393 0.39534903
0.1202972 0.055595484 0.39515948
0.12063535 0.055589117 0.39509466
0.12097993 0.055585742 0.39505106
0.12130611 0.055573966 0.39494771
0.12161283 0.055553365 0.39478165
0.12197562 0.055558417 0.39479792
0.12224999 0.05552328 0.3945286
0.122598 0.055521701 0.39449769
0.12295292 0.055523254 0.39448905
0.12330437 0.055523228 0.39446914
0.12365045 0.055520792 0.39443213
0.12408745 0.055559076 0.3946844
0.12439004 0.055537134 0.39450878
0.12462151 0.055483654 0.39410919
0.12486666 0.055436555 0.39375484
0.12513822 0.055401407 0.39348552
0.12554929 0.055428039 0.39365494
0.12586486 0.055412486 0.39352474
0.12619199 0.055402089 0.39343116
0.1265443 0.055402778 0.39341629
0.12688142 0.055396833 0.3933543
0.12722088 0.055391934 0.39329979
0.12754071 0.055378541 0.39318487
0.12780918 0.055342983 0.39291269
0.12812544 0.055328257 0.39278835
0.1284962 0.055337075 0.39283121
0.12877709 0.05530725 0.39259973
0.12909943 0.055295348 0.39249542
0.1295148 0.055323247 0.39267367
0.12981007 0.055299822 0.39248765
0.13012274 0.055283919 0.39235502
0.13048881 0.055290744 0.39238364
0.13074656 0.055251732 0.39208701
0.13109069 0.055249356 0.39205036
0.13139428 0.05522994 0.39189282
0.13171074 0.055216029 0.39177433
0.13210747 0.055235744 0.39189443
0.13241448 0.055217937 0.39174834
0.07689891 0.057442907 0.40805387
0.077253267 0.057437729 0.40800169
0.077625804 0.057446044 0.40804532
0.077975772 0.057437662 0.40797028
0.078310341 0.057418071 0.40781555
0.078675851 0.057421237 0.40782246
0.079006515 0.057399061 0.40764928
0.079348892 0.057385553 0.40753767
0.079685852 0.057368267 0.40739918
0.080046192 0.057367899 0.4073807
0.080368936 0.057340711 0.40717179
0.080709957 0.057326742 0.40705669
0.081029847 0.057297952 0.40683636
0.081376709 0.057288416 0.40675262
0.081753634 0.05730002 0.40681899
0.082084067 0.057279091 0.40665433
0.082440145 0.057276156 0.40661737
0.082781814 0.057263285 0.40650979
0.083147734 0.057267219 0.40652153
0.083467387 0.057239391 0.40630767
0.083818361 0.057233196 0.40624738
0.084143505 0.057209488 0.40606272
0.084512077 0.057215389 0.40608817
0.08483655 0.057191502 0.40590215
0.085151605 0.057161499 0.40567273
0.085525289 0.057170939 0.40572318
0.085876085 0.05716506 0.40566489
0.086210921 0.057148658 0.40553179
0.086543165 0.057130679 0.40538755
0.086902946 0.057130944 0.40537271
0.087207101 0.05709479 0.40509939
0.087596014 0.057114206 0.4052203
0.08790423 0.057081047 0.40496823
0.088235326 0.057062969 0.40482306
0.08861503 0.057076331 0.40490091
0.088928394 0.057047039 0.40467611
0.08925344 0.057025451 0.40450591
0.089612775 0.057025846 0.40449166
0.089923546 0.056995448 0.40425897
0.090289749 0.057000306 0.40427625
0.090621904 0.056983698 0.40414131
0.090966873 0.056975264 0.40406421
0.091322638 0.056973621 0.40403527
0.091687895 0.056977887 0.4040482
0.092014246 0.056958035 0.40389007
0.09241996 0.056987282 0.40408003
0.092749603 0.056969572 0.40393701
0.093145661 0.056992643 0.40408307
0.093501978 0.056991305 0.40405607
0.093901493 0.057016205 0.40421501
0.11596055 0.056234017 0.39744756
0.11625481 0.056205254 0.39722487
0.11651569 0.056160565 0.39688963
0.11681322 0.056133773 0.3966808
0.11712115 0.056112126 0.39650837
0.11743689 0.056094322 0.39636314
0.11773317 0.056067377 0.39615324
0.11806272 0.05605638 0.39605603
0.11839854 0.056048412 0.39598024
0.1187303 0.056038585 0.39589128
0.1190614 0.056028504 0.39580047
0.11937304 0.056009345 0.39564562
0.11973669 0.056014635 0.39566338
0.12006581 0.056003779 0.39556718
0.12039082 0.055991087 0.39545792
0.12069502 0.055968817 0.39528105
0.12102532 0.055958729 0.39519018
0.1213633 0.055952258 0.39512488
0.12164205 0.055918597 0.39486748
0.12197283 0.055908971 0.39477992
0.12234247 0.055917159 0.3948181
0.12270748 0.055923197 0.39484105
0.12314108 0.055960368 0.39508379
0.12351593 0.055970702 0.39513701
0.12518878 0.055774763 0.39363572
0.12557179 0.055789039 0.39371672
0.12692058 0.055764843 0.39346704
0.1272769 0.055767253 0.3934643
0.12758899 0.055750333 0.39332512
0.12785757 0.055714533 0.39305282
0.12818336 0.0557038 0.39295736
0.12856284 0.055716384 0.39302638
0.12884267 0.055685833 0.39279109
0.12916967 0.055675797 0.39270052
0.12953961 0.05568425 0.3927404
0.12985145 0.055667754 0.39260429
0.13018838 0.055662081 0.39254451
0.13047749 0.055636052 0.39234117
0.13093121 0.055680156 0.39263242
0.13116314 0.055629954 0.39225864
0.13140333 0.055583514 0.39191145
0.13183929 0.055619918 0.39214835
0.13211074 0.055586912 0.39189586
0.077276692 0.057816681 0.4081139
0.077660158 0.057833105 0.40821439
0.077985659 0.057806425 0.40801054
0.078362145 0.057817597 0.40807384
0.078703053 0.057802547 0.40795204
0.079050921 0.057792708 0.40786695
0.079372428 0.057763789 0.40764716
0.079706594 0.057744294 0.40749383
0.080061965 0.057740267 0.4074496
0.080419451 0.057737797 0.40741631
0.080752604 0.057717957 0.40726045
0.081117563 0.057720922 0.40726545
0.081434309 0.057689711 0.40702924
0.081817225 0.05770544 0.40712413
0.082137115 0.057676781 0.40690586
0.082454368 0.05764652 0.40667623
0.082818635 0.057649251 0.40667936
0.083143383 0.057624564 0.40648898
0.083487533 0.057613485 0.40639454
0.083830625 0.057601772 0.40629563
0.084193684 0.057603825 0.40629372
0.084519118 0.057580218 0.40611082
0.08487916 0.057580292 0.40609488
0.085223049 0.057569452 0.40600193
0.085578628 0.057566576 0.40596509
0.085907906 0.057546098 0.40580407
0.086251207 0.057535142 0.40571019
0.086604044 0.057530615 0.40566158
0.086885974 0.057479214 0.40528244
0.087253325 0.057484522 0.40530309
0.087579943 0.057463054 0.40513492
0.08792159 0.057451591 0.40503722
0.088295214 0.057461016 0.40508679
0.088641629 0.057452738 0.4050115
0.088968575 0.057431955 0.40484801
0.089310281 0.057420831 0.40475255
0.089652747 0.057410281 0.40466115
0.089966662 0.057381608 0.40444192
0.09029787 0.057364147 0.4043017
0.090654105 0.057362664 0.40427405
0.091008559 0.057360057 0.40423849
0.091357671 0.05735413 0.40417945
0.091706201 0.057347875 0.40411803
0.092059925 0.057344913 0.40407982
0.09240035 0.057333719 0.40398356
0.092783414 0.05734897 0.40407351
0.093142554 0.057349365 0.40405884
0.093498968 0.057348087 0.40403232
0.093862772 0.057351328 0.40403759
0.094246253 0.057366528 0.40412706
0.094650239 0.05739405 0.40430325
0.11530147 0.056611665 0.39764395
0.11564297 0.056605592 0.39758191
0.11598939 0.056601956 0.39753699
0.11629325 0.056577638 0.39734676
0.11652887 0.056520369 0.39692515
0.11687173 0.056515306 0.39687011
0.11716848 0.056488045 0.39665926
0.11747038 0.05646342 0.39646685
0.11775538 0.056430835 0.39621863
0.11811839 0.056435727 0.3962335
0.11845569 0.056428339 0.39616212
0.11876781 0.056409039 0.39600709
0.11908794 0.056393642 0.39587948
0.11938933 0.056369487 0.39569041
0.11978544 0.056390069 0.39581528
0.12009181 0.056368403 0.39564368
0.1203905 0.056343276 0.3954477
0.12076516 0.05635374 0.39550158
0.12108503 0.056338653 0.39537609
0.12140751 0.056324866 0.39525971
0.12169032 0.05629281 0.39501512
0.12205251 0.056297548 0.39502874
0.12248512 0.056334645 0.39526942
0.12695496 0.056130957 0.39356491
0.12730846 0.056132101 0.39355317
0.12763236 0.056120228 0.39345017
0.12793474 0.056098972 0.39328143
0.1282331 0.056076091 0.39310125
0.1285906 0.056079108 0.39310268
0.1289482 0.056082152 0.39310426
0.12921457 0.056045622 0.39282843
0.12955123 0.056039691 0.39276716
0.12992868 0.056051381 0.39282933
0.1302637 0.056044765 0.3927632
0.13057755 0.056029089 0.39263356
0.13092326 0.056027137 0.39260012
0.13123852 0.056012202 0.39247569
0.13155596 0.055998262 0.39235827
0.13187148 0.055983592 0.39223576
0.077680975 0.058210358 0.40831229
0.078016035 0.058190558 0.40815791
0.078380488 0.058192763 0.40815786
0.078735642 0.058188077 0.4081094
0.079085723 0.058179703 0.40803504
0.079414271 0.058155637 0.40785056
0.079765424 0.058148272 0.40778315
0.080108076 0.058134791 0.40767285
0.08044719 0.058118876 0.40754542
0.080767602 0.058089666 0.40732464
0.081142478 0.058099706 0.40737912
0.081465326 0.058072563 0.40717283
0.081818521 0.058067203 0.40711924
0.082164682 0.058056924 0.40703103
0.082525752 0.058057208 0.40701693
0.082867995 0.058044311 0.40691036
0.083203517 0.058026843 0.40677166
0.083523154 0.05799849 0.40655664
0.083863176 0.057984475 0.40644211
0.084220573 0.057982549 0.40641221
0.084565967 0.057972398 0.40632468
0.084918216 0.057967018 0.4062705
0.085271664 0.057962503 0.40622234
0.085582867 0.057929426 0.40597403
0.085962445 0.057942715 0.40605056
0.086284094 0.057917006 0.40585375
0.086608604 0.057893418 0.40567181
0.086966559 0.0578923 0.40564725
0.087327093 0.057892896 0.40563464
0.0876275 0.057853792 0.40534383
0.087963209 0.057838213 0.40521786
0.088327892 0.057841737 0.40522566
0.088690296 0.057843748 0.4052228
0.089011215 0.057818793 0.40503103
0.08931867 0.057785332 0.40477961
0.089689374 0.057792883 0.4048155
0.090007514 0.05776665 0.40461463
0.090370506 0.057769295 0.404616
0.09071964 0.057763092 0.40455535
0.091053113 0.057747006 0.40442547
0.091392443 0.057734746 0.40432236
0.091742583 0.05772939 0.40426752
0.09207534 0.057713173 0.40413663
0.092403702 0.057694335 0.40398735
0.092766583 0.057697125 0.4039894
0.093143657 0.057708666 0.40405276
0.093539506 0.057731718 0.40419665
0.093869828 0.057714306 0.4040572
0.09426032 0.057733878 0.40417662
0.094601639 0.057723302 0.40408492
0.094988525 0.057740502 0.40418762
0.11504654 0.057014726 0.39799613
0.11539951 0.057014119 0.39797249
0.1156811 0.056978352 0.3977035
0.11594048 0.056931898 0.39735988
0.1162962 0.056932889 0.39734736
0.11659586 0.056906514 0.39714387
0.11688811 0.056876689 0.39691633
0.11718597 0.056849767 0.39670902
0.1174809 0.056821592 0.39649296
0.11780895 0.056809559 0.39638951
0.11815443 0.056805968 0.39634499
0.11847225 0.056789149 0.39620817
0.11877982 0.05676752 0.39603779
0.11914968 0.056775715 0.39607543
0.11946116 0.056756116 0.3959192
0.11978514 0.056742556 0.39580509
0.12013183 0.056739807 0.39576629
0.12045989 0.056728292 0.39566645
0.1208198 0.056731798 0.39567134
0.12113496 0.056714341 0.39552996
0.12144624 0.056695171 0.39537668
0.12179758 0.056694757 0.39535418
0.12225747 0.056744728 0.39568302
0.12273165 0.056801025 0.39605591
0.12308925 0.0568032 0.39605135
0.1273201 0.056488287 0.39358041
0.12767577 0.056490377 0.39357525
0.1280227 0.056488603 0.39354315
0.12828343 0.056448899 0.39324683
0.12864046 0.056451667 0.39324641
0.1289766 0.056445289 0.39318222
0.12927315 0.056421664 0.39299792
0.1296394 0.056428503 0.39302585
0.12996806 0.056418993 0.39293981
0.13027039 0.056398124 0.39277476
0.1306145 0.056395411 0.39273614
0.1309766 0.05640047 0.39275157
0.13127755 0.056379221 0.39258394
0.13160667 0.056370165 0.39250109
0.13195227 0.056368195 0.39246762
0.077693537 0.058581557 0.40836665
0.078052111 0.058579247 0.40833503
0.078419864 0.058583803 0.4083513
0.078787632 0.058588345 0.40836731
0.079082444 0.058538824 0.40800652
0.079447523 0.058541544 0.40800977
0.079810083 0.058542378 0.40799987
0.080121793 0.058506083 0.40773115
0.080474719 0.058500066 0.40767336
0.080827907 0.058494292 0.40761727
0.081146792 0.058463864 0.40738931
0.081519842 0.058472559 0.4074339
0.081855886 0.058454741 0.40729374
0.082204431 0.058445968 0.40721655
0.082533315 0.058423359 0.40704289
0.082904674 0.058430877 0.4070791
0.083245248 0.058416728 0.40696433
0.083608739 0.058418721 0.40696192
0.083921142 0.058385141 0.4067117
0.084235132 0.058352955 0.40647113
0.084598839 0.058355331 0.40647131
0.084946521 0.058346689 0.40639466
0.085285865 0.058332417 0.40627876
0.085625343 0.058318347 0.40616426
0.086005628 0.058332078 0.40624326
0.086317055 0.058299184 0.40599754
0.086648107 0.058279768 0.40584567
0.086990073 0.058267813 0.40574571
0.087337956 0.058259912 0.40567395
0.087653525 0.058230601 0.40545306
0.088028349 0.058240745 0.40550685
0.088390313 0.058242325 0.40550095
0.088704363 0.058212448 0.405276
0.089064345 0.058212824 0.4052617
0.089385621 0.058188017 0.40507197
0.089715362 0.058168892 0.40492174
0.090047903 0.058151722 0.40478516
0.090414405 0.058156531 0.40480152
0.090739451 0.05813475 0.40463272
0.091086991 0.058127496 0.40456498
0.091420032 0.058111072 0.40443343
0.091780283 0.058112007 0.40442267
0.092106737 0.058091626 0.40426347
0.092439622 0.058075439 0.4041335
0.09279789 0.058075268 0.40411484
0.093153454 0.058073409 0.40408444
0.093502678 0.058067616 0.40402669
0.093871683 0.058074113 0.40405431
0.094239421 0.058079783 0.40407616
0.094614141 0.0580897 0.40412754
0.094981179 0.058094833 0.40414557
0.095352955 0.058102813 0.40418342
0.11443277 0.057416536 0.39835462
0.11475735 0.057401571 0.39823151
0.11509071 0.05739107 0.3981393
0.11537237 0.057354938 0.39786932
0.11567913 0.057331461 0.39768711
0.11598989 0.057310116 0.39751962
0.11630633 0.05729169 0.39737242
0.11654724 0.05723628 0.39696875
0.11691298 0.057242326 0.39699128
0.11721092 0.05721524 0.39678401
0.1175646 0.057215448 0.39676601
0.11790337 0.057208423 0.39669782
0.11818591 0.057174224 0.39644122
0.11855931 0.057184055 0.39648992
0.11879114 0.057125755 0.39606622
0.11917108 0.057138812 0.39613724
0.11952461 0.057139166 0.39612019
0.11982664 0.057114966 0.39593288
0.1201993 0.057124488 0.39597934
0.12051977 0.057109214 0.39585391
0.12084606 0.057096764 0.39574808
0.12122843 0.057110831 0.39582595
0.12150608 0.057075616 0.39556232
0.12193274 0.057110395 0.39578372
0.12240705 0.057167228 0.39615795
0.12280978 0.057190403 0.39629886
0.12768534 0.056845699 0.39359599
0.128056 0.056854438 0.39363679
0.12835704 0.056832287 0.39346373
0.12866127 0.056811683 0.39330137
0.12901339 0.056812268 0.39328569
0.12930232 0.056785107 0.39307794
0.12965539 0.056786183 0.39306566
0.13000812 0.056787111 0.39305234
0.13030525 0.056763802 0.39287135
0.13066728 0.056768812 0.39288628
0.13100229 0.056762096 0.39282006
0.13132948 0.056752034 0.39273071
0.13170195 0.056761548 0.39277676
0.13206613 0.056767434 0.3927978
0.07807672 0.058959618 0.40845212
0.078446768 0.058965843 0.40847975
0.078796983 0.058957174 0.40840411
0.079128489 0.058934648 0.40823245
0.079496577 0.058939457 0.40825006
0.079833284 0.058921054 0.40810686
0.080182984 0.05891237 0.40803093
0.080506377 0.058884516 0.40782219
0.080862083 0.058880445 0.40777811
0.0811937 0.058858939 0.40761328
0.081571333 0.058870837 0.40767968
0.081908613 0.058853641 0.40754458
0.08219631 0.058801118 0.40716481
0.082576253 0.058814768 0.40724319
0.082921997 0.058804028 0.40715271
0.083257638 0.058786254 0.40701345
0.083617918 0.058785968 0.40699518
0.083950467 0.058766257 0.40684244
0.084303126 0.058760732 0.40678784
0.084643304 0.058746599 0.40667358
0.084956989 0.058714271 0.40643337
0.08534117 0.058730733 0.40653086
0.085659079 0.058701646 0.40631297
0.086032212 0.058710475 0.40635753
0.086372934 0.058697212 0.40624908
0.086709991 0.058681585 0.40612423
0.08703734 0.058659531 0.40595493
0.087389015 0.058653992 0.40589985
0.087692186 0.058616072 0.40562066
0.088048339 0.058613747 0.4055877
0.088404909 0.058611702 0.40555671
0.088759802 0.058608573 0.40551811
0.089089826 0.058589116 0.40536651
0.089459956 0.058596075 0.40539765
0.089778945 0.058569621 0.40519759
0.090105273 0.058548145 0.40503195
0.090425767 0.058523066 0.4048413
0.090794109 0.058529023 0.40486535
0.091145165 0.058523841 0.40481231
0.091490395 0.058514971 0.40473372
0.091844663 0.058511931 0.40469536
0.092153728 0.058480222 0.40445873
0.092531338 0.058492091 0.40452346
0.092827775 0.058452763 0.40423405
0.093158536 0.058435261 0.40409556
0.09353248 0.058444869 0.40414453
0.093875758 0.058435321 0.40406096
0.094244398 0.058441583 0.40408668
0.094601594 0.058440711 0.40406305
0.094971739 0.058447819 0.40409455
0.09536162 0.058466975 0.40420929
0.095732033 0.058474094 0.40424076
0.09611389 0.058488127 0.40432
0.11411332 0.057788901 0.39848664
0.11447738 0.057793662 0.39850017
0.11478438 0.057769693 0.39831558
0.11508393 0.057742126 0.39810619
0.11542985 0.05773792 0.39805785
0.1157243 0.057708081 0.39783275
0.11601995 0.057679009 0.39761305
0.11631694 0.05765079 0.3973991
0.11659836 0.057615038 0.39713329
0.11698396 0.05763083 0.39722276
0.11728037 0.057602722 0.39700961
0.1175824 0.057577539 0.39681658
0.11791693 0.05756836 0.39673391
0.11825327 0.057560124 0.39665768
0.11863178 0.05757241 0.39672288
0.11890755 0.057534896 0.39644492
0.11923759 0.057523791 0.39634889
0.11955194 0.057505213 0.39620137
0.11991265 0.057508964 0.39620772
0.12028017 0.057515964 0.39623639
0.12057897 0.057490144 0.39603901
0.12087099 0.057461258 0.39582047
0.12126797 0.057482295 0.39594579
0.12168061 0.057510611 0.39612123
0.1220818 0.057533361 0.39625832
0.12240532 0.057519484 0.39614314
0.12812208 0.057235092 0.39383104
0.1283934 0.057199497 0.39356643
0.12870619 0.057182517 0.39342993
0.12904324 0.057176385 0.39336801
0.12939118 0.057175092 0.3933394
0.12970884 0.057160459 0.39321905
0.13003097 0.057147875 0.39311275
0.13035376 0.057135649 0.39300898
0.13073167 0.057147574 0.39307129
0.13106747 0.057141088 0.39300692
0.13137656 0.05712302 0.39286298
0.13181962 0.057163138 0.39311913
0.078088708 0.059330612 0.40850309
0.078463823 0.059340671 0.40855679
0.078816183 0.059333507 0.40849191
0.079176091 0.059332069 0.40846637
0.079543293 0.059336074 0.40847826
0.079900458 0.059332602 0.40843862
0.080196522 0.059283979 0.40808818
0.080528252 0.059262045 0.40792134
0.080884404 0.059258208 0.40787905
0.081226356 0.059244033 0.4077656
0.081585743 0.059242658 0.40774015
0.081929773 0.059230182 0.40763828
0.082274161 0.059218075 0.40753892
0.082613349 0.059202354 0.40741459
0.082989685 0.05921327 0.4074735
0.083353437 0.059215154 0.40747029
0.083640479 0.059162755 0.40709347
0.084004007 0.059164673 0.4070904
0.084337264 0.05914535 0.40694112
0.084627256 0.059095986 0.40658504
0.08500585 0.059108641 0.40665573
0.085380115 0.059118185 0.40670493
0.085685492 0.059080161 0.40642682
0.086047269 0.059081189 0.40641731
0.086428151 0.05909526 0.40649748
0.086736627 0.059059907 0.40623763
0.087100103 0.059062149 0.40623635
0.087394826 0.059017941 0.40591556
0.087745272 0.059011571 0.40585494
0.088097163 0.059006218 0.40580133
0.088443495 0.058997203 0.40572247
0.088792063 0.058989745 0.40565425
0.089148596 0.058987625 0.40562272
0.089485429 0.058972526 0.4055019
0.08982262 0.058957797 0.40538356
0.090128839 0.058922924 0.40512672
0.090475999 0.058914997 0.40505505
0.090817466 0.058903433 0.40495843
0.091152534 0.058887828 0.40483391
0.091489792 0.058873758 0.40471995
0.091838717 0.058867268 0.40465808
0.092190221 0.058862485 0.40460789
0.092562102 0.058870688 0.4046469
0.092913762 0.058866035 0.40459746
0.093219951 0.058832698 0.40435094
0.093543977 0.058810841 0.40418324
0.09389171 0.058803998 0.40411869
0.094250001 0.058803789 0.40409973
0.094611138 0.058805358 0.40409288
0.094970025 0.058805522 0.40407637
0.095353484 0.058820836 0.4041639
0.095716625 0.058823552 0.40416482
0.096094176 0.058835067 0.40422618
0.096458755 0.05883858 0.40423253
0.113545 0.058215853 0.39901039
0.11390746 0.058219649 0.39901716
0.1142386 0.058207449 0.39891425
0.11446096 0.058140084 0.3984333
0.11475717 0.058110517 0.39821139
0.11510061 0.058104984 0.39815417
0.1154312 0.058093019 0.39805287
0.11574718 0.058073785 0.39790174
0.11601612 0.058031138 0.39759025
0.11633638 0.058014359 0.3974559
0.11667174 0.05800518 0.39737362
0.11705165 0.058018137 0.397443
0.11736828 0.057999745 0.39729762
0.11762749 0.057953175 0.39695919
0.11798694 0.057956118 0.39695993
0.1182973 0.057935014 0.39679593
0.11861362 0.057916932 0.39665264
0.1189346 0.05790123 0.39652565
0.11930385 0.057909049 0.39655975
0.1196688 0.057914741 0.39657924
0.11999325 0.057900872 0.39646471
0.12029688 0.057877045 0.39628208
0.12066393 0.057883792 0.39630869
0.12105571 0.057902329 0.39641607
0.12135604 0.057877138 0.39622405
0.12171435 0.057879668 0.39622176
0.12216637 0.057926614 0.39652357
0.12788472 0.057796605 0.39529923
0.1281926 0.0577765 0.39514193
0.12813351 0.057591554 0.39385739
0.12843233 0.057568047 0.39367694
0.12880622 0.057578232 0.39372689
0.12906148 0.057535473 0.39341483
0.12940618 0.057532717 0.39337629
0.12973931 0.057524838 0.39330274
0.13009544 0.057527173 0.39329898
0.1304643 0.057535108 0.39333352
0.13083202 0.057542499 0.39336434
0.13102272 0.05747221 0.39286417
0.13144331 0.057502858 0.39305395
0.13183589 0.057521123 0.39315909
0.078485221 0.059718963 0.40865639
0.078843214 0.059715953 0.40862024
0.079203054 0.059714351 0.40859368
0.079560593 0.059711043 0.40855536
0.079917222 0.059707079 0.40851253
0.080244578 0.059681389 0.40832099
0.080610789 0.05968469 0.40832773
0.080939747 0.059660506 0.40814644
0.081268772 0.059636589 0.40796688
0.08163777 0.059642073 0.40798849
0.081955962 0.059610568 0.40775692
0.082316741 0.059610177 0.40773818
0.082651883 0.059591301 0.40759301
0.083021976 0.059597678 0.40762049
0.083379984 0.059595365 0.40758845
0.083664358 0.059540674 0.40719813
0.084011801 0.059531141 0.40711668
0.084376797 0.059534069 0.40712035
0.084737152 0.059533715 0.40710154
0.085067488 0.059512362 0.40693912
0.085386194 0.059483077 0.40672243
0.085737348 0.059476569 0.40666139
0.086093836 0.059473787 0.40662578
0.086427957 0.059455641 0.40648511
0.086807616 0.059468843 0.40655872
0.08713913 0.059449088 0.40640697
0.087480545 0.059436224 0.40630233
0.087789781 0.059401695 0.40604949
0.088157751 0.059407033 0.40606913
0.088512175 0.059403222 0.40602621
0.088816181 0.059365742 0.40575314
0.089172728 0.059363551 0.40572122
0.089516334 0.059352789 0.40563071
0.089866571 0.059346501 0.40557066
0.090201192 0.059329987 0.40544075
0.090539619 0.059316095 0.40532866
0.090851411 0.059284933 0.40509856
0.091203563 0.059280254 0.40504941
0.091545947 0.059269279 0.40495718
0.091885604 0.059256639 0.40485355
0.092249282 0.059259526 0.40485597
0.092583247 0.05924337 0.40472823
0.092956744 0.059252549 0.40477353
0.093268603 0.059222508 0.40455088
0.09360975 0.059211232 0.40445638
0.093937725 0.059191734 0.4043057
0.094282821 0.059183132 0.4042294
0.094615839 0.05916705 0.40410197
0.094980337 0.059170697 0.40410924
0.095346004 0.059175041 0.40412125
0.095728755 0.059189912 0.40420508
0.096089661 0.059191216 0.40419626
0.096461855 0.059199449 0.40423465
0.096821949 0.059200212 0.40422201
0.097200714 0.059212342 0.40428698
0.097575583 0.059222028 0.40433517
0.11295163 0.05863161 0.39945173
0.11327025 0.058612578 0.39930284
0.11358153 0.058589861 0.39912885
0.11388595 0.058563769 0.39893189
0.11423805 0.058562279 0.39890251
0.11452026 0.058525082 0.39862984
0.11480421 0.058489002 0.39836484
0.11511388 0.058466211 0.39819032
0.11540212 0.058432695 0.39794275
0.11571254 0.058410592 0.39777291
0.11606029 0.058407411 0.39773193
0.11637738 0.058388855 0.39758626
0.11671971 0.058383044 0.39752734
0.11704147 0.05836701 0.39739877
0.11737663 0.058357742 0.39731625
0.11768147 0.058333483 0.39713171
0.11800997 0.058321074 0.39702782
0.11836929 0.058323927 0.39702779
0.11863664 0.058281582 0.39672008
0.11901923 0.05829592 0.39679828
0.11934163 0.058280792 0.39667583
0.11968292 0.058274943 0.39661655
0.12003583 0.058274772 0.3965959
0.12039697 0.058278587 0.39660233
0.12072264 0.058265258 0.39649209
0.12109964 0.058276709 0.39655048
0.1213915 0.058247246 0.39633045
0.12183816 0.058292013 0.39661545
0.12221936 0.058305297 0.39668623
0.12823999 0.058150467 0.39527908
0.12845431 0.057929173 0.3937355
0.12880471 0.057928834 0.3937135
0.12915282 0.057927456 0.39368448
0.12952471 0.057936724 0.39372778
0.12981465 0.057909384 0.39352232
0.13019551 0.057922654 0.39359277
0.13052459 0.057912871 0.39350662
0.13081712 0.057886954 0.39331082
0.1312165 0.057908349 0.39343649
0.13154261 0.05789737 0.3933422
0.07887774 0.060104348 0.40878728
0.079228431 0.060095679 0.40871274
0.079599455 0.060102448 0.40874311
0.079941362 0.06008726 0.40862411
0.080307335 0.060090225 0.40862852
0.08063671 0.060065903 0.4084473
0.080976658 0.060049627 0.40832078
0.081327617 0.060041633 0.40825048
0.081672899 0.06002954 0.40815231
0.081989117 0.059996285 0.4079102
0.082359038 0.060002446 0.40793604
0.082690418 0.059980586 0.40777132
0.083050437 0.059979614 0.40774858
0.083377294 0.059954796 0.40756366
0.083746351 0.059960406 0.40758556
0.084067456 0.059931789 0.40737477
0.08442869 0.059931897 0.40735912
0.084777899 0.0599235 0.40728572
0.085046306 0.059858307 0.4068262
0.085414194 0.059863385 0.40684426
0.085778899 0.059866205 0.40684688
0.086112328 0.059847262 0.40670162
0.08647687 0.059850007 0.40670368
0.086817771 0.059836436 0.40659481
0.087156564 0.059821535 0.40647683
0.087503985 0.059812643 0.40639973
0.087832712 0.059791107 0.40623662
0.08816921 0.059775021 0.4061105
0.088520139 0.0597688 0.4060514
0.088868141 0.05976066 0.40597919
0.089199103 0.059741173 0.40582991
0.08955691 0.05973975 0.40580323
0.089903362 0.059730802 0.40572536
0.090258099 0.059727397 0.40568525
0.09059117 0.059709746 0.40554821
0.090895474 0.059673347 0.40528384
0.091232814 0.059658829 0.40516806
0.091603227 0.059665982 0.40519938
0.091908269 0.059630658 0.40494224
0.09227141 0.059633147 0.40494186
0.092631236 0.059633497 0.40492684
0.092978843 0.059626002 0.40485862
0.093326025 0.059618302 0.40478885
0.093653254 0.059597947 0.40463322
0.094015077 0.05959969 0.40462753
0.094330966 0.059572406 0.40442476
0.09464056 0.059541378 0.40419653
0.095016405 0.059552088 0.40425164
0.095358305 0.059541535 0.40416235
0.095729306 0.059549168 0.40419644
0.09610074 0.059557002 0.40423191
0.096458472 0.059556324 0.40420949
0.096823104 0.059559893 0.4042159
0.097183831 0.059561044 0.40420583
0.097562119 0.059572905 0.40426844
0.097895026 0.059557077 0.40414307
0.098281771 0.059573986 0.40423986
0.098664343 0.059588265 0.40431872
0.11205437 0.059076227 0.40010247
0.11230247 0.059019554 0.39969951
0.11261581 0.0589974 0.39953035
0.11298708 0.059005648 0.39956704
0.11328807 0.058977261 0.39935562
0.11360842 0.058959093 0.3992134
0.113924 0.05893857 0.39905524
0.11422063 0.058908403 0.39883175
0.11452614 0.058882989 0.39864045
0.11481964 0.058851574 0.3984085
0.1151256 0.058826715 0.39822099
0.11546576 0.058819439 0.39815241
0.11578363 0.058800876 0.39800751
0.11606466 0.058763791 0.39773712
0.11643995 0.058774505 0.39779031
0.11676752 0.058761124 0.39768043
0.11711029 0.058755461 0.39762273
0.11744586 0.058746234 0.39754093
0.117747 0.058719892 0.39734325
0.11809942 0.058719195 0.39731911
0.11840361 0.058694605 0.39713332
0.11871204 0.058672246 0.39696261
0.1190893 0.058683943 0.39702231
0.11941102 0.058668282 0.3968969
0.11974837 0.058660373 0.39682391
0.12003345 0.058626976 0.39657852
0.12040857 0.058637626 0.39663106
0.1207509 0.058632288 0.39657548
0.12112454 0.058642145 0.3966226
0.12149312 0.058649503 0.39665276
0.12185548 0.05865382 0.39666244
0.12231188 0.058703251 0.39697713
0.12794752 0.058530547 0.39547542
0.12830481 0.058532652 0.39546987
0.12857971 0.058497258 0.39521107
0.12856966 0.058332775 0.39408013
0.12890585 0.058325864 0.39401376
0.1291618 0.05828277 0.39370301
0.12953131 0.058291011 0.39373901
0.12987714 0.058288582 0.39370295
0.13021411 0.058282208 0.39364019
0.13057899 0.058288317 0.39366183
0.13092782 0.058287255 0.39363495
0.13129449 0.058294125 0.39366165
0.07925269 0.060476396 0.40882602
0.079626217 0.060485013 0.40886861
0.079981089 0.060479451 0.40881532
0.080318235 0.060460594 0.40867212
0.080651075 0.060438681 0.40850821
0.081002668 0.060430959 0.40844014
0.081354387 0.060423393 0.40837312
0.081712067 0.060420305 0.40833628
0.082040571 0.060395759 0.40815443
0.082410745 0.060401969 0.40818036
0.082751468 0.060386643 0.40806067
0.083064742 0.060351502 0.40780708
0.083418958 0.060346287 0.40775564
0.08377298 0.060340974 0.40770349
0.084133081 0.060340062 0.40768105
0.084477037 0.06032763 0.40758076
0.084801324 0.060301319 0.40738663
0.085143007 0.06028755 0.40727717
0.085511513 0.06029281 0.40729624
0.085813947 0.060251631 0.40700158
0.086146854 0.060232103 0.40685308
0.086519353 0.06024031 0.40689197
0.086887904 0.0602457 0.40691173
0.08719337 0.060207497 0.40663698
0.087561034 0.060212377 0.40665323
0.087887421 0.060188934 0.40647817
0.088193275 0.0601517 0.40620986
0.088551581 0.060150381 0.40618414
0.088892989 0.060137652 0.40608129
0.089240894 0.060129393 0.40600857
0.089590296 0.060122207 0.40594313
0.089937307 0.060113486 0.40586719
0.090291806 0.06010982 0.40582538
0.090633385 0.060097612 0.40572587
0.090940438 0.060062695 0.40547299
0.091298424 0.060061563 0.40544814
0.091628835 0.06004237 0.40530136
0.092005998 0.06005384 0.40536153
0.092306189 0.060015183 0.40508327
0.092684858 0.060027648 0.40515009
0.093008362 0.060004417 0.40497592
0.093317874 0.059972383 0.40474227
0.09370169 0.059988163 0.40483132
0.094029471 0.059968084 0.40467831
0.094401263 0.059976116 0.404715
0.094684318 0.059927933 0.40437227
0.095020391 0.059913535 0.40425754
0.095383242 0.059916064 0.40425697
0.095731303 0.059909325 0.40419382
0.096102938 0.059917331 0.40423009
0.096455351 0.059913337 0.40418541
0.096827641 0.059921682 0.40422386
0.097183429 0.059919778 0.40419316
0.097552627 0.05992613 0.40421814
0.097893953 0.059915368 0.40412766
0.098260239 0.05991992 0.40414038
0.098611295 0.059915178 0.40409043
0.098963365 0.059911083 0.40404478
0.11142616 0.059476968 0.40043131
0.1117207 0.059444144 0.40019128
0.11204676 0.059428256 0.40006521
0.11235435 0.059402697 0.39987406
0.11270862 0.059401903 0.39984959
0.11297826 0.059356652 0.39952582
0.1132846 0.059330907 0.39933336
0.11359547 0.059307694 0.39915794
0.11392266 0.059293102 0.39904055
0.11424015 0.059273582 0.39888996
0.11461385 0.059283253 0.39893579
0.11484306 0.059218358 0.39847985
0.11511946 0.059178121 0.39818984
0.11549678 0.059189856 0.39824954
0.11584312 0.059185684 0.39820218
0.11610676 0.059139416 0.39787158
0.11645596 0.059136871 0.39783517
0.1167751 0.059119131 0.3976965
0.11712737 0.059118215 0.39767098
0.11747384 0.059114393 0.39762589
0.11783381 0.059117354 0.39762646
0.11817475 0.05911079 0.39756289
0.11841692 0.059055004 0.39716831
0.11881477 0.059076957 0.39729655
0.1190938 0.05903988 0.3970277
0.11942097 0.0590268 0.39692035
0.11979334 0.059036095 0.39696339
0.12010926 0.059017587 0.39681947
0.1204754 0.05902379 0.39684165
0.12081884 0.059018869 0.3967891
0.12115625 0.059011038 0.39671695
0.12158091 0.059045635 0.39692995
0.12193809 0.059047338 0.39692187
0.12236855 0.059084427 0.39715159
0.12805429 0.058932457 0.39579636
0.12826346 0.05886646 0.39533341
0.12859021 0.05885464 0.39523435
0.1286101 0.058702823 0.3941952
0.12899575 0.058718313 0.39427954
0.12924553 0.058672059 0.39394927
0.129651 0.058696538 0.39409396
0.12985626 0.058630478 0.39363083
0.13028224 0.058664165 0.39383733
0.13057403 0.05863741 0.39363807
0.13098341 0.058663473 0.39379334
0.13124783 0.058624625 0.39351293
0.07928589 0.060864177 0.40898529
0.079642043 0.060859464 0.40893793
0.080002658 0.060858179 0.40891361
0.080372296 0.060863752 0.40893528
0.080717623 0.060850933 0.40883338
0.081049174 0.060827892 0.40866271
0.081390813 0.0608126 0.40854406
0.081767336 0.060823385 0.4086006
0.082059018 0.060771253 0.40823439
0.082424119 0.060773693 0.40823478
0.082744136 0.06074303 0.40801269
0.083086036 0.060728621 0.4078998
0.083445981 0.060727477 0.40787596
0.083792888 0.060716894 0.4077886
0.08416111 0.060721774 0.40780514
0.0844955 0.060702309 0.4076581
0.084823497 0.060678434 0.4074814
0.085165545 0.06066478 0.40737328
0.085514389 0.060656063 0.40729827
0.085875779 0.060656264 0.40728319
0.086205415 0.06063414 0.40711808
0.086580351 0.06064393 0.40716717
0.086891592 0.060609207 0.40691745
0.087232329 0.060595255 0.40680709
0.087594219 0.060596053 0.40679574
0.087937012 0.060583699 0.40669602
0.088214748 0.060526796 0.40629724
0.088617936 0.060556084 0.40647703
0.088917948 0.060514919 0.40618381
0.089269541 0.060509045 0.40612748
0.089623488 0.060504809 0.40608209
0.089989394 0.060508654 0.40609086
0.090321168 0.060489599 0.40594593
0.090675421 0.060485691 0.40590262
0.090992033 0.060456812 0.40569168
0.091342464 0.060450532 0.40563235
0.091654748 0.060419165 0.40540463
0.092026874 0.06042733 0.40544221
0.092367008 0.060414512 0.40533888
0.092719302 0.060409706 0.40528929
0.093045726 0.060388148 0.40512732
0.093384162 0.060374539 0.4050186
0.093717717 0.060357872 0.40488935
0.094044909 0.060337253 0.40473354
0.094387986 0.060326941 0.40464687
0.094720781 0.060310174 0.40451682
0.095070541 0.060304284 0.40445971
0.095409706 0.060291745 0.404358
0.095749326 0.060279593 0.40425882
0.09611465 0.060283639 0.40426823
0.09647695 0.060285769 0.40426481
0.096825145 0.060279109 0.40420234
0.097177267 0.060274933 0.40415654
0.097536862 0.060275406 0.40414178
0.097887784 0.060270529 0.40409121
0.098241344 0.060267303 0.40405166
0.098590456 0.060261391 0.40399402
0.098955251 0.060265072 0.4040007
0.099328294 0.060273722 0.40404063
0.0996904 0.060275707 0.40403584
0.10002375 0.060260348 0.40391475
0.11042632 0.059870608 0.4007279
0.11076564 0.059861351 0.40064695
0.11108469 0.059841245 0.40049332
0.11141405 0.059826799 0.4003776
0.11172234 0.059801158 0.40018699
0.11203269 0.059776787 0.40000483
0.11231498 0.059737649 0.39972383
0.11265258 0.059728079 0.39964065
0.1129592 0.059702192 0.39944834
0.11327866 0.05968323 0.39930233
0.1136305 0.059681401 0.39927092
0.11395324 0.05966435 0.39913768
0.11423913 0.059628159 0.39887637
0.11452448 0.059591919 0.39861473
0.11488346 0.059594095 0.39861009
0.11519805 0.059573304 0.39845175
0.11552664 0.059559856 0.39834255
0.11584898 0.059543274 0.3982124
0.11618938 0.059536047 0.39814481
0.11656234 0.05954551 0.39818874
0.11684223 0.059507508 0.3979153
0.11719146 0.059504941 0.3978788
0.11753414 0.05949907 0.3978202
0.11787121 0.059490409 0.39774293
0.11819255 0.059473883 0.39761305
0.1185342 0.059467643 0.39755195
0.11889037 0.059468709 0.39753962
0.11918198 0.059437569 0.39731202
0.11945922 0.059399463 0.39703786
0.11983664 0.059411243 0.3970972
0.120164 0.059398223 0.39699069
0.12051994 0.059399351 0.3969788
0.1208702 0.05939769 0.39694819
0.12122566 0.059398592 0.39693466
0.1215618 0.059390046 0.39685804
0.12197645 0.059419785 0.39703724
0.12240303 0.059455141 0.39725396
0.12807654 0.059295826 0.39585599
0.12831306 0.05924204 0.39547724
0.12855633 0.059191637 0.39512113
0.12873267 0.05911079 0.3945618
0.1290442 0.059092298 0.39441869
0.12933728 0.059065472 0.39421999
0.1296577 0.059051242 0.3941054
0.13005377 0.059071448 0.39422062
0.13030194 0.05902455 0.393888
0.13069466 0.05904321 0.39399287
0.13108362 0.059060071 0.39408571
0.13145807 0.059070323 0.39413449
0.079674482 0.061246831 0.40909249
0.0800381 0.061247729 0.4090828
0.080405965 0.061251845 0.40909457
0.080737978 0.061228745 0.40892449
0.081087701 0.061219227 0.40884507
0.0814602 0.061226897 0.40888044
0.081788428 0.061201386 0.40869409
0.082113564 0.061173782 0.40849382
0.082453102 0.061157115 0.40836644
0.082808301 0.061152156 0.40831727
0.083133973 0.061125524 0.40812328
0.083525471 0.061147321 0.40825266
0.083810493 0.061091304 0.40786248
0.084184699 0.061100513 0.40790769
0.084533364 0.06109117 0.40782902
0.084881954 0.061081864 0.40775049
0.085201502 0.061051816 0.40753353
0.085559219 0.061049268 0.40750006
0.085911281 0.061042715 0.40743983
0.086249791 0.061026633 0.40731597
0.086601995 0.061020326 0.40725729
0.086933784 0.060999755 0.40710336
0.087302215 0.061004955 0.40712139
0.087594852 0.060957357 0.40678707
0.087975301 0.060971025 0.40686148
0.088269062 0.060924739 0.40653586
0.08860068 0.060904846 0.40638629
0.08895915 0.060903512 0.40636051
0.089318991 0.06090311 0.4063409
0.089688517 0.060909294 0.40636522
0.090023555 0.060892101 0.40623349
0.090377666 0.060887888 0.40618837
0.090702936 0.060864363 0.40601435
0.091000319 0.060822383 0.40571716
0.091342375 0.060810477 0.40562057
0.091706201 0.060813092 0.40562081
0.092039555 0.060795572 0.4054867
0.092397012 0.060794029 0.40545914
0.092742138 0.060784429 0.40537778
0.093087062 0.060774766 0.405296
0.093442246 0.06077186 0.40525919
0.093770534 0.060751542 0.40510625
0.094084255 0.060721979 0.40489164
0.094432265 0.060714684 0.40482548
0.094748572 0.06068714 0.40462428
0.09509629 0.060679849 0.40455806
0.095450938 0.060677011 0.40452155
0.095788777 0.060663559 0.40441418
0.096131809 0.06065347 0.40432924
0.096480466 0.060647003 0.40426841
0.096838191 0.060646262 0.40424567
0.097199716 0.060647894 0.40423873
0.097537458 0.060634736 0.40413317
0.09788999 0.060630824 0.40408924
0.098254524 0.060634349 0.40409482
0.09860757 0.060630791 0.40405312
0.098948926 0.060620099 0.40396386
0.099315993 0.060625166 0.4039796
0.09967652 0.060626231 0.40396863
0.10002365 0.060619161 0.40390342
0.10037785 0.060616419 0.40386698
0.10074025 0.060618617 0.40386349
0.10109522 0.060616348 0.40383017
0.10145342 0.060616028 0.40380979
0.10178843 0.060601901 0.40369743
0.10211554 0.0605832 0.40355447
0.10247383 0.060583048 0.40353516
0.10914585 0.060307436 0.40132746
0.10947581 0.06029259 0.40120977
0.10979402 0.060271394 0.40104976
0.11011409 0.060251344 0.40089747
0.11045771 0.060244277 0.40083146
0.11079179 0.060232069 0.40073124
0.11111826 0.060215808 0.40060407
0.11142163 0.060187176 0.40039456
0.11173521 0.060164228 0.40022284
0.11202046 0.060126219 0.39995095
0.112342 0.060107864 0.39980978
0.1126934 0.060105551 0.3997753
0.11299826 0.060078509 0.39957634
0.11329968 0.060049817 0.39936635
0.11367063 0.060058031 0.39940184
0.11393624 0.06001072 0.39906806
0.11429708 0.0600137 0.39906865
0.1146448 0.060009796 0.39902353
0.11493143 0.059974033 0.39876649
0.11524108 0.059950467 0.39859059
0.11559615 0.059950609 0.39857227
0.11592515 0.059937265 0.39846429
0.1162729 0.059933666 0.39842108
0.11657757 0.05990795 0.39823082
0.11693196 0.059907865 0.39821097
0.11730488 0.059917253 0.39825401
0.11760255 0.059888247 0.3980419
0.11794877 0.059884071 0.39799479
0.11824347 0.059853848 0.39777455
0.11855026 0.059829902 0.39759603
0.11893906 0.05984737 0.39769268
0.11919738 0.059799258 0.39735362
0.11956284 0.059805043 0.3973726
0.11991396 0.059803624 0.39734372
0.1202218 0.059780706 0.397172
0.12055419 0.059770089 0.397082
0.12090466 0.059768472 0.39705178
0.12130728 0.05979256 0.39719233
0.12157934 0.059752349 0.39690572
0.12201653 0.059793293 0.39715815
0.1283178 0.059597049 0.39548272
0.12864001 0.059582919 0.39536929
0.12874268 0.059467454 0.39458346
0.12905481 0.059449099 0.39444208
0.1293525 0.059424214 0.39425737
0.12972225 0.059432492 0.39429262
0.13006914 0.059430264 0.39425823
0.13040087 0.059421137 0.39417806
0.13074079 0.059415799 0.39412302
0.13113488 0.059435029 0.39423093
0.079719312 0.06164407 0.40931058
0.080071956 0.061636358 0.4092437
0.080420785 0.061625808 0.4091579
0.080766045 0.061612625 0.40905461
0.081102498 0.061592869 0.40890762
0.081483521 0.061606988 0.40898544
0.081811957 0.061581407 0.40879968
0.082158163 0.061569359 0.40870374
0.082510658 0.061562099 0.40863955
0.082876988 0.061565198 0.40864402
0.083218217 0.06154969 0.40852496
0.083535008 0.061516333 0.40828738
0.083909728 0.061525729 0.40833357
0.084233634 0.061497949 0.40813291
0.084565029 0.061475847 0.40796992
0.084903546 0.061459091 0.4078424
0.085271217 0.061463494 0.40785518
0.085585058 0.061429225 0.40761137
0.08593794 0.061423142 0.40755451
0.086297281 0.061421704 0.40752843
0.086650662 0.061416056 0.40747443
0.086979106 0.061392855 0.40730387
0.087307669 0.061369933 0.40713513
0.087668903 0.06137006 0.40711927
0.088032074 0.061371543 0.40711236
0.088342264 0.061336234 0.40686134
0.088684611 0.061323438 0.40675962
0.089031421 0.061313823 0.40667897
0.089362137 0.061293248 0.40652558
0.089710489 0.061284885 0.40645319
0.090065189 0.061280906 0.4064098
0.090400748 0.061263997 0.40628058
0.090741262 0.061250553 0.40617439
0.091100767 0.06124999 0.4061535
0.091414012 0.061218448 0.40592718
0.091738932 0.061194945 0.40575415
0.092089385 0.06118859 0.40569475
0.092420749 0.061169647 0.40555191
0.092776895 0.061167192 0.40551832
0.093141913 0.061170582 0.40552345
0.093474783 0.061152913 0.40538889
0.093827426 0.061148267 0.40534067
0.094166368 0.061134759 0.40523365
0.094458304 0.061090957 0.40492582
0.094782129 0.061068028 0.40475628
0.095158279 0.061078858 0.40481049
0.09546645 0.061046146 0.40457606
0.095827706 0.061047483 0.4045673
0.096190639 0.061049879 0.40456545
0.096508048 0.061023477 0.40437278
0.09690956 0.061050247 0.4045324
0.097197652 0.061005641 0.40421903
0.097567588 0.061012536 0.40424687
0.097889856 0.060989678 0.40407756
0.098236278 0.060981981 0.40400866
0.098592639 0.060980491 0.40398082
0.098932318 0.060968731 0.40388498
0.099297307 0.060972594 0.40389255
0.099657446 0.060973462 0.40388024
0.10000804 0.060968511 0.40382934
0.10036585 0.060967971 0.40380764
0.10073211 0.060972553 0.40381986
0.10106968 0.060959797 0.40371716
0.10142782 0.060959492 0.40369692
0.10177951 0.060955331 0.40365109
0.10211228 0.060939904 0.40353066
0.10245088 0.060928054 0.40343389
0.10278919 0.060916111 0.40333647
0.1031833 0.060937207 0.40345773
0.10348581 0.060904246 0.4032211
0.10379404 0.060874876 0.40300819
0.104137 0.060865998 0.40293095
0.10447297 0.060853105 0.40282711
0.104841 0.060858916 0.40284708
0.10509941 0.060801279 0.40244696
0.10545322 0.060799021 0.40241346
0.10581033 0.060798679 0.4023926
0.10613823 0.06078162 0.40226105
0.10647509 0.060769781 0.40216404
0.10685037 0.060779884 0.40221223
0.10716477 0.060755394 0.40203142
0.10753644 0.060763434 0.40206587
0.10788098 0.060756132 0.40199882
0.10818893 0.060728356 0.40179619
0.10851695 0.060711972 0.401669
0.108842 0.060694054 0.40153161
0.1091661 0.060675722 0.40139145
0.1094455 0.060632735 0.40108824
0.10980857 0.060636241 0.40109253
0.1101445 0.060624775 0.40099773
0.11044617 0.0605946 0.40077922
0.11076929 0.060576342 0.4006395
0.11112312 0.060574949 0.40061128
0.11140991 0.06053713 0.40034214
0.11172485 0.060514797 0.40017545
0.11206754 0.060507584 0.4001087
0.11235628 0.060471389 0.39985031
0.1126964 0.060462993 0.39977571
0.11301424 0.060442727 0.39962262
0.11331614 0.060414091 0.39941415
0.11367322 0.060414959 0.3994008
0.11399081 0.060394906 0.39924905
0.11433781 0.060390498 0.39920077
0.11465849 0.060372263 0.39906105
0.11502438 0.060377881 0.39907894
0.11532775 0.060350738 0.39888033
0.11561717 0.060316488 0.39863473
0.11596686 0.060313798 0.39859769
0.11633543 0.060320903 0.39862537
0.11665633 0.060303327 0.39848992
0.11694291 0.060268167 0.3982383
0.1173236 0.060281582 0.39830762
0.11765175 0.060268007 0.39819857
0.11798558 0.060257401 0.39810917
0.11829364 0.060233731 0.39793342
0.11858219 0.060200319 0.39769331
0.11896761 0.060216121 0.39777833
0.11924003 0.060174804 0.39748603
0.11960215 0.060178872 0.39749348
0.11996707 0.060184311 0.39750996
0.12028772 0.060167592 0.39738008
0.12061037 0.060151946 0.39725733
0.12093057 0.060135186 0.39712718
0.12128161 0.060133815 0.39709863
0.12163451 0.060133364 0.39707619
0.1220475 0.060162548 0.39724937
0.1224417 0.060182322 0.39736041
0.12282781 0.060198013 0.39744446
0.12806702 0.059997626 0.39580825
0.12834132 0.059960857 0.39554605
0.12858924 0.059912004 0.3952041
0.12885126 0.059869956 0.39490718
0.12913159 0.059836634 0.39466771
0.12946357 0.059827343 0.39458683
0.12979434 0.059817567 0.39450273
0.13013434 0.059812065 0.39444685
0.13039342 0.059769511 0.39414662
0.13080133 0.059795227 0.39429656
0.080083497 0.062008031 0.40929058
0.080446906 0.062008616 0.40927872
0.080809213 0.062008344 0.40926114
0.081155837 0.061996095 0.40916446
0.081498191 0.061980706 0.40904704
0.081862032 0.061981723 0.4090378
0.082193159 0.061958078 0.40886578
0.082528971 0.061938144 0.40871823
0.082883336 0.061932258 0.4086633
0.083237432 0.061926216 0.40860733
0.083606683 0.06193145 0.40862569
0.083916828 0.061893046 0.4083561
0.08427754 0.061892107 0.40833372
0.08462929 0.06188463 0.40826803
0.084925048 0.061836444 0.4079338
0.085302159 0.061847653 0.40799132
