# .PCD v0.7 - Point Cloud Data file format
VERSION 0.7
FIELDS x y z
SIZE 4 4 4
TYPE F F F
COUNT 1 1 1
WIDTH 1399
HEIGHT 1
VIEWPOINT 0 0 0 1 0 0 0
POINTS 1399
DATA ascii
0.12824115 0.059799906 0.37419197
0.1285872 0.059805445 0.37420815
0.12880453 0.059751242 0.37385058
0.12910555 0.059736039 0.37373704
0.12943497 0.059734009 0.37370592
0.12973151 0.059716869 0.37358034
0.13006456 0.059716579 0.3735601
0.1303257 0.059683356 0.3733339
0.13068585 0.059695534 0.37339166
0.1309678 0.059672009 0.37322617
0.13122612 0.059637878 0.37299433
0.13158041 0.059647415 0.37303561
0.13185026 0.059618723 0.37283787
0.13216004 0.059608184 0.37275362
0.13249157 0.059607491 0.372731
0.13282719 0.059608631 0.37271982
0.13314596 0.059602227 0.37266147
0.13344088 0.059585206 0.37253675
0.13377959 0.059587754 0.37253442
0.13399476 0.059535418 0.37218896
0.13432747 0.05953544 0.37217084
0.1346987 0.05955248 0.37225917
0.1349836 0.059531365 0.37210894
0.13528936 0.059519522 0.37201676
0.13564549 0.059529867 0.37206319
0.076928005 0.062138341 0.38949826
0.077234484 0.062107176 0.38928798
0.077566639 0.062096845 0.3892082
0.077906907 0.062093064 0.38916948
0.078244813 0.062087443 0.38911921
0.078593686 0.06209055 0.3891235
0.078924045 0.062079053 0.38903627
0.079200976 0.062025815 0.3886874
0.079563163 0.062039517 0.38875803
0.079874463 0.062013596 0.38858029
0.080192357 0.061992988 0.38843581
0.080542393 0.061997302 0.38844749
0.080852084 0.061970651 0.38826504
0.0811866 0.061963174 0.38820273
0.081489824 0.061931983 0.38799182
0.081834458 0.061932389 0.38797879
0.082160652 0.061918892 0.38787866
0.082488969 0.061907109 0.38778922
0.082799993 0.0618825 0.38761935
0.083161473 0.061895639 0.38768595
0.083486788 0.061881863 0.38758388
0.083787382 0.061849955 0.38736826
0.084112331 0.061836209 0.38726634
0.084474921 0.061850145 0.38733771
0.084770627 0.061815195 0.38710287
0.085115299 0.06181607 0.38709244
0.085435972 0.061799597 0.38697326
0.085750364 0.06177872 0.38682652
0.086094476 0.061779343 0.3868143
0.086389273 0.061744705 0.38658136
0.086709104 0.061728168 0.38646168
0.087071747 0.061742123 0.38653284
0.087392271 0.061726216 0.386417
0.087703481 0.061703879 0.38626093
0.088025399 0.061689224 0.38615286
0.088350482 0.061676878 0.38605925
0.088685185 0.061671332 0.38600817
0.08901231 0.061660573 0.3859244
0.089306772 0.061627358 0.38570008
0.089653522 0.061630342 0.38570228
0.089984313 0.06162237 0.38563585
0.090354554 0.061641376 0.38573825
0.090683483 0.061632164 0.38566396
0.091092922 0.061677519 0.38593119
0.091340147 0.061613131 0.38551161
0.121614 0.060494307 0.37683195
0.12184058 0.060439967 0.37647495
0.12213963 0.060421769 0.3763431
0.12235503 0.060362391 0.37595484
0.12268028 0.060357396 0.37590525
0.12297912 0.060339458 0.3757751
0.12333824 0.060351122 0.37582925
0.12358705 0.060308892 0.37554783
0.1238201 0.060259219 0.37522006
0.12419753 0.060279887 0.3753303
0.12453637 0.060281772 0.37532356
0.12488565 0.060288686 0.37534812
0.12514156 0.060250599 0.37509257
0.12546457 0.060244936 0.37503889
0.12578818 0.060239602 0.37498719
0.12610541 0.060231242 0.37491667
0.12645559 0.060238626 0.37494421
0.12673047 0.060210191 0.37474874
0.12696972 0.060165022 0.37444919
0.12729603 0.06016124 0.37440723
0.12764281 0.060167115 0.37442538
0.12795399 0.060156234 0.37433922
0.12828563 0.060155001 0.37431312
0.12861724 0.060153764 0.37428698
0.12891367 0.06013611 0.37415871
0.12920557 0.060116444 0.37401801
0.12954029 0.060116757 0.37400153
0.12982342 0.060093187 0.37383649
0.13013546 0.060083076 0.37375525
0.13046078 0.060079146 0.37371239
0.13069831 0.060034905 0.37341887
0.13101871 0.060028851 0.37336284
0.13135092 0.060028233 0.37334067
0.13166775 0.060020611 0.37327492
0.13196285 0.060003135 0.3731479
0.13221897 0.059968084 0.37291163
0.13260671 0.059992746 0.37304667
0.13284332 0.059949074 0.37275684
0.13319188 0.059956018 0.37278172
0.13350078 0.059945121 0.37269574
0.13378949 0.05992524 0.37255386
0.13409026 0.059910838 0.37244609
0.13439208 0.059896987 0.37234175
0.13467143 0.059873208 0.37217572
0.13510261 0.059916884 0.37242901
0.13533899 0.059874158 0.37214524
0.13573503 0.059902105 0.37230077
0.077261321 0.062474057 0.38941115
0.077605337 0.062473126 0.38939035
0.077942416 0.062466625 0.38933483
0.078269988 0.062452611 0.3892324
0.078621797 0.062457968 0.38925064
0.078938074 0.062435161 0.38909337
0.079258583 0.062415913 0.38895816
0.079603411 0.062415879 0.38894272
0.079926848 0.062399153 0.38882318
0.080250785 0.062382955 0.38870692
0.080541067 0.062340841 0.38842914
0.080890685 0.062344827 0.38843852
0.081202976 0.062320128 0.38826919
0.081549846 0.062322065 0.38826576
0.081871204 0.062304556 0.38814116
0.082194194 0.062288448 0.38802519
0.082526088 0.062279187 0.38795188
0.08284533 0.062260497 0.3878198
0.08319281 0.062263098 0.38782024
0.083517939 0.062249016 0.3877168
0.08384423 0.062235907 0.38761935
0.084173866 0.062225379 0.38753796
0.084511735 0.062221002 0.38749477
0.084839582 0.062209312 0.38740608
0.085117668 0.062161375 0.38709158
0.085485488 0.062179089 0.3871859
0.085819483 0.062172152 0.38712671
0.08612708 0.062146232 0.38694921
0.086458474 0.062137615 0.38687944
0.086769804 0.062114708 0.38672069
0.087093875 0.062101055 0.38661951
0.087404333 0.06207785 0.38645884
0.08773876 0.062071782 0.38640478
0.088060416 0.062056761 0.38629499
0.088377133 0.062038388 0.38616431
0.088716939 0.062036302 0.38613495
0.089051753 0.062030755 0.38608402
0.089363791 0.06200945 0.38593495
0.089692771 0.062000014 0.38585976
0.090047494 0.062008373 0.38589525
0.090371221 0.061995409 0.38579807
0.09071558 0.061996643 0.38578913
0.091093667 0.062020835 0.38592303
0.091472097 0.062045071 0.3860572
0.12174988 0.060898509 0.37724376
0.12192927 0.060820132 0.37673977
0.12217158 0.060773481 0.37643233
0.12246375 0.060751822 0.37627974
0.1227191 0.060712069 0.37601507
0.1230181 0.060694065 0.37588513
0.12337878 0.060706511 0.37594375
0.12364819 0.06067409 0.37572455
0.12392326 0.060644627 0.37552366
0.12423868 0.060635019 0.37544566
0.12462825 0.060661543 0.37559149
0.12493978 0.060650051 0.37550187
0.12517627 0.060602274 0.37518767
0.12551156 0.060602468 0.37517041
0.1258292 0.060594175 0.37510061
0.12615588 0.060590245 0.37505788
0.12647459 0.06058253 0.37499166
0.12677392 0.060565598 0.37486845
0.12702191 0.060524289 0.37459433
0.12739947 0.060544774 0.37470269
0.12771046 0.060533591 0.37461507
0.12798387 0.060504708 0.37441793
0.12829575 0.060494106 0.37433392
0.1285788 0.060470011 0.3741664
0.12895276 0.06048869 0.37426358
0.12930588 0.060497507 0.37429976
0.1295729 0.060466107 0.3740871
0.12981866 0.060424976 0.37381428
0.13016888 0.060432538 0.37384272
0.13047071 0.060417663 0.37373233
0.13076934 0.060401395 0.37361333
0.13109443 0.060397383 0.37357023
0.1313784 0.06037451 0.37341037
0.13170491 0.060371239 0.37337187
0.13197833 0.06034372 0.37318334
0.13232587 0.060350135 0.37320474
0.13262947 0.060336534 0.37310234
0.13298951 0.060348623 0.37315878
0.13322431 0.060303941 0.37286425
0.13350438 0.060279932 0.37269756
0.13381806 0.060271174 0.37262517
0.13412416 0.060259063 0.3725321
0.13448887 0.060273271 0.37260172
0.13477556 0.060252536 0.37245536
0.13507402 0.060237151 0.37234208
0.13544337 0.060253385 0.37242422
0.13578443 0.06025698 0.3724283
0.077290677 0.062843233 0.38954702
0.077638857 0.062845543 0.38954639
0.077956833 0.062823512 0.38939479
0.078296274 0.062818877 0.38935098
0.078638785 0.062816747 0.38932267
0.078974783 0.062809445 0.38926229
0.079308532 0.062800437 0.38919124
0.079645649 0.062794149 0.38913703
0.07996776 0.062776148 0.38901019
0.080277935 0.062748961 0.3888264
0.080593668 0.062726349 0.38867086
0.080950335 0.062735632 0.388713
0.081263669 0.06271141 0.38854745
0.081582069 0.062691286 0.38840723
0.081898734 0.06267 0.38825983
0.082249768 0.062675081 0.38827571
0.082571931 0.062658206 0.38815555
0.082894839 0.06264203 0.38803971
0.083223216 0.062630117 0.38795015
0.083541431 0.062610678 0.38781402
0.083880104 0.06260667 0.38777339
0.084218167 0.062602244 0.38773015
0.084549882 0.062593147 0.38765797
0.084852159 0.062562421 0.38745174
0.085209943 0.06257271 0.38749951
0.085514121 0.062543698 0.38730389
0.085858606 0.062544294 0.38729149
0.086158782 0.062512726 0.38707998
0.086496383 0.062508456 0.38703749
0.086820967 0.062494852 0.38693708
0.087120511 0.062463403 0.38672617
0.08747077 0.062468413 0.38674098
0.087746195 0.062420156 0.38642597
0.088130601 0.062449489 0.38659132
0.088428371 0.062417451 0.38637665
0.088745587 0.062399331 0.38624814
0.089044534 0.062368557 0.38604122
0.089404561 0.062380634 0.38609958
0.089714117 0.062357537 0.38594016
0.09005931 0.062359292 0.3859345
0.090404481 0.062361013 0.38592863
0.091435663 0.062363163 0.38589206
0.12178263 0.061251588 0.37733597
0.12192865 0.061156005 0.37672865
0.12221153 0.061129384 0.37654626
0.12243591 0.061073735 0.37618503
0.1228064 0.061091073 0.37627336
0.12309231 0.061066356 0.37610272
0.12340543 0.061055236 0.37601581
0.12367745 0.061023891 0.37580436
0.12404186 0.061038192 0.37587395
0.12438697 0.061042938 0.37588477
0.12466206 0.061013393 0.37568438
0.12492619 0.060978647 0.37545201
0.12527244 0.060984071 0.37546697
0.12561521 0.060987767 0.37547132
0.12585892 0.060943484 0.37518027
0.1262078 0.060950227 0.37520337
0.12650885 0.060933895 0.37508437
0.12681857 0.060921818 0.37499163
0.12711531 0.060903575 0.37486097
0.1274136 0.060886182 0.37473547
0.12771492 0.060870312 0.37461942
0.12805152 0.060871299 0.37460712
0.12832382 0.060841795 0.37440717
0.12862699 0.060827043 0.37429801
0.12899692 0.060843859 0.37438309
0.12929735 0.060827889 0.37426645
0.12962806 0.060826212 0.37423781
0.12995729 0.060823843 0.37420484
0.13023411 0.060797021 0.37402147
0.1305315 0.060779929 0.373898
0.13082001 0.060758781 0.37374958
0.1311494 0.060756695 0.37371841
0.13143682 0.060735218 0.373568
0.13175057 0.060725976 0.37349287
0.13205622 0.060713079 0.37339523
0.13239728 0.060716458 0.37339774
0.13267751 0.060692009 0.37322912
0.13305198 0.060710683 0.37332568
0.13323379 0.060641576 0.37288249
0.13360493 0.060658772 0.37297001
0.1338729 0.060629159 0.37276968
0.13420545 0.060628861 0.37274966
0.13455418 0.060635857 0.37277451
0.13482298 0.060606901 0.37257826
0.13519165 0.060622852 0.37265819
0.13552839 0.060624447 0.37264985
0.077311374 0.063205585 0.38963914
0.077673405 0.063219115 0.3897076
0.07799089 0.063196428 0.38955271
0.07833802 0.063197851 0.38954645
0.07867346 0.063189887 0.38948223
0.078973264 0.063153483 0.38924271
0.079317473 0.063152753 0.38922301
0.079658397 0.063149422 0.38918725
0.07999713 0.063144401 0.38914102
0.080322415 0.063128844 0.3890298
0.080653951 0.063118324 0.38894957
0.080978803 0.063102663 0.38883772
0.081314035 0.063095197 0.38877627
0.081629798 0.063072756 0.38862249
0.081947349 0.063051887 0.38847834
0.08228866 0.063049383 0.38844734
0.082602672 0.063026071 0.38828811
0.082941428 0.063021757 0.38824591
0.083259225 0.063001618 0.38810614
0.083593346 0.062993959 0.3880432
0.0839151 0.062977068 0.38792336
0.084242821 0.062964775 0.38783181
0.084574945 0.062955864 0.38776106
0.084900565 0.062942207 0.38766104
0.085240223 0.062939003 0.3876254
0.085576579 0.062933415 0.387575
0.085876346 0.06290108 0.3873598
0.086203128 0.062888697 0.38726753
0.086526342 0.062873818 0.38715982
0.086849496 0.062859014 0.38705251
0.087180488 0.062849984 0.38698074
0.0874805 0.062818773 0.38677236
0.087801091 0.062802531 0.38665617
0.088138781 0.062798589 0.3866156
0.088485979 0.062801436 0.3866168
0.08877416 0.062762529 0.38636094
0.089142151 0.062780134 0.38645291
0.089440763 0.062748931 0.38624442
0.089754373 0.062728435 0.38610181
0.090090059 0.062723473 0.38605478
0.090419032 0.062713891 0.38597926
0.090789512 0.062733069 0.38608074
0.091178685 0.062764965 0.38626045
0.091517568 0.062762134 0.38622633
0.12153338 0.061632589 0.37761652
0.12175333 0.061573476 0.37723589
0.12203316 0.061544877 0.37704223
0.12227429 0.061496962 0.37673032
0.12249496 0.061439067 0.37635723
0.12282156 0.061434466 0.37631065
0.12318017 0.061445862 0.376362
0.12347432 0.061425123 0.37621659
0.12374838 0.061394531 0.37601078
0.12404223 0.061373901 0.375866
0.12440282 0.061386313 0.37592357
0.12474275 0.061388489 0.37591848
0.12494415 0.061322667 0.37549701
0.12533849 0.061351631 0.37565598
0.12562482 0.061327711 0.37549108
0.12592483 0.061310582 0.37536779
0.12626226 0.061311718 0.37535638
0.12653714 0.061282553 0.37515941
0.12687278 0.061282888 0.37514308
0.12716052 0.061260141 0.37498546
0.12746002 0.061243176 0.37486318
0.12778571 0.061238833 0.37481827
0.1280816 0.061220292 0.37468636
0.12839194 0.061208721 0.37459719
0.12870771 0.061199792 0.37452418
0.12903596 0.061196834 0.37448773
0.12930427 0.061165534 0.37427783
0.1296494 0.061170638 0.37429073
0.12999618 0.061176497 0.37430823
0.13026866 0.061147444 0.37411216
0.13049839 0.061098531 0.37379459
0.13089496 0.061127771 0.37395516
0.13115823 0.06109478 0.37373501
0.13152471 0.061109908 0.37380931
0.1318125 0.061088488 0.37365997
0.13210341 0.061068628 0.3735202
0.13244058 0.061070185 0.37351149
0.13276315 0.061065029 0.37346166
0.13304147 0.061039593 0.37328789
0.13336024 0.061032791 0.37322804
0.13366455 0.061019428 0.37312812
0.13398898 0.061015297 0.37308466
0.13427061 0.060991738 0.37292242
0.13456064 0.060972098 0.37278417
0.13490401 0.060976673 0.37279397
0.13519011 0.060955398 0.37264577
0.13558657 0.060983874 0.37280169
0.13587718 0.060964715 0.37266645
0.077387527 0.063613698 0.39001065
0.077735923 0.063615866 0.39000902
0.0780527 0.063592248 0.38984919
0.078385644 0.063581958 0.38977101
0.078701586 0.063558027 0.38960922
0.079016112 0.063533165 0.3894417
0.079352356 0.063525908 0.38938206
0.079682074 0.063513517 0.38929084
0.080033652 0.063518569 0.38930652
0.080343477 0.063490584 0.38911971
0.080685914 0.063488506 0.38909158
0.081020534 0.063480318 0.38902605
0.081325211 0.063448846 0.3888177
0.081656113 0.063437998 0.38873574
0.081998497 0.063436136 0.3887088
0.082332902 0.063428134 0.38864419
0.082646467 0.063404217 0.38848203
0.082957678 0.063378699 0.38831005
0.083303861 0.063380003 0.3883023
0.083622724 0.063360587 0.38816762
0.083935902 0.063337043 0.38800764
0.084292278 0.063346155 0.38804764
0.084599443 0.063318364 0.38786155
0.084949598 0.063322842 0.38787308
0.085271612 0.063306384 0.38775635
0.085563041 0.063267447 0.3875019
0.085918881 0.063276261 0.38753989
0.086247735 0.063265204 0.38745612
0.086558759 0.063241221 0.38729313
0.086910337 0.063246928 0.38731197
0.087259538 0.06325087 0.38731992
0.087526299 0.063195258 0.38696319
0.087887265 0.063207835 0.38702396
0.088164374 0.063160233 0.38671625
0.088519789 0.063168883 0.3867529
0.088842899 0.063154489 0.38664848
0.089132674 0.063116625 0.38640025
0.089475766 0.063116647 0.38638398
0.089799926 0.06310337 0.38628623
0.090146728 0.063106038 0.38628608
0.090473153 0.063094482 0.38619882
0.090791956 0.063077711 0.38607961
0.091193013 0.063118003 0.38630962
0.12153105 0.061968341 0.37759992
0.12181626 0.061942082 0.37742147
0.12206513 0.061897546 0.37713167
0.12233968 0.061866242 0.37692255
0.12255885 0.061807174 0.37654427
0.12287328 0.061796337 0.37645987
0.12320635 0.061794911 0.37643278
0.12351615 0.061781857 0.37633485
0.12380336 0.061757598 0.37616867
0.12413779 0.061756968 0.37614644
0.12444715 0.0617439 0.37604845
0.12474719 0.061726283 0.37592277
0.12498506 0.061678097 0.37561086
0.12538092 0.06170791 0.37577406
0.12567368 0.061686967 0.37562811
0.12596524 0.061665546 0.37547928
0.12631519 0.061672736 0.3755047
0.12663686 0.061666131 0.37544608
0.12685774 0.061610606 0.37508968
0.12721662 0.061622225 0.37514201
0.1274896 0.061592273 0.37494132
0.12784161 0.061600558 0.37497339
0.1281216 0.061574195 0.37479454
0.12842302 0.061558235 0.37467906
0.12874331 0.061551385 0.37461898
0.12911215 0.061567716 0.37470007
0.12939504 0.061543092 0.37453187
0.12966366 0.061511815 0.37432322
0.13005866 0.061540503 0.37447947
0.13025407 0.061474841 0.37406161
0.13065399 0.061505798 0.37423167
0.13093469 0.061480608 0.37406009
0.13120735 0.061451789 0.37386647
0.13154976 0.061455697 0.37387195
0.13189051 0.061458807 0.37387261
0.13217552 0.061436005 0.37371564
0.13246422 0.061415013 0.37356973
0.13282408 0.061427046 0.37362465
0.13311814 0.06140865 0.37349457
0.13341357 0.061390996 0.37336895
0.13369153 0.061365396 0.37319511
0.13401708 0.061361719 0.37315455
0.13429913 0.061338205 0.37299335
0.13464189 0.061342452 0.37300104
0.13496381 0.061337203 0.372951
0.13530025 0.061338577 0.3729412
0.1357114 0.061373718 0.37313673
0.077435434 0.063999154 0.39023975
0.077728637 0.063955747 0.38996014
0.078054458 0.063939437 0.3898457
0.078394249 0.063934669 0.38980156
0.078763612 0.063953951 0.38990405
0.07904534 0.063902229 0.38957354
0.079392649 0.063903727 0.38956752
0.079723567 0.063892081 0.38948131
0.080061972 0.063886516 0.38943213
0.080395147 0.063876845 0.38935784
0.080700807 0.063845463 0.38915128
0.08106146 0.063857697 0.38921043
0.08138518 0.063840851 0.3890923
0.081691451 0.063810512 0.38889191
0.082036838 0.063810855 0.38887843
0.082343638 0.063781306 0.38868284
0.082681105 0.063775659 0.3886328
0.083004944 0.063759588 0.38851926
0.083328493 0.063743427 0.38840508
0.08366479 0.063737109 0.3883509
0.083987117 0.063720256 0.38823241
0.084283605 0.063684009 0.38799578
0.084617116 0.063675918 0.38793063
0.084942013 0.063661441 0.38782653
0.085309565 0.063678913 0.38791704
0.085634895 0.063664846 0.38781545
0.085949205 0.06364274 0.38766479
0.086292945 0.063642524 0.38764739
0.086617239 0.063628018 0.38754296
0.086895585 0.063579999 0.38723445
0.087270804 0.063602969 0.38735816
0.087588131 0.063583739 0.38722482
0.087890208 0.063553609 0.38702515
0.088224627 0.06354703 0.38696882
0.088537306 0.063524902 0.38681775
0.088861808 0.063511387 0.38671911
0.089210436 0.063515149 0.38672566
0.089546256 0.063509807 0.38667676
0.089884885 0.063506484 0.38664007
0.090184636 0.063475832 0.38643694
0.090516329 0.063467793 0.38637152
0.090840682 0.063454695 0.38627526
0.091196887 0.063463867 0.38631448
0.091529496 0.06345661 0.38625368
0.091952153 0.063511603 0.38657171
0.12159412 0.062337607 0.37778643
0.12188788 0.062315494 0.37763399
0.12204163 0.062222112 0.37704971
0.1223763 0.062221229 0.37702599
0.12268919 0.062209316 0.37693542
0.12291943 0.062155675 0.37659201
0.12327 0.062162999 0.37661797
0.12354349 0.062131528 0.37640893
0.12387419 0.062128909 0.37637469
0.12416936 0.062108543 0.37623292
0.12449622 0.062104084 0.37618753
0.12480727 0.062091798 0.3760947
0.12511152 0.062076196 0.37598184
0.12540306 0.062054384 0.37583137
0.12573837 0.062054291 0.37581241
0.12605357 0.062044308 0.37573355
0.12638544 0.062042553 0.37570456
0.12665951 0.062012505 0.37550426
0.1270387 0.062033955 0.37561575
0.12726976 0.061983149 0.37528974
0.1275551 0.061958976 0.37512502
0.12796138 0.061993524 0.37531582
0.12823094 0.061961815 0.37510553
0.12855643 0.061957229 0.37505946
0.12884924 0.061936971 0.37491846
0.12913269 0.061912328 0.37475094
0.12946849 0.061912838 0.37473571
0.12970975 0.061868243 0.37444752
0.13007642 0.061883561 0.37452188
0.13038668 0.061872013 0.37443376
0.13065507 0.06184072 0.37422606
0.13097084 0.061831962 0.37415478
0.13127311 0.061816871 0.37404522
0.13160476 0.061815679 0.37401971
0.13196956 0.061830007 0.37408817
0.13217613 0.06177032 0.37370884
0.13259594 0.061810344 0.37393275
0.1328156 0.061757084 0.37359232
0.13312134 0.061744023 0.37349513
0.13347203 0.061751839 0.37352416
0.13379861 0.061748471 0.37348562
0.13406336 0.061716672 0.3732751
0.1343911 0.061713945 0.37324044
0.13472095 0.061712194 0.37321174
0.13503793 0.061704576 0.37314755
0.13539435 0.061714977 0.37319231
0.13572913 0.061715491 0.37317732
0.07741046 0.064324468 0.39010152
0.077777676 0.064342149 0.39019379
0.078127682 0.064345494 0.39019907
0.078450382 0.064326413 0.39006835
0.078781791 0.064314619 0.38998172
0.079107985 0.064298689 0.38986999
0.079449013 0.064294897 0.38983181
0.079768591 0.064273857 0.38968903
0.080089219 0.064253837 0.38955238
0.080421768 0.064243518 0.38947451
0.080744177 0.064225219 0.38934824
0.081077978 0.064216092 0.38927755
0.081446454 0.064234391 0.38937303
0.08171653 0.064175263 0.38899913
0.082056761 0.064171493 0.38896078
0.082368597 0.06414564 0.38878855
0.082726181 0.064155482 0.3888326
0.083047576 0.064137295 0.38870671
0.083387345 0.064133391 0.38866735
0.083715566 0.064120665 0.38857457
0.084020786 0.064090505 0.388376
0.08434128 0.064072199 0.38824928
0.084695734 0.064079724 0.38827908
0.084993772 0.064044692 0.38805091
0.085325643 0.064035326 0.38797826
0.085676715 0.064040378 0.38799289
0.085995547 0.064021394 0.38786191
0.086305812 0.063996211 0.38769329
0.086616509 0.063971549 0.38752782
0.086967491 0.063976713 0.38754302
0.087285481 0.063957661 0.3874115
0.087621778 0.063952133 0.38736179
0.087936357 0.063930839 0.38721663
0.088251278 0.063909963 0.3870739
0.088606596 0.063918389 0.38710871
0.088916801 0.063894346 0.38694671
0.089238904 0.063878991 0.38683739
0.089573927 0.063872978 0.38678455
0.089902915 0.063862711 0.38670596
0.090225324 0.06384787 0.38659963
0.090557903 0.063840307 0.38653734
0.090910882 0.063847139 0.38656217
0.091251843 0.063845508 0.3865357
0.091588706 0.06384103 0.38649198
0.09197174 0.063868642 0.38664252
0.092343204 0.063888043 0.38674325
0.1212574 0.062674865 0.37779629
0.12154252 0.062648118 0.37761667
0.12188214 0.062649526 0.37760678
0.12211436 0.062595874 0.37726501
0.12240499 0.062572375 0.377105
0.1227229 0.062562913 0.37702963
0.12304121 0.062553696 0.37695572
0.12332983 0.062529497 0.37679148
0.12356536 0.062478568 0.37646624
0.12390205 0.062478937 0.37645009
0.12422471 0.062472247 0.37639138
0.12455465 0.062469233 0.3763549
0.12481262 0.062430244 0.37610161
0.12513819 0.062425185 0.3760528
0.12544735 0.062411986 0.37595493
0.12573454 0.062387966 0.37579188
0.12610942 0.062407471 0.37589097
0.12643591 0.062402979 0.37584555
0.12673196 0.062383525 0.37571004
0.12706913 0.062384371 0.37569675
0.12734494 0.062355153 0.37550247
0.12766798 0.062349156 0.37544802
0.12790515 0.062301368 0.37514195
0.12827466 0.062318131 0.37522456
0.1285954 0.062311169 0.37516427
0.12890065 0.062296756 0.37505922
0.12914774 0.062254377 0.37478578
0.12944552 0.062236607 0.37466046
0.12981461 0.06225311 0.37474152
0.13014638 0.062251676 0.37471461
0.13048702 0.062254488 0.37471324
0.13076109 0.062225599 0.37452108
0.13100527 0.06218268 0.37424451
0.13135406 0.062189493 0.37426728
0.1316769 0.062184028 0.37421614
0.13194916 0.062154759 0.37402177
0.13231823 0.062171116 0.374102
0.13254389 0.062120188 0.37377733
0.13285203 0.062108088 0.37368634
0.13320614 0.062117472 0.37372461
0.13352036 0.06210826 0.373651
0.13380569 0.062085677 0.37349698
0.13417287 0.062101096 0.3735716
0.13444892 0.062074363 0.37339264
0.13474393 0.062056504 0.37326705
0.13508299 0.062058963 0.37326378
0.13540974 0.062055767 0.37322643
0.13577442 0.062069923 0.37329349
0.13610339 0.062067728 0.37326223
0.077457212 0.064709492 0.39032471
0.077788144 0.064696915 0.39023387
0.078126729 0.064690784 0.39018193
0.078479953 0.064696759 0.39020297
0.078801028 0.064676315 0.39006457
0.079139955 0.06467063 0.39001516
0.079465516 0.064654119 0.38990045
0.079794496 0.064640529 0.38980326
0.080127336 0.064630166 0.38972551
0.080468811 0.06462682 0.38969007
0.080795221 0.064611465 0.3895821
0.081106059 0.064583831 0.38940012
0.081427805 0.064565077 0.38927165
0.081765309 0.064558938 0.38921914
0.082098529 0.064549468 0.38914654
0.082431868 0.064540178 0.38907501
0.082738779 0.064510368 0.38887966
0.083080061 0.064507477 0.38884664
0.08342316 0.064506017 0.38882217
0.083746791 0.064489588 0.3887074
0.084060177 0.064465426 0.38854605
0.084402621 0.064463653 0.38851959
0.084717073 0.064440608 0.38836488
0.08502952 0.06441623 0.3882021
0.085368142 0.064411797 0.38815948
0.085700862 0.064402968 0.38809031
0.086037211 0.06439691 0.38803783
0.086364441 0.064384118 0.38794473
0.08668194 0.064364202 0.38780865
0.08699359 0.064340107 0.38764742
0.087318912 0.064326279 0.38754794
0.08764194 0.064310886 0.38743901
0.087980516 0.06430696 0.3873992
0.088276841 0.064272314 0.38717422
0.088638559 0.06428536 0.38723654
0.088929303 0.064247034 0.38698936
0.089279748 0.064251959 0.38700268
0.089598037 0.064233795 0.38687688
0.089914247 0.064214289 0.38674298
0.090270445 0.064223379 0.38678128
0.090581708 0.06420055 0.38662732
0.090907857 0.064188406 0.38653764
0.091284096 0.064211585 0.38666067
0.091607213 0.064197361 0.38655844
0.091983981 0.064220712 0.38668233
0.092322722 0.064217441 0.38664594
0.12142725 0.063100241 0.37831599
0.12166619 0.063049167 0.37799138
0.12195983 0.063026644 0.37783799
0.12211444 0.062932596 0.37725583
0.12241794 0.062915586 0.37713549
0.12276018 0.062918529 0.37713477
0.12305991 0.062899716 0.37700367
0.12333635 0.062869139 0.37680203
0.12372648 0.062896527 0.37694782
0.12388909 0.062808424 0.37640142
0.12434042 0.062866762 0.37673271
0.1246232 0.062839799 0.37655276
0.12488924 0.062804565 0.37632328
0.12520838 0.062796153 0.37625453
0.1255542 0.06280113 0.376266
0.12581743 0.062764876 0.37603045
0.12615091 0.062763773 0.37600547
0.1264713 0.062756173 0.37594166
0.12679547 0.062750489 0.37588924
0.12712185 0.062745936 0.37584358
0.12742789 0.06273137 0.37573802
0.12773567 0.062717751 0.37563816
0.12802663 0.062695973 0.37548935
0.12831856 0.062674761 0.37534404
0.12862219 0.062659368 0.37523353
0.1289646 0.062662907 0.37523642
0.12920727 0.062618077 0.37494969
0.12955564 0.062624581 0.37497035
0.12989987 0.062629052 0.37497881
0.13016297 0.062594481 0.37475356
0.13050127 0.062596157 0.37474537
0.13084775 0.062601753 0.37476057
0.13111696 0.06257043 0.37455481
0.13143519 0.0625626 0.37448975
0.13171925 0.062538594 0.37432781
0.13201548 0.062520482 0.37420118
0.13234849 0.062519819 0.37417901
0.13267922 0.06251809 0.37415048
0.13295522 0.062490653 0.37396806
0.13326384 0.062478635 0.37387797
0.13359661 0.062477976 0.37385589
0.13388364 0.062455982 0.3737061
0.1342382 0.062465522 0.37374508
0.13447313 0.062419482 0.3734515
0.13485011 0.062439445 0.37355283
0.13520153 0.062447503 0.37358296
0.13545635 0.062411025 0.37334663
0.13575558 0.062395129 0.37323347
0.077849962 0.065094702 0.39053148
0.078171648 0.065074235 0.39039373
0.078510024 0.06506779 0.39034003
0.078831151 0.065047175 0.39020127
0.079182014 0.065051146 0.39021003
0.079522014 0.065046214 0.39016524
0.079839207 0.065022752 0.39000931
0.080200657 0.065035373 0.39006975
0.080499694 0.064997487 0.38982728
0.080825597 0.064981535 0.38971627
0.081162155 0.064974241 0.38965714
0.0814787 0.064951047 0.38950264
0.081806481 0.064936981 0.38940284
0.08212626 0.064916708 0.38926578
0.082480349 0.064923607 0.38929158
0.082799502 0.064903058 0.38915282
0.083116725 0.064881191 0.38900605
0.08345636 0.064876914 0.38896474
0.083781049 0.064861104 0.38885427
0.084112599 0.064850718 0.38877624
0.08445479 0.064848572 0.38874763
0.084767051 0.06482356 0.38858187
0.085088819 0.064805999 0.38846076
0.085422613 0.064797692 0.38839507
0.085734017 0.064772546 0.38822839
0.086065285 0.064762548 0.38815251
0.086370304 0.064732954 0.38795909
0.086718857 0.064736091 0.38796186
0.087042712 0.064720832 0.38785434
0.087353922 0.064696342 0.38769144
0.087659597 0.064667955 0.38750514
0.08802142 0.064681046 0.38756743
0.08832974 0.064654872 0.38739437
0.088676699 0.064657077 0.3873913
0.088983051 0.064629771 0.38721138
0.089341179 0.064640135 0.38725713
0.089632638 0.06460236 0.38701451
0.089959681 0.064590432 0.38692659
0.090288661 0.064579979 0.38684756
0.090614632 0.064567469 0.38675609
0.090942472 0.064556375 0.38667312
0.091270208 0.064545281 0.38659012
0.091652818 0.06457293 0.38673916
0.091996625 0.064573154 0.38672385
0.092365704 0.064591028 0.38681427
0.092724338 0.064601503 0.38686025
0.093141645 0.064652629 0.38714966
0.12111357 0.063450292 0.37839913
0.12146503 0.063457556 0.37842408
0.12172256 0.063415833 0.37815696
0.12191965 0.063342951 0.37770396
0.12212916 0.063276902 0.3772918
0.12242691 0.063256815 0.37715369
0.12277079 0.063260593 0.3771579
0.12311092 0.06326244 0.37715054
0.12343097 0.063253969 0.37708172
0.12370236 0.063220687 0.37686497
0.12400325 0.06320262 0.37673894
0.12434811 0.063207 0.37674668
0.12464037 0.063184679 0.37659535
0.12497631 0.063184582 0.37657639
0.12531593 0.06318634 0.37656853
0.12562002 0.06317021 0.37645406
0.12588973 0.06313692 0.37623736
0.12618846 0.063118339 0.37610829
0.1264866 0.063099556 0.37597802
0.12688275 0.063129634 0.37613893
0.127161 0.063101038 0.37595022
0.12741822 0.063062191 0.37570047
0.12776542 0.063067965 0.3757166
0.12805752 0.063046589 0.37557092
0.12834544 0.063023262 0.37541366
0.12868427 0.06302499 0.37540567
0.12897676 0.063004084 0.37526289
0.12934542 0.063020386 0.37534168
0.12960735 0.062984735 0.3751111
0.12992452 0.062976055 0.37504113
0.13016132 0.062928565 0.37474006
0.13058041 0.0629692 0.37496385
0.13086195 0.062943496 0.37479249
0.13113743 0.062915005 0.37460461
0.13147417 0.062915966 0.37459213
0.13182122 0.062921852 0.37460893
0.1320278 0.062860824 0.3742274
0.13239974 0.062878631 0.37431523
0.13272105 0.062872373 0.37425983
0.13301343 0.062852465 0.37412319
0.13332503 0.062841721 0.37404108
0.13365811 0.062841132 0.37401944
0.13394086 0.062816948 0.37385735
0.13425127 0.062805817 0.37377298
0.13460431 0.062814631 0.37380734
0.13489436 0.062794097 0.37366703
0.13525887 0.062808216 0.37373301
0.13553812 0.062782787 0.37356359
0.1359027 0.062796906 0.37362957
0.077864714 0.065453477 0.39059296
0.07819093 0.065436646 0.39047754
0.078542128 0.065440781 0.39048719
0.078893796 0.065445259 0.39049885
0.079213187 0.065423042 0.39035121
0.079532206 0.06540072 0.39020282
0.079871342 0.06539505 0.3901538
0.080202177 0.065382674 0.39006475
0.080546655 0.065381467 0.39004228
0.080857515 0.065353103 0.38985774
0.081182048 0.065335982 0.38974026
0.081524819 0.065333627 0.38971078
0.081839524 0.065308891 0.38954782
0.082183227 0.065307409 0.38952351
0.082496278 0.065281682 0.38935453
0.082807705 0.065254889 0.38917914
0.083167084 0.065265946 0.38922951
0.083479159 0.065239944 0.38905877
0.083830245 0.065244526 0.38907036
0.084165774 0.065237008 0.3890098
0.084465809 0.065202154 0.3887862
0.084794141 0.065189332 0.38869393
0.085118808 0.065173797 0.38858551
0.085448883 0.065162532 0.38850242
0.085773639 0.06514731 0.38839573
0.086067423 0.065108784 0.38815007
0.086444326 0.065133177 0.3882795
0.086791024 0.065134712 0.38827264
0.087062977 0.065080382 0.38793269
0.087431349 0.065098248 0.38802308
0.087709367 0.06504897 0.38771319
0.088029288 0.065031037 0.38759011
0.088357493 0.065019339 0.38750416
0.088703595 0.065020844 0.38749689
0.08900997 0.064993337 0.38731664
0.089376092 0.06500949 0.38739657
0.089725181 0.065013185 0.38740224
0.090029389 0.064984448 0.3872146
0.090322569 0.064948007 0.38698101
0.090670943 0.064951375 0.38698462
0.090973042 0.064921699 0.38679129
0.091318138 0.064922817 0.38678139
0.091659352 0.06492117 0.38675505
0.092012919 0.064928256 0.38678062
0.0924064 0.064963348 0.38697299
0.09277682 0.064982027 0.38706753
0.093171515 0.065017499 0.38726214
0.12110975 0.063785926 0.37837756
0.12147421 0.063800052 0.37844303
0.12170433 0.06374374 0.37809071
0.12192018 0.063680299 0.37769604
0.12222618 0.063664161 0.37758201
0.12255055 0.063657649 0.37752506
0.12288729 0.063657582 0.37750632
0.1231558 0.063622259 0.37727854
0.12343928 0.063594855 0.3770977
0.12377448 0.06359417 0.37707528
0.12408689 0.063581809 0.37698367
0.12442642 0.063583359 0.37697458
0.12470036 0.0635515 0.37676734
0.12501551 0.063540734 0.3766852
0.12535274 0.063541226 0.37666979
0.12568012 0.063536748 0.37662491
0.12590754 0.063481882 0.37628141
0.12625647 0.063488409 0.3763018
0.12656312 0.063473694 0.37619627
0.12689239 0.063470386 0.37615833
0.12716076 0.063436702 0.37594041
0.12750787 0.063442379 0.37595573
0.12782091 0.063431121 0.37587073
0.12812795 0.063416936 0.37576839
0.12841104 0.063391022 0.37559655
0.12873268 0.063384205 0.37553793
0.12905297 0.063376777 0.37547562
0.12934718 0.063356601 0.37533784
0.1296884 0.063359506 0.3753368
0.12997995 0.06333819 0.37519225
0.13025832 0.063310571 0.37501043
0.13059674 0.06331221 0.37500194
0.13093948 0.063315935 0.37500575
0.13129032 0.063323528 0.37503254
0.13155647 0.063290365 0.37481788
0.13188389 0.063286752 0.37477833
0.13213255 0.06324546 0.37451559
0.13246404 0.06324394 0.37448841
0.13270764 0.063200548 0.37421337
0.13309352 0.063224979 0.37433985
0.13334127 0.063183822 0.37407807
0.13369349 0.063192263 0.37410989
0.13399662 0.063177519 0.37400448
0.13433903 0.063181311 0.37400886
0.13464171 0.063166447 0.37390277
0.13496961 0.063163452 0.37386698
0.13529558 0.063159585 0.37382603
0.13556632 0.063130021 0.373633
0.13595091 0.063153476 0.37375376
0.078193709 0.065785334 0.39047882
0.078579739 0.065818653 0.39066157
0.078904271 0.065800391 0.39053816
0.079242922 0.065794006 0.39048517
0.079584643 0.065790221 0.39044753
0.079907596 0.065771021 0.39031842
0.080242693 0.065761939 0.39024931
0.080578864 0.06575381 0.3901858
0.080917962 0.065748125 0.39013672
0.081230387 0.065720916 0.3899599
0.081560813 0.065708436 0.38987049
0.081891596 0.065696336 0.38978326
0.082192719 0.065660663 0.38955608
0.082535252 0.065658219 0.38952613
0.082884409 0.065661043 0.38952732
0.08321023 0.065645441 0.38941911
0.083535507 0.065629534 0.38930911
0.083836764 0.065594956 0.38908836
0.084159128 0.06557712 0.38896683
0.084509976 0.065581538 0.38897723
0.084847666 0.065575734 0.38892704
0.085160613 0.065550946 0.3887642
0.085489213 0.065538354 0.38867357
0.085809484 0.065519512 0.3885459
0.086141385 0.065509647 0.38847145
0.08648517 0.065508857 0.38845083
0.086791441 0.0654798 0.38826245
0.087110594 0.06546063 0.38813275
0.087438636 0.065448269 0.38804337
0.087767944 0.065436952 0.38796008
0.088092357 0.06542208 0.38785577
0.08842124 0.065410636 0.38777173
0.088748865 0.065398358 0.38768265
0.089061752 0.065375358 0.38753
0.089411795 0.065379694 0.38753942
0.089725405 0.065357469 0.38739127
0.090057455 0.065348789 0.38732347
0.090380393 0.065333582 0.3872169
0.090701371 0.065317087 0.38710266
0.091010652 0.065292314 0.38693935
0.09136194 0.06529776 0.38695511
0.091694504 0.065289825 0.38689154
0.092058614 0.065304346 0.38696092
0.092429161 0.065323286 0.38705656
0.092765905 0.065318294 0.38701025
0.093152806 0.065348528 0.38717267
0.12081712 0.064147405 0.37852693
0.12123768 0.064191282 0.37876755
0.12149744 0.064150035 0.37850577
0.12169591 0.064076729 0.37805492
0.12199093 0.064054526 0.37790564
0.12219066 0.063982546 0.37746269
0.12259271 0.064016618 0.37764537
0.12291494 0.064008936 0.37758172
0.12316858 0.063965671 0.37730819
0.12356143 0.063994743 0.3774614
0.12386765 0.063978903 0.37734967
0.12416144 0.06395676 0.37720075
0.12440854 0.063910745 0.37691104
0.12472999 0.063903071 0.37684748
0.12507103 0.063905433 0.37684315
0.12535106 0.063876711 0.37665546
0.1257257 0.063896224 0.3767522
0.12602305 0.06387645 0.37661734
0.12634508 0.063869275 0.37655666
0.1266429 0.063849896 0.37642416
0.12688638 0.063803323 0.37613133
0.12724519 0.063814834 0.37618089
0.12757312 0.063810833 0.37613901
0.1279342 0.063823394 0.37619478
0.12820697 0.063791938 0.37599108
0.12839732 0.063719742 0.37554732
0.12880756 0.063756786 0.37574738
0.12905902 0.063715227 0.37548423
0.12941831 0.063726999 0.37553537
0.1297162 0.063708529 0.37540829
0.13004129 0.0637035 0.3753604
0.13034971 0.063690349 0.37526467
0.13064617 0.063671418 0.37513497
0.13098656 0.063673958 0.37513173
0.13130404 0.063665375 0.37506297
0.13158774 0.06364049 0.37489817
0.13191178 0.0636352 0.37484881
0.13219634 0.063610934 0.37468767
0.13254566 0.063617878 0.37471044
0.13282849 0.063592955 0.37454551
0.1331389 0.063581318 0.37445882
0.1334819 0.063585266 0.37446398
0.13373436 0.063546173 0.37421566
0.13410275 0.063562229 0.37429211
0.13437195 0.063531302 0.37409192
0.1347055 0.063530885 0.37407142
0.13498035 0.063502848 0.37388828
0.13530552 0.063498572 0.37384507
0.13566363 0.063509732 0.37389272
0.13603882 0.063528813 0.37398702
0.078263998 0.066191137 0.3908172
0.078604139 0.066185735 0.39077026
0.078957461 0.06619142 0.39078879
0.079258651 0.066153549 0.39055011
0.079630345 0.066174589 0.39065921
0.079951175 0.066153362 0.3905187
0.080271222 0.066131681 0.39037552
0.080598101 0.066115782 0.39026642
0.08093857 0.066111125 0.39022356
0.081286438 0.066112526 0.3902165
0.08158844 0.06607677 0.38999006
0.081929602 0.066072889 0.38995177
0.082228921 0.066035442 0.38971528
0.082562171 0.066025443 0.38964075
0.082906276 0.066024169 0.38961768
0.083246574 0.066019893 0.38957682
0.083584949 0.066014118 0.38952717
0.08387778 0.065972589 0.3892664
0.084208257 0.065960877 0.38918158
0.084513277 0.065929398 0.38898012
0.084845074 0.065918982 0.3889029
0.085197233 0.065924414 0.38891909
0.085510835 0.06590008 0.38875967
0.085857473 0.065901309 0.38875097
0.086182743 0.065886177 0.38864577
0.086504892 0.065868787 0.38852724
0.086843535 0.065864056 0.38848335
0.087167591 0.065848351 0.38837457
0.087497428 0.065837108 0.38829216
0.087800227 0.065805681 0.3880907
0.088117369 0.065785214 0.38795385
0.088483036 0.065800995 0.38803068
0.088801153 0.065781422 0.38789904
0.089130178 0.06577006 0.38781574
0.089452766 0.065754041 0.38770503
0.089787498 0.065747038 0.38764736
0.090107471 0.065729335 0.38752654
0.090439394 0.065720446 0.38745773
0.090739176 0.065688357 0.38725206
0.091059253 0.065671138 0.3871341
0.09139584 0.065665916 0.38708681
0.091747835 0.065671757 0.38710472
0.092083678 0.06566605 0.38705444
0.092459626 0.065688871 0.38717231
0.092779167 0.065671593 0.38705379
0.093171678 0.065705895 0.38723928
0.093549311 0.065729499 0.38736165
0.12089829 0.064528488 0.37877148
0.12124456 0.064532936 0.37877929
0.12149893 0.06448859 0.37850067
0.12179828 0.064468302 0.37836328
0.12203471 0.064414896 0.37803158
0.12232132 0.064388216 0.3778567
0.12262141 0.064368747 0.37772417
0.12291593 0.064346477 0.37757519
0.12323797 0.064338699 0.37751126
0.1236169 0.064360574 0.37762129
0.12391338 0.064339526 0.37747952
0.12422366 0.064325728 0.37738028
0.12448322 0.064285822 0.37712786
0.12480556 0.064278461 0.37706637
0.12512375 0.064269006 0.37699261
0.12544151 0.064259388 0.3769179
0.12577371 0.064257197 0.37688679
0.12606871 0.064236045 0.37674448
0.12631814 0.06419187 0.37646708
0.12668458 0.064207219 0.37653884
0.12697633 0.06418474 0.37638873
0.12730013 0.064178541 0.3763341
0.12761866 0.064169705 0.37626407
0.12795205 0.064168386 0.37623808
0.12825629 0.064152494 0.37612662
0.12855175 0.064132303 0.37599
0.12885228 0.064114735 0.37586871
0.12918772 0.064114586 0.37584963
0.12942626 0.06406647 0.37554935
0.12980799 0.064089306 0.37566501
0.13008457 0.064060241 0.37547642
0.13040301 0.064051881 0.37540922
0.13068937 0.064027838 0.37525013
0.13103491 0.064032853 0.37526134
0.13135234 0.064024143 0.37519208
0.13160971 0.063986257 0.37495193
0.13196379 0.063995481 0.37498778
0.1323397 0.06401521 0.37508529
0.13258161 0.063970178 0.37480327
0.13290019 0.063962288 0.37473896
0.1332188 0.06395445 0.37467486
0.13350408 0.06393069 0.37451756
0.13376616 0.063895963 0.37429604
0.13412936 0.063909583 0.37435779
0.13441935 0.063888349 0.37421533
0.13481629 0.063917927 0.37437052
0.13510738 0.063897297 0.37423164
0.13540652 0.063880563 0.37411565
0.13574196 0.063880995 0.37410012
0.078270271 0.066543147 0.39083582
0.078629002 0.066553421 0.39088115
0.078979708 0.066556841 0.39088619
0.079319283 0.066550896 0.39083621
0.079661459 0.06654717 0.39079922
0.079986297 0.066529058 0.39067766
0.080331333 0.066527821 0.39065522
0.080619529 0.066479743 0.39035761
0.080980986 0.066492207 0.39041555
0.081304401 0.066473469 0.39029017
0.081639968 0.066464789 0.3902238
0.081973687 0.066454679 0.39014906
0.082267448 0.066412397 0.38988537
0.082603343 0.06640435 0.38982257
0.082930535 0.066389389 0.38971925
0.083259299 0.066375814 0.38962397
0.083587609 0.066361994 0.3895272
0.08394143 0.066368446 0.3895494
0.084245548 0.066335708 0.38934156
0.08456587 0.066315956 0.38920987
0.084911279 0.066315949 0.38919404
0.085242234 0.066304706 0.3891122
0.085543379 0.066270448 0.38889536
0.085864045 0.066251531 0.38876843
0.086235672 0.066271931 0.38887224
0.086544402 0.066244029 0.3886925
0.086849794 0.066213802 0.38849911
0.087206572 0.066222824 0.38853604
0.087533437 0.06620916 0.38843977
0.087887906 0.066216402 0.38846612
0.088197045 0.066189557 0.38829252
0.088521115 0.066174105 0.38818559
0.088812061 0.06613408 0.3879346
0.089165941 0.066141061 0.38795927
0.08948037 0.066118836 0.38781258
0.089809164 0.066107355 0.3877289
0.090151802 0.066106111 0.38770524
0.090473168 0.066089325 0.38759044
0.090754077 0.066043243 0.38730371
0.091119185 0.066058546 0.38737699
0.091422722 0.066029258 0.38718876
0.091790967 0.066046759 0.3872748
0.092119299 0.066035524 0.38719228
0.092472844 0.066042356 0.38721579
0.092815191 0.066041186 0.38719225
0.093175374 0.06605266 0.38724282
0.093560785 0.066081874 0.38739735
0.12062266 0.064899974 0.3789756
0.12103106 0.064937696 0.3791776
0.12125646 0.064877309 0.37880671
0.12153036 0.064843141 0.37858889
0.12182632 0.064820886 0.37844068
0.12205684 0.06476403 0.37809047
0.12241548 0.064775281 0.37813792
0.12270834 0.064751759 0.37798229
0.12300173 0.064728662 0.37782916
0.1232978 0.064707085 0.37768495
0.12363523 0.064707264 0.37766775
0.12393028 0.064685337 0.37752146
0.12424761 0.064675115 0.37744355
0.1245781 0.064671785 0.37740579
0.12486778 0.064647347 0.37724489
0.12512407 0.064605787 0.37698415
0.125558 0.064655937 0.37725851
0.12581958 0.064617306 0.37701482
0.12613139 0.064604595 0.3769224
0.1264033 0.064571597 0.37671158
0.1267422 0.064572871 0.37670079
0.12705046 0.064558595 0.37659922
0.12735026 0.064540103 0.37647304
0.12767714 0.064535387 0.37642735
0.12801495 0.064536206 0.37641388
0.12834197 0.064531602 0.37636876
0.1286708 0.064527906 0.376329
0.12897034 0.064509608 0.37620404
0.12925993 0.064486429 0.37605065
0.12948866 0.06443309 0.3757214
0.12975274 0.064397559 0.37549606
0.13017491 0.064440489 0.37572816
0.13044909 0.064410113 0.37553284
0.13073845 0.064387374 0.37538216
0.13107383 0.064387359 0.37536389
0.1313497 0.06435819 0.37517565
0.13172883 0.064379625 0.37528244
0.13202552 0.064360768 0.37515438
0.13231632 0.064339131 0.37501019
0.13263159 0.064329498 0.3749359
0.13293213 0.064312764 0.37482026
0.13320151 0.064281084 0.37461752
0.13353467 0.064280264 0.37459469
0.13388045 0.064285509 0.37460715
0.13421379 0.064284764 0.37458479
0.13446455 0.064244583 0.37433258
0.13482532 0.064257011 0.374387
0.13508736 0.064222448 0.37416762
0.13545899 0.064240031 0.37425202
0.078664362 0.066930257 0.3910442
0.079016194 0.066934526 0.39105409
0.07934615 0.066920295 0.3909559
0.079701297 0.066927344 0.39098194
0.080004595 0.066890985 0.39075437
0.080359645 0.066898018 0.39078024
0.080685958 0.066881172 0.3906666
0.081010565 0.06686306 0.39054555
0.081352651 0.066859469 0.39050922
0.081696123 0.066857032 0.39047965
0.082005426 0.066826783 0.39028755
0.08231958 0.066800728 0.39011991
0.08263728 0.066777758 0.38997024
0.082954988 0.066754974 0.38982165
0.083286516 0.066743456 0.38973883
0.083603777 0.066720642 0.38959002
0.083972275 0.066738755 0.38968012
0.084301852 0.066725902 0.38958937
0.084637925 0.066718273 0.38952908
0.084933773 0.06667912 0.38928473
0.085250512 0.066656642 0.38913763
0.08561749 0.06667345 0.38921994
0.085938901 0.066654786 0.3890951
0.086250126 0.066628397 0.38892511
0.086600967 0.066632695 0.38893425
0.086907528 0.066603027 0.38874513
0.087248161 0.066599607 0.3887091
0.087561905 0.066575773 0.38855389
0.087896936 0.066568248 0.38849384
0.088258535 0.06658081 0.38855103
0.088506401 0.066507824 0.38810888
0.088864967 0.066518255 0.38815355
0.089198753 0.066510141 0.38808993
0.089541353 0.066508621 0.3880648
0.089851566 0.066483155 0.38789988
0.090170734 0.066464484 0.38777456
0.090509459 0.066460326 0.38773388
0.090832412 0.06644465 0.38762599
0.091182753 0.066449061 0.38763523
0.091482557 0.06641674 0.38743022
0.091819502 0.066411525 0.38738325
0.092137106 0.066392407 0.38725519
0.092493609 0.066401362 0.38729081
0.092852689 0.066412099 0.38733676
0.09320356 0.066416889 0.38734809
0.093561254 0.066426516 0.38738742
0.093943328 0.066453293 0.38752687
0.094339855 0.066490076 0.38772452
0.12035737 0.065277606 0.3792133
0.1207694 0.065317489 0.37942675
0.12102529 0.06527295 0.37914971
0.12131468 0.065246664 0.37897879
0.12155966 0.065196708 0.37867033
0.12191922 0.065208316 0.37871948
0.12215924 0.065156095 0.37839794
0.122426 0.065118387 0.37816069
0.12272359 0.065097243 0.37801966
0.12305293 0.065093011 0.3779768
0.12333345 0.065063044 0.37778452
0.12367745 0.065066643 0.37778714
0.12400727 0.065062769 0.37774643
0.12430467 0.065041952 0.37760732
0.12465949 0.065051228 0.37764284
0.12496532 0.065034948 0.3775301
0.12527978 0.065023236 0.37744385
0.12562063 0.065025255 0.37743726
0.12584157 0.064965345 0.37707132
0.12618746 0.064970091 0.37708059
0.12642929 0.064921379 0.37677965
0.12675923 0.064918056 0.37674209
0.12705125 0.064895369 0.37659225
0.12741351 0.064908601 0.37665075
0.12775877 0.064913116 0.37665871
0.12802188 0.064875975 0.37642503
0.1283229 0.064858191 0.37630361
0.12870437 0.064881057 0.37641805
0.12896855 0.064844824 0.37618968
0.12930416 0.064844616 0.37617019
0.1296141 0.064831555 0.37607625
0.12991977 0.064816438 0.37597039
0.13018756 0.064782552 0.37575564
0.13052323 0.064782523 0.37573734
0.13079694 0.064751826 0.37554112
0.13116111 0.064765945 0.37560487
0.1314746 0.064755037 0.37552345
0.13178819 0.064744234 0.37544265
0.13208979 0.064727612 0.37532815
0.13241301 0.064721636 0.3752754
0.13271767 0.064706653 0.37517038
0.13297808 0.06467022 0.37494108
0.13329762 0.06466265 0.37487912
0.13360973 0.064651512 0.37479651
0.13387553 0.064618096 0.3745847
0.13424286 0.064633727 0.37465727
0.13448541 0.064589351 0.37438202
0.13485347 0.064605318 0.37445658
0.13517907 0.064600907 0.37441304
0.13554564 0.064616069 0.37448287
0.078680828 0.067291252 0.39111328
0.079033852 0.067296483 0.39112866
0.079378329 0.067294434 0.39110166
0.079721577 0.067291357 0.3910687
0.080060206 0.06728442 0.39101323
0.080395326 0.067274615 0.39094105
0.080718994 0.067255355 0.39081389
0.081048585 0.067241155 0.39071614
0.081406243 0.067250282 0.39075381
0.081729546 0.067231067 0.39062676
0.082046606 0.067206904 0.39047095
0.082378857 0.067195326 0.39038825
0.082707047 0.067180544 0.39028689
0.083009891 0.067145377 0.39006707
0.083356388 0.067145683 0.39005324
0.083664902 0.067115508 0.38986236
0.084033646 0.067133695 0.38995239
0.084326744 0.067091554 0.38969189
0.084654316 0.067077078 0.38959211
0.084987625 0.067067228 0.38951913
0.085316189 0.067053743 0.38942498
0.085641213 0.067037597 0.38931537
0.08598721 0.067037925 0.38930142
0.086309917 0.067020163 0.38918233
0.086643316 0.06701082 0.38911211
0.086964168 0.066991881 0.38898614
0.08724831 0.066944934 0.38869748
0.087595649 0.066946641 0.38869134
0.08793366 0.066941239 0.38864389
0.088271759 0.066935942 0.38859701
0.088596933 0.066920929 0.38849366
0.088901207 0.066890314 0.38829967
0.089248627 0.066892259 0.38829473
0.089558952 0.066866495 0.38812891
0.089881778 0.06685023 0.38801816
0.090220377 0.066845775 0.38797599
0.090582415 0.066858649 0.38803431
0.090855949 0.066806361 0.38771439
0.091192752 0.066800803 0.38766569
0.091515176 0.066784799 0.38755631
0.091826558 0.066760883 0.38740101
0.092192948 0.066776976 0.38747787
0.092491984 0.066744372 0.38727203
0.092863277 0.066763937 0.38736895
0.093235344 0.06678392 0.38746822
0.093583956 0.066787019 0.38746947
0.093933724 0.066790916 0.38747537
0.094341643 0.066835977 0.38771999
0.12043434 0.065657921 0.37944585
0.1207764 0.065659866 0.37943882
0.1210896 0.065646142 0.37934124
0.12131102 0.065582879 0.37895745
0.12162469 0.065569706 0.3788631
0.12186269 0.065515921 0.37853408
0.12219486 0.065512918 0.37849846
0.12253513 0.065514274 0.37848806
0.1228005 0.06547568 0.37824681
0.12310406 0.065457597 0.37812415
0.12337978 0.06542486 0.37791678
0.12369779 0.06541466 0.3778396
0.12405293 0.065424092 0.37787586
0.12434035 0.065397866 0.37770611
