ply
format ascii 1.0
comment PCL generated
element vertex 1547
property float x
property float y
property float z
element camera 0
property float view_px
property float view_py
property float view_pz
property float x_axisx
property float x_axisy
property float x_axisz
property float y_axisx
property float y_axisy
property float y_axisz
property float z_axisx
property float z_axisy
property float z_axisz
property float focal
property float scalex
property float scaley
property float centerx
property float centery
property int viewportx
property int viewporty
property float k1
property float k2
end_header
49.598091 -170.63765 720.2168
49.904613 -170.58946 720.00879
50.2117 -170.54379 719.8114
50.522812 -170.51227 719.67371
50.843338 -170.51274 719.67102
51.160862 -170.50319 719.62598
51.47644 -170.48734 719.55426
51.7943 -170.47916 719.51501
52.087837 -170.39153 719.14032
52.401947 -170.37187 719.05249
52.721722 -170.37074 719.04291
53.03746 -170.35667 718.97858
53.348751 -170.32857 718.85504
53.656139 -170.28841 718.6806
53.97226 -170.27628 718.62439
54.28088 -170.24077 718.46954
54.590332 -170.20827 718.32733
54.89909 -170.174 718.17761
55.213135 -170.1564 718.09827
55.525661 -170.13437 718.00018
55.837322 -170.10995 717.89197
56.140812 -170.06107 717.68048
56.453045 -170.03905 717.58234
56.769485 -170.02989 717.53845
57.08527 -170.01889 717.48676
57.392776 -169.98349 717.33209
57.711994 -169.98299 717.32458
58.014961 -169.93486 717.11621
58.322933 -169.90187 716.97156
58.62923 -169.86436 716.80792
58.94453 -169.85323 716.75543
59.243649 -169.79582 716.50775
59.561584 -169.79266 716.48895
59.881119 -169.7941 716.48944
60.200718 -169.79568 716.4906
60.523396 -169.80589 716.52808
3.507257 -174.26984 737.30371
3.8355584 -174.28017 737.34723
4.1636744 -174.28111 737.35095
4.4922724 -174.30061 737.43323
4.8202882 -174.29642 737.41516
48.036884 -170.46564 720.88409
48.346443 -170.42564 720.71051
48.664398 -170.4156 720.66351
48.974495 -170.37833 720.5014
49.281303 -170.33018 720.29321
49.592785 -170.29872 720.15558
49.903461 -170.26489 720.00793
50.211842 -170.22372 719.82916
50.528278 -170.21022 719.7674
50.844509 -170.19618 719.70337
51.160484 -170.18149 719.63647
51.47789 -170.17169 719.59027
51.795151 -170.16156 719.54266
52.096142 -170.09842 719.27081
52.403481 -170.05664 719.08936
52.717907 -170.03822 719.00659
53.032467 -170.02046 718.92664
53.348541 -170.00775 718.86792
53.656898 -169.97075 718.70648
53.967339 -169.94073 718.57458
54.282879 -169.92705 718.51172
54.595066 -169.90308 718.40533
54.899677 -169.85597 718.20105
55.211372 -169.83118 718.09113
55.523544 -169.80814 717.98853
55.839348 -169.7964 717.93378
56.145733 -169.75632 717.75909
56.461292 -169.74428 717.70294
56.772499 -169.71935 717.59229
57.085419 -169.69978 717.50433
57.39048 -169.65723 717.31909
57.711933 -169.66333 717.33954
58.020061 -169.6304 717.19495
58.324883 -169.58821 717.01123
58.633602 -169.55777 716.87708
58.946888 -169.54077 716.7998
59.244556 -169.47931 716.53442
59.560997 -169.47191 716.49762
59.881912 -169.47723 716.51465
60.200542 -169.47607 716.50421
60.52282 -169.48515 716.53699
3.5073721 -173.94579 737.33752
3.8356891 -173.95645 737.38251
4.1637306 -173.95393 737.37164
4.4924378 -173.97758 737.47162
4.8203492 -173.96928 737.4361
15.873416 -172.8459 732.64508
48.031734 -170.1264 720.82263
48.346394 -170.10457 720.72565
48.660999 -170.08282 720.62903
48.975754 -170.06187 720.53577
49.295048 -170.05685 720.50995
49.600521 -170.00453 720.28363
49.907986 -169.95969 720.08899
50.217205 -169.92133 719.92181
50.528736 -169.89125 719.78973
50.846291 -169.88165 719.74438
51.163971 -169.8726 719.70129
51.477165 -169.84886 719.59595
51.791409 -169.82884 719.50635
52.10186 -169.79674 719.36554
52.415905 -169.77666 719.27557
52.717068 -169.71533 719.01093
53.031708 -169.69789 718.93213
53.350037 -169.6924 718.90387
53.66235 -169.66794 718.79529
53.97028 -169.62999 718.62952
54.280643 -169.60008 718.49786
54.591602 -169.5724 718.37549
54.899086 -169.5343 718.20898
55.208649 -169.50302 718.07141
55.522186 -169.48424 717.98669
55.840076 -169.47888 717.9588
56.146908 -169.44022 717.78986
56.462376 -169.4279 717.73242
56.769852 -169.39188 717.57458
57.083385 -169.37422 717.49451
57.395344 -169.35213 717.39563
57.711071 -169.34132 717.34454
58.017452 -169.30338 717.17841
58.323517 -169.26492 717.01013
58.633114 -169.23708 716.88678
58.944466 -169.2146 716.78607
59.244778 -169.16081 716.5528
59.560135 -169.15034 716.50293
59.881462 -169.15686 716.52496
60.202538 -169.16258 716.54364
60.526009 -169.17496 716.59045
3.5075154 -173.62309 737.37714
3.8358142 -173.63248 737.41681
4.1639361 -173.633 737.41876
4.4924436 -173.64835 737.4837
4.8203492 -173.63994 737.44763
15.873057 -172.51566 732.64374
16.196783 -172.49146 732.53955
48.035198 -169.81767 720.89038
48.351036 -169.79994 720.81061
48.665337 -169.77705 720.70898
48.972355 -169.72925 720.50146
49.294422 -169.73389 720.5166
49.594437 -169.66301 720.21112
49.906471 -169.6339 720.08295
50.219849 -169.60966 719.97546
50.530468 -169.57654 719.83014
50.84457 -169.5554 719.73572
51.163399 -169.55022 719.70898
51.480183 -169.53836 719.65387
51.795094 -169.52054 719.57336
52.097527 -169.46233 719.32147
52.41338 -169.4482 719.25665
52.713913 -169.38503 718.98358
53.032177 -169.37924 718.95422
53.350479 -169.37367 718.9256
53.659271 -169.33813 718.76978
53.972698 -169.31757 718.67749
54.2756 -169.2644 718.44684
54.581863 -169.22231 718.26306
54.899261 -169.21501 718.22705
55.210026 -169.18745 718.10498
55.523846 -169.16957 718.02386
55.836208 -169.14743 717.9248
56.146896 -169.12053 717.80536
56.463806 -169.11255 717.7663
56.766979 -169.06377 717.55396
57.080872 -169.04726 717.47864
57.399193 -169.04398 717.45941
57.711094 -169.02194 717.36053
58.011181 -168.96573 717.11664
58.3167 -168.92586 716.94202
58.628891 -168.90565 716.85083
58.939404 -168.88086 716.74017
59.244843 -168.84189 716.56927
59.55891 -168.82777 716.50385
59.881706 -168.83842 716.54352
60.204327 -168.84846 716.58057
60.530128 -168.86728 716.65485
3.5074911 -173.29214 737.38165
3.8357878 -173.30164 737.42188
4.1640787 -173.3094 737.45471
4.4926896 -173.3284 737.53528
4.8212833 -173.34419 737.60211
15.874104 -172.20067 732.70715
16.199018 -172.18893 732.65582
48.039204 -169.51083 720.96631
48.350163 -169.47592 720.81335
48.667377 -169.46326 720.75494
48.971485 -169.40543 720.50446
49.286217 -169.38484 720.41235
49.591724 -169.33305 720.1875
49.906521 -169.31342 720.09937
50.221523 -169.29474 720.01526
50.536346 -169.27571 719.92963
50.847069 -169.24324 719.78687
51.167301 -169.24266 719.7796
51.482555 -169.22572 719.70282
51.798893 -169.21251 719.64185
52.099331 -169.14787 719.36206
52.407021 -169.10739 719.18512
52.714947 -169.06819 719.01349
53.031242 -169.05612 718.95728
53.346622 -169.04131 718.88928
53.66003 -169.02046 718.79565
53.971832 -168.99483 718.68164
54.273769 -168.9388 718.43835
54.584774 -168.91147 718.31708
54.896423 -168.88644 718.20557
55.206085 -168.85564 718.06946
55.518883 -168.83473 717.9754
55.836967 -168.83003 717.95026
56.146599 -168.79997 717.81726
56.461983 -168.78748 717.75885
56.772865 -168.76172 717.64404
57.083054 -168.73419 717.52173
57.394035 -168.70932 717.41064
57.711967 -168.70503 717.38702
58.017269 -168.66408 717.20752
58.32 -168.61613 716.99829
58.62849 -168.58528 716.86163
58.944908 -168.57741 716.82275
59.248383 -168.53284 716.62769
59.56628 -168.52954 716.60822
59.883297 -168.5238 716.57825
60.205006 -168.53123 716.60431
60.531204 -168.55112 716.68323
3.5074806 -172.96185 737.38898
3.8358467 -172.97466 737.44336
4.1641126 -172.98129 737.47144
4.4927363 -173.00075 737.55408
4.8212042 -173.01195 737.60156
15.550854 -171.90488 732.854
15.873763 -171.87062 732.70654
47.718365 -169.19011 720.98767
48.045101 -169.2106 721.07056
48.357681 -169.18129 720.94116
48.666142 -169.13805 720.75238
48.976231 -169.101 720.58997
49.27993 -169.04253 720.33624
49.589115 -169.00346 720.16522
49.904964 -168.98752 720.09265
50.220539 -168.97083 720.01685
50.537331 -168.95844 719.95935
50.848309 -168.92686 719.82013
51.166676 -168.9201 719.78656
51.481136 -168.90059 719.69861
51.793255 -168.87369 719.57922
52.098785 -168.82578 719.37024
52.40218 -168.77156 719.13434
52.715828 -168.75082 719.04114
53.029652 -168.73091 718.95135
53.347076 -168.72263 718.91113
53.661549 -168.70515 718.83167
53.972755 -168.67767 718.70959
54.276848 -168.62843 718.49475
54.590145 -168.60818 718.40344
54.892204 -168.55368 718.16608
55.208057 -168.5419 718.11078
55.518295 -168.51323 717.98346
55.838329 -168.51443 717.98346
56.143475 -168.47095 717.79297
56.454338 -168.44504 717.67731
56.769169 -168.43117 717.61298
57.081444 -168.40993 717.51715
57.392921 -168.38658 717.41235
57.70892 -168.37666 717.36481
58.022068 -168.35861 717.28253
58.329235 -168.32349 717.12744
58.636036 -168.28769 716.96954
58.947273 -168.26495 716.86719
59.253075 -168.22702 716.70007
59.570175 -168.22141 716.67065
59.886101 -168.21255 716.62738
60.206177 -168.21538 716.63385
60.532356 -168.23517 716.71252
3.5076156 -172.63875 737.42688
3.8360851 -172.65576 737.49939
4.1642323 -172.65672 737.5033
4.4927306 -172.67107 737.56427
4.8206277 -172.66193 737.5249
15.550963 -171.57968 732.87427
15.874313 -171.55023 732.74707
16.19681 -171.51292 732.5863
47.714363 -168.8549 720.94287
48.042515 -168.88045 721.04742
48.36153 -168.87372 721.01422
48.668625 -168.82576 720.80493
48.968094 -168.75211 720.48596
49.275883 -168.70793 720.29272
49.590477 -168.68745 720.20074
49.907139 -168.67424 720.13971
50.22522 -168.66597 720.09973
50.539108 -168.6438 720.00037
50.850517 -168.61368 719.86707
51.166069 -168.59761 719.7937
51.4795 -168.57478 719.69147
51.796989 -168.56546 719.64685
52.097839 -168.50241 719.37286
52.412979 -168.48608 719.29828
52.719364 -168.44197 719.1051
53.03474 -168.42696 719.03607
53.348637 -168.40744 718.94781
53.660885 -168.383 718.8385
53.976021 -168.36784 718.7688
54.285946 -168.33672 718.63086
54.60041 -168.31995 718.5542
54.901951 -168.26376 718.30927
55.21376 -168.2395 718.20062
55.521793 -168.2041 718.04431
55.835903 -168.18741 717.9679
56.139805 -168.14034 717.76172
56.451069 -168.11571 717.65137
56.765553 -168.10089 717.58289
57.079933 -168.08595 717.51379
57.395939 -168.07594 717.4657
57.712429 -168.06743 717.42407
58.024677 -168.04675 717.33038
58.329063 -168.00365 717.14099
58.631634 -167.95581 716.93134
58.947575 -167.94656 716.88641
59.256359 -167.91716 716.75543
59.572113 -167.90771 716.70959
59.885239 -167.89101 716.63269
60.204601 -167.89185 716.63074
60.531246 -167.91289 716.71497
60.854721 -167.92497 716.76086
3.5076761 -172.31197 737.44916
3.8360922 -172.32645 737.51093
4.1642137 -172.32645 737.51068
4.4926081 -172.33694 737.5553
4.820786 -172.33824 737.56061
15.551029 -171.254 732.89246
15.874572 -171.22664 732.77405
16.197226 -171.19099 732.62012
16.523733 -171.19672 732.64313
47.713062 -168.52934 720.93896
48.037262 -168.54099 720.98431
48.358227 -168.5412 720.98071
48.666142 -168.49623 720.78381
48.964489 -168.41895 720.44867
49.277241 -168.39186 720.32831
49.592773 -168.37459 720.24976
49.909924 -168.36301 720.19556
50.225819 -168.34734 720.1239
50.539364 -168.32405 720.01965
50.850891 -168.2944 719.88806
51.16713 -168.28061 719.82428
51.481052 -168.25941 719.72888
51.798969 -168.25145 719.69
52.101871 -168.19511 719.44421
52.406456 -168.14487 719.22443
52.721142 -168.12744 719.14496
53.043182 -168.13356 719.1662
53.352722 -168.1002 719.01855
53.66024 -168.0609 718.84552
53.979767 -168.05946 718.83429
54.294956 -168.04463 718.76581
54.599941 -167.99854 718.56366
54.906612 -167.95818 718.38586
55.217335 -167.93059 718.26276
55.519524 -167.8775 718.03058
55.831303 -167.85387 717.92432
56.133171 -167.80089 717.6925
56.448383 -167.78818 717.63287
56.764915 -167.77948 717.59045
57.079018 -167.76376 717.51788
57.396072 -167.75684 717.48297
57.711975 -167.74664 717.43402
58.02005 -167.71394 717.28876
58.322182 -167.66451 717.07196
58.62878 -167.62837 716.91199
58.946709 -167.62486 716.89148
59.25481 -167.5936 716.75226
59.572124 -167.58858 716.72528
59.886898 -167.57651 716.66809
60.205574 -167.57542 716.6579
60.53059 -167.5919 716.72278
60.847988 -167.58723 716.69714
3.5077145 -171.98409 737.46674
3.8360775 -171.99615 737.51825
4.1641521 -171.9944 737.5105
4.492662 -172.00957 737.57526
4.8211479 -172.0218 737.62744
15.551852 -170.9366 732.94623
15.877023 -170.92667 732.90222
16.201048 -170.90504 732.80811
16.524548 -170.87885 732.69434
47.71241 -168.20607 720.94482
48.036201 -168.21628 720.98407
48.347477 -168.1828 720.83612
48.65844 -168.1487 720.68542
48.97147 -168.12213 720.56702
49.279881 -168.08017 720.38257
49.596745 -168.06737 720.32312
49.912006 -168.04936 720.24133
50.222775 -168.01653 720.09595
50.536724 -167.99471 719.99774
50.852779 -167.9801 719.93042
51.169029 -167.96635 719.8667
51.48148 -167.94035 719.75049
51.796043 -167.92152 719.66498
52.098186 -167.86292 719.40894
52.412872 -167.84518 719.32806
52.726452 -167.82414 719.23303
53.043247 -167.81355 719.18268
53.350708 -167.77371 719.00702
53.652615 -167.717 718.75897
53.977856 -167.73346 718.82452
54.301285 -167.74413 718.86517
54.599144 -167.67615 718.56879
54.900414 -167.61937 718.32037
55.211823 -167.59404 718.20667
55.508263 -167.5238 717.90057
55.822819 -167.50874 717.83087
56.128109 -167.46623 717.64343
56.44788 -167.46712 717.64203
56.763813 -167.4567 717.5921
57.077225 -167.439 717.51093
57.394882 -167.43388 717.4837
57.71072 -167.42354 717.43402
58.018333 -167.38959 717.28314
58.321651 -167.34367 717.08099
58.63464 -167.32588 716.99927
58.939243 -167.28444 716.81628
59.251862 -167.2661 716.73218
59.571476 -167.26761 716.73309
59.88802 -167.2605 716.69708
60.206482 -167.25882 716.68427
60.53141 -167.27501 716.74805
3.5076888 -171.65308 737.47083
3.8359792 -171.66212 737.50946
4.1639781 -171.65773 737.49036
4.4924288 -171.67125 737.5481
4.8209882 -171.68678 737.61456
5.1404653 -171.39751 736.37146
15.552696 -170.61943 733.00104
15.87564 -170.5854 732.85345
16.201492 -170.58337 732.84332
16.527542 -170.58345 732.84222
47.710403 -167.87804 720.93011
48.03207 -167.88083 720.93768
48.34388 -167.84938 720.79816
48.657692 -167.82526 720.69
48.971661 -167.80197 720.58545
49.291328 -167.7984 720.56555
49.597504 -167.74922 720.34979
49.912006 -167.7287 720.25696
50.222855 -167.6962 720.11273
50.535786 -167.67104 720
50.848331 -167.64491 719.88312
51.16785 -167.64197 719.86572
51.478146 -167.60904 719.71948
51.794796 -167.59708 719.66333
52.105389 -167.56578 719.52411
52.420776 -167.55017 719.45221
52.725384 -167.50052 719.23413
53.044247 -167.49649 719.21185
53.350597 -167.45323 719.02118
53.657238 -167.41139 718.83649
53.98164 -167.42516 718.89056
54.305382 -167.43668 718.93506
54.615166 -167.4053 718.79523
54.930389 -167.39088 718.72821
55.205139 -167.25398 718.13531
55.474613 -167.1028 717.48096
55.788105 -167.08517 717.40009
56.120174 -167.12303 717.5575
56.443317 -167.13408 717.59967
56.757465 -167.1185 717.52747
57.076023 -167.116 717.51141
57.392597 -167.10776 717.4707
57.70916 -167.09956 717.43018
58.01553 -167.06212 717.26404
58.321476 -167.02388 717.09442
58.633015 -167.00197 716.99493
58.937553 -166.96048 716.81134
59.252296 -166.94817 716.75299
59.572788 -166.95212 716.7644
59.887863 -166.94092 716.71075
60.205444 -166.9368 716.6875
60.535191 -166.96626 716.80835
3.5076139 -171.31972 737.46466
3.835885 -171.32832 737.50153
4.1640124 -171.32968 737.50708
4.4923258 -171.33792 737.5423
4.8205523 -171.34195 737.55933
5.1411839 -171.09271 736.48615
5.4667587 -171.02802 736.20728
5.798306 -171.14691 736.71863
15.5524 -170.28973 733.00208
15.87551 -170.25764 732.86255
16.201031 -170.25214 732.83746
16.527298 -170.25458 732.8465
47.704792 -167.53738 720.86102
48.0224 -167.52614 720.80817
48.341499 -167.52025 720.77832
48.660107 -167.51273 720.74146
48.973114 -167.48613 720.6225
49.289162 -167.47025 720.5495
49.594944 -167.41991 720.32831
49.91127 -167.40556 720.26196
50.222973 -167.37599 720.13007
50.53405 -167.34474 719.99091
50.845341 -167.31459 719.85645
51.168381 -167.32321 719.88879
51.48011 -167.29498 719.76257
51.795292 -167.27827 719.68585
52.102261 -167.23538 719.49646
52.41898 -167.22414 719.44318
52.728344 -167.1897 719.29016
53.03793 -167.15637 719.14185
53.320335 -167.0383 718.62891
53.629044 -167.00356 718.47443
53.971653 -167.07414 718.77307
54.308857 -167.12729 718.9967
56.756779 -166.797 717.53436
57.075649 -166.79544 717.52234
57.390282 -166.78157 717.45734
57.705196 -166.76866 717.39648
58.019138 -166.75311 717.32422
58.323406 -166.7101 717.13373
58.633553 -166.68423 717.01703
58.941166 -166.6515 716.87079
59.253704 -166.63297 716.78552
59.573021 -166.63362 716.78278
59.886463 -166.61789 716.70953
60.20488 -166.6161 716.69629
60.535469 -166.64786 716.82721
3.507458 -170.98241 737.44141
3.8356137 -170.98663 737.45947
4.1638908 -170.99519 737.49615
4.4924307 -171.01251 737.57056
4.8205647 -171.01309 737.57269
5.1431556 -170.82947 736.7804
5.4703817 -170.81259 736.70728
5.8028002 -170.95058 737.302
15.551869 -169.95749 732.99207
15.8765 -169.94185 732.92322
16.202028 -169.93626 732.89771
47.702358 -167.20793 720.83984
48.01976 -167.19604 720.78418
48.338913 -167.19041 720.75537
48.656662 -167.18001 720.70599
48.96719 -167.14511 720.55096
49.282261 -167.12605 720.46423
49.597397 -167.10747 720.37952
49.914307 -167.09506 720.32135
50.220322 -167.04657 720.10767
50.535465 -167.02887 720.02661
50.850327 -167.01047 719.94257
51.168934 -167.00452 719.91217
51.479218 -166.97163 719.76569
51.795403 -166.95821 719.70294
52.102749 -166.91661 719.5188
52.416821 -166.89694 719.42914
52.727646 -166.86723 719.2962
52.976727 -166.64366 718.32751
53.612717 -166.63292 718.27124
53.97084 -166.75163 718.77789
54.327431 -166.8642 719.25812
57.074623 -166.47296 717.52496
57.386303 -166.45058 717.42316
57.699287 -166.43219 717.33856
58.015362 -166.4229 717.29303
58.320595 -166.38275 717.11462
58.634304 -166.36713 717.04181
58.945168 -166.34361 716.935
59.253864 -166.31427 716.80304
59.571819 -166.3111 716.78381
59.887882 -166.3027 716.74207
60.207642 -166.30461 716.74469
60.539608 -166.34003 716.89172
3.5073678 -170.64832 737.43195
3.8356361 -170.6581 737.47394
4.1637192 -170.65871 737.47638
4.4920149 -170.66736 737.51343
4.819901 -170.66029 737.4826
5.1400127 -170.39641 736.34198
5.4701204 -170.47568 736.68414
5.8048472 -170.68179 737.5744
15.225867 -169.63205 733.01263
15.551763 -169.62988 733.00195
15.877274 -169.62372 732.97394
16.202299 -169.61273 732.92499
47.701576 -166.88428 720.84357
48.021904 -166.88264 720.83203
48.339619 -166.87199 720.78149
48.654881 -166.85304 720.69519
48.966236 -166.82108 720.55249
49.280895 -166.80069 720.45984
49.597912 -166.7885 720.40259
49.913822 -166.77275 720.32996
50.219063 -166.7218 720.10522
50.537437 -166.71481 720.07031
50.849609 -166.68759 719.948
51.167545 -166.67949 719.9082
51.483932 -166.66646 719.84717
51.799057 -166.64955 719.76929
52.103638 -166.59912 719.54663
52.425018 -166.60271 719.55725
52.712063 -166.49779 719.09918
53.284328 -166.28603 718.17468
53.635838 -166.38484 718.5965
53.99157 -166.49554 719.06952
57.383419 -166.1228 717.40259
57.697346 -166.10722 717.32996
58.011261 -166.09178 717.25787
58.319099 -166.0592 717.11176
58.633358 -166.04517 717.04572
58.948696 -166.03432 716.99335
59.252743 -165.99196 716.80493
59.574684 -165.99992 716.83374
59.890125 -165.98978 716.78436
60.212112 -165.99779 716.81335
60.546623 -166.04005 716.9903
3.507123 -170.30676 737.38995
3.8353186 -170.31444 737.42297
4.1635089 -170.32068 737.44977
4.4918156 -170.33044 737.49176
4.8202491 -170.34335 737.54736
5.1419029 -170.13029 736.62451
5.4721508 -170.21008 736.9696
5.8053088 -170.36627 737.64545
15.226995 -169.31815 733.08185
15.552168 -169.30788 733.03601
15.876047 -169.28424 732.93225
16.202213 -169.28543 732.93604
47.702 -166.56485 720.86554
48.022945 -166.56537 720.86322
48.335945 -166.53845 720.74225
48.652542 -166.52422 720.67615
48.967201 -166.50359 720.58228
49.282303 -166.4847 720.49597
49.595718 -166.46042 720.38623
49.911873 -166.44559 720.31738
50.222019 -166.41103 720.16315
50.539383 -166.40067 720.11365
50.850456 -166.36984 719.97552
51.166733 -166.35637 719.91241
51.486088 -166.35298 719.89294
51.802864 -166.34134 719.83777
52.103142 -166.27719 719.5553
53.03677 -166.1922 719.17273
53.371799 -166.23874 719.3692
57.693546 -165.77692 717.29822
58.007767 -165.76244 717.2301
58.319698 -165.74162 717.13464
58.630512 -165.71786 717.02637
58.948929 -165.71574 717.01172
59.256332 -165.68285 716.86383
59.576534 -165.6859 716.87152
59.893837 -165.68088 716.84424
60.218086 -165.69507 716.89996
60.546104 -165.71939 716.99963
3.5069737 -169.96991 737.3681
3.8351543 -169.97765 737.40149
4.1631761 -169.97771 737.40149
4.4911628 -169.97641 737.39563
4.8197832 -169.99765 737.48743
5.1481471 -170.00774 737.53082
5.4747806 -169.96288 737.33588
5.8072128 -170.09294 737.89972
15.227751 -169.00009 733.13318
15.552322 -168.98312 733.05823
15.876648 -168.96425 732.97498
16.202675 -168.9639 732.97198
47.70158 -166.24252 720.87482
48.023033 -166.24477 720.88007
48.33812 -166.22508 720.79028
48.655487 -166.21346 720.73529
48.964397 -166.17329 720.55658
49.27911 -166.15321 720.4649
49.594219 -166.13472 720.38007
49.912502 -166.12701 720.34204
50.222305 -166.09138 720.1828
50.537807 -166.07491 720.10669
50.851654 -166.05325 720.00806
51.169376 -166.04443 719.96509
51.489094 -166.04219 719.9505
51.803829 -166.02397 719.8667
57.692802 -165.45543 717.30438
58.004658 -165.43423 717.20715
58.317863 -165.41713 717.1275
58.627644 -165.39052 717.00671
58.947582 -165.39272 717.01074
59.260113 -165.37422 716.92505
59.576939 -165.36783 716.89178
59.894783 -165.36433 716.87103
60.224648 -165.39388 716.99353
60.548683 -165.4072 717.04559
3.506772 -169.63052 737.33514
3.8347774 -169.63148 737.33911
4.1632762 -169.6524 737.42981
4.4912529 -169.65054 737.42145
4.8189521 -169.63918 737.3717
5.1480308 -169.67473 737.52588
5.4777069 -169.72453 737.742
14.900655 -168.66267 733.10181
15.227629 -168.67226 733.14215
15.554265 -168.67776 733.16473
15.877584 -168.64781 733.03314
16.202227 -168.63283 732.96661
16.527517 -168.62506 732.9314
47.702854 -165.92603 720.90955
48.023182 -165.92438 720.89789
48.338478 -165.90546 720.81116
48.65691 -165.89748 720.77197
48.965759 -165.85715 720.59216
49.281109 -165.8392 720.50958
49.592007 -165.80664 720.36346
49.907814 -165.79079 720.28992
50.222626 -165.77184 720.20294
50.536114 -165.74878 720.09808
50.851776 -165.73312 720.02533
51.173248 -165.73648 720.0351
51.491985 -165.73099 720.00641
57.689026 -165.12526 717.27289
58.003864 -165.11267 717.21277
58.313766 -165.08624 717.09259
58.625877 -165.06633 717.00061
58.942375 -165.05891 716.96289
59.261833 -165.05981 716.9613
59.581142 -165.0603 716.95782
59.900669 -165.06139 716.95697
60.228745 -165.08588 717.05774
60.552486 -165.0983 717.10608
3.50652 -169.28877 737.29163
3.83445 -169.28758 737.28619
4.1628919 -169.3074 737.37231
4.4909382 -169.30942 737.3808
4.8184438 -169.29216 737.30536
5.1477375 -169.33594 737.49567
14.577248 -168.36745 733.25391
14.902674 -168.35904 733.216
15.228996 -168.36092 733.22284
15.555725 -168.36708 733.24841
15.880259 -168.34975 733.17151
16.203091 -168.31543 733.02063
16.527622 -168.29977 732.95099
47.384876 -165.61507 720.97272
47.70446 -165.61072 720.94934
48.023071 -165.60309 720.91168
48.338421 -165.58438 720.82574
48.653912 -165.56644 720.74304
48.96431 -165.53148 720.5863
49.282253 -165.52232 720.54187
49.590183 -165.47989 720.35248
49.90823 -165.47153 720.3114
50.221455 -165.44737 720.2016
50.535912 -165.42758 720.11072
50.852249 -165.41414 720.04749
51.172764 -165.41438 720.04376
51.492962 -165.41359 720.03552
57.686008 -164.7973 717.25079
58.001335 -164.78618 717.19696
58.311916 -164.76176 717.08527
58.625916 -164.74721 717.01648
58.943523 -164.7429 716.99225
59.262108 -164.74136 716.97998
59.5784 -164.73351 716.94025
59.899872 -164.73997 716.96283
60.230572 -164.77162 717.09491
60.553528 -164.78185 717.13379
3.5062611 -168.94675 737.24664
3.8342729 -168.95036 737.26227
4.1623621 -168.95659 737.28912
4.4906483 -168.96927 737.34424
4.8187823 -168.97491 737.36853
5.1472249 -168.98997 737.4339
5.4765735 -169.0312 737.6134
5.8031235 -168.98627 737.41693
14.579356 -168.06522 733.37476
14.904354 -168.05148 733.31348
15.229699 -168.04218 733.27155
15.555713 -168.04045 733.2627
15.881949 -168.04118 733.26453
16.203651 -167.99487 733.06097
16.527359 -167.97078 732.95435
16.85195 -167.95641 732.8902
47.384075 -165.29132 720.97595
47.702957 -165.28459 720.94214
48.022018 -165.27856 720.91138
48.33733 -165.25981 720.82501
48.653084 -165.2428 720.74628
48.960972 -165.19945 720.55267
49.283157 -165.20462 720.57056
49.593369 -165.16983 720.41425
49.908337 -165.15123 720.32843
50.219891 -165.12164 720.1947
50.537647 -165.1127 720.151
50.853451 -165.09753 720.08002
51.170658 -165.08708 720.02966
51.489002 -165.0804 719.99573
57.681217 -164.46432 717.20667
57.995613 -164.45065 717.1416
58.312386 -164.44383 717.10638
58.627575 -164.43266 717.05219
58.944801 -164.42728 717.02319
59.261097 -164.41936 716.98322
59.580257 -164.41945 716.97803
59.904251 -164.43279 717.03058
60.231655 -164.45532 717.12323
60.555515 -164.46799 717.17279
3.506182 -168.61342 737.23944
3.83412 -168.61426 737.24292
4.162148 -168.61862 737.26172
4.490253 -168.62523 737.29034
4.8186679 -168.64178 737.36243
5.1473274 -168.66425 737.46033
5.4734292 -168.60526 737.20197
14.25333 -167.74088 733.40051
14.579444 -167.73965 733.39392
14.905131 -167.73369 733.36652
15.229909 -167.71796 733.29645
15.555715 -167.71397 733.27765
15.882372 -167.71916 733.29889
16.202473 -167.65628 733.02258
16.526079 -167.63144 732.91254
16.851685 -167.62746 732.89362
47.068741 -164.98965 721.07996
47.384682 -164.97253 721.00073
47.704735 -164.96985 720.9845
48.020794 -164.95346 720.90845
48.337723 -164.94031 720.84637
48.655582 -164.93045 720.79877
48.965523 -164.89406 720.63513
49.278107 -164.86699 720.51227
49.593517 -164.84964 720.43182
49.909599 -164.83476 720.36212
50.221672 -164.80692 720.23572
50.53791 -164.793 720.17017
50.853607 -164.77751 720.09772
51.169445 -164.76265 720.02802
51.468231 -164.69342 719.7207
57.679546 -164.14029 717.20129
57.995304 -164.13052 717.1532
58.311066 -164.12086 717.10553
58.628025 -164.11469 717.07306
58.943756 -164.10515 717.02588
59.263115 -164.10576 717.02301
59.5825 -164.10643 717.02039
59.911598 -164.1337 717.13397
60.233654 -164.14149 717.16235
60.556625 -164.1517 717.20129
3.5061677 -168.28325 737.24591
3.8340731 -168.28284 737.24396
4.1622019 -168.29153 737.2818
4.4899111 -168.28325 737.24524
4.817903 -168.28595 737.25677
5.1461515 -168.29671 737.30353
5.4722342 -168.23959 737.05298
5.7983289 -168.1893 736.83215
13.93258 -167.48003 733.70441
14.256877 -167.45595 733.59772
14.580212 -167.42191 733.44727
14.905748 -167.41406 733.41162
15.23191 -167.41345 733.40759
15.556746 -167.39859 733.34113
15.883025 -167.39954 733.34393
16.204964 -167.35564 733.15015
16.525644 -167.30074 732.90814
16.851089 -167.29524 732.88263
47.070042 -164.67326 721.11536
47.385704 -164.65517 721.03174
47.703117 -164.64334 720.97546
48.021427 -164.63477 720.93347
48.339046 -164.62395 720.88153
48.655491 -164.60928 720.81281
48.964211 -164.56886 720.63123
49.278618 -164.54796 720.5351
49.594475 -164.53215 720.46118
49.908714 -164.5112 720.36481
50.217823 -164.47371 720.19592
50.533978 -164.45964 720.12958
50.850517 -164.44698 720.0694
51.169243 -164.44151 720.04065
51.470928 -164.38168 719.77386
57.679539 -163.82098 717.21655
57.9939 -163.8073 717.15118
58.312531 -163.80574 717.13892
58.627953 -163.79526 717.08752
58.944092 -163.78687 717.04529
59.265038 -163.79185 717.06158
59.587238 -163.80025 717.09277
59.910934 -163.81262 717.14136
60.231869 -163.81737 717.15649
60.552017 -163.81993 717.16205
3.8338771 -167.9449 737.21631
4.1622505 -167.96425 737.30096
4.4900031 -167.95755 737.2713
4.8177791 -167.95258 737.24915
5.1460099 -167.96309 737.29498
5.4721556 -167.90836 737.05432
5.7996397 -167.89856 737.01093
12.962635 -167.27068 734.23773
13.28877 -167.26514 734.21228
13.605882 -167.149 733.70135
13.932696 -167.15472 733.72522
14.258381 -167.14694 733.68982
14.582772 -167.12465 733.59076
14.907122 -167.10291 733.49402
15.232383 -167.09207 733.44513
15.556371 -167.06804 733.33826
15.881749 -167.05962 733.29987
16.205893 -167.03879 733.20703
16.526423 -166.9823 732.95758
16.850159 -166.95973 732.85706
46.763737 -164.4035 721.35992
47.075504 -164.37138 721.21454
47.385422 -164.33327 721.04285
47.702892 -164.32169 720.98761
48.02253 -164.31764 720.96539
48.338913 -164.30264 720.89502
48.653862 -164.28296 720.80414
48.965061 -164.25099 720.65924
49.280815 -164.23459 720.5827
49.593922 -164.20964 720.46863
49.907551 -164.18674 720.36346
50.220997 -164.16353 720.2569
50.53693 -164.14868 720.18701
50.850777 -164.1273 720.0885
51.16925 -164.12103 720.05615
51.482708 -164.09883 719.95398
57.678188 -163.49788 717.21509
57.995136 -163.49153 717.18182
58.311401 -163.48335 717.14044
58.628632 -163.47794 717.11121
58.946831 -163.47525 717.09393
59.267948 -163.48065 717.11212
59.588722 -163.48506 717.12592
59.912029 -163.49635 717.1698
60.23745 -163.51324 717.23828
60.554367 -163.50702 717.20526
3.833868 -167.61519 737.22461
4.162056 -167.62717 737.27704
4.4900422 -167.62988 737.2887
4.8174443 -167.61189 737.20929
5.1453543 -167.61275 737.21271
5.4722877 -167.58359 737.08411
5.7995462 -167.56712 737.01129
6.126935 -167.55602 736.96191
6.4544182 -167.54845 736.92822
6.7820649 -167.54567 736.91547
7.1108208 -167.56927 737.01874
12.638329 -166.97368 734.38519
12.965159 -166.97621 734.3952
13.291265 -166.96951 734.36462
13.609165 -166.86255 733.89301
13.932886 -166.83026 733.74982
14.258439 -166.82091 733.7074
14.58361 -166.80759 733.64758
14.907208 -166.77728 733.513
15.232189 -166.7634 733.45056
15.556334 -166.74115 733.35132
15.881104 -166.72636 733.28491
16.203083 -166.68347 733.09485
16.52684 -166.6602 732.99103
16.850126 -166.63315 732.87054
17.17577 -166.63 732.85529
46.445499 -164.09209 721.42212
46.766777 -164.09311 721.42224
47.078136 -164.05956 721.27026
47.386211 -164.01506 721.07025
47.703793 -164.00386 721.01654
48.023918 -164.0015 721.00165
48.339169 -163.98264 720.91418
48.653996 -163.9626 720.82153
48.962788 -163.92261 720.64117
49.280346 -163.91231 720.59125
49.595024 -163.89262 720.50006
49.90794 -163.86739 720.38446
50.220413 -163.84103 720.26392
50.534576 -163.82051 720.16895
50.846306 -163.79239 720.04059
51.164371 -163.78491 720.00287
51.486824 -163.79149 720.02698
57.678101 -163.17836 717.22937
57.99556 -163.17345 717.20233
58.311199 -163.16353 717.15326
58.629044 -163.15984 717.13153
58.948952 -163.1619 717.13507
59.272957 -163.17522 717.18805
59.591595 -163.17371 717.17584
59.917828 -163.19289 717.25452
60.243641 -163.21074 717.32733
60.566147 -163.21945 717.36005
3.8339348 -167.28877 737.24744
4.1620722 -167.2986 737.29047
4.4901462 -167.30461 737.31671
4.8172903 -167.27753 737.19702
5.1449761 -167.27151 737.17017
5.4720497 -167.2475 737.06396
5.7993627 -167.23311 737.00018
6.1266861 -167.22055 736.9444
6.4541559 -167.21306 736.91089
6.7813616 -167.19978 736.85187
7.1095362 -167.21051 736.89862
7.4371762 -167.20828 736.88824
7.7643437 -167.19608 736.83386
8.0887947 -167.12872 736.53638
8.4130487 -167.0627 736.24475
8.7402439 -167.05786 736.22272
10.36636 -166.87947 735.43256
10.680124 -166.67149 734.5152
11.006082 -166.66054 734.46594
11.333233 -166.66776 734.49683
11.659163 -166.6571 734.44891
11.98606 -166.66051 734.46289
12.311831 -166.64848 734.40881
12.637769 -166.63924 734.36707
12.964838 -166.64507 734.3916
13.290875 -166.63762 734.35767
13.609609 -166.54117 733.93146
13.933623 -166.51236 733.80328
14.25929 -166.50415 733.76587
14.584283 -166.48862 733.69617
14.905601 -166.43274 733.44861
15.231362 -166.42781 733.42554
15.556382 -166.41515 733.36835
15.880976 -166.39853 733.29376
16.204613 -166.3728 733.17889
16.528078 -166.34631 733.06073
16.849216 -166.29791 732.84595
17.174894 -166.29529 732.83282
17.503468 -166.32027 732.94141
46.125946 -163.77612 721.46436
46.444996 -163.76926 721.42975
46.767303 -163.77388 721.4458
47.076458 -163.7327 721.25995
47.385464 -163.69157 721.07434
47.705757 -163.6897 721.06165
48.023479 -163.67912 721.0105
48.338379 -163.65909 720.91779
48.653641 -163.64059 720.83173
48.969906 -163.62564 720.76129
49.280281 -163.59135 720.60565
49.590302 -163.55637 720.44684
49.905693 -163.53937 720.36737
50.221523 -163.52406 720.29523
50.536461 -163.50606 720.21118
50.84515 -163.46819 720.03955
51.162926 -163.45982 719.99792
51.486614 -163.47034 720.03943
57.681217 -162.86789 717.28339
57.99432 -162.85072 717.20233
58.311337 -162.84467 717.17023
58.630558 -162.8448 717.16534
58.950665 -162.8474 717.1712
59.275715 -162.86354 717.23676
59.594952 -162.86362 717.23151
59.921272 -162.88293 717.31104
60.25396 -162.91928 717.46545
60.565845 -162.89931 717.37177
3.8341305 -166.96799 737.2951
4.1621399 -166.97209 737.31299
4.4899712 -166.96898 737.29895
4.8174582 -166.95435 737.23407
5.1453643 -166.95518 737.23743
5.4720845 -166.91977 737.08063
5.799294 -166.90242 737.00366
6.126718 -166.89278 736.96057
6.4535236 -166.86813 736.85132
6.7802362 -166.8436 736.74243
7.1071548 -166.82613 736.66473
7.4332762 -166.79233 736.51495
7.7598209 -166.77048 736.41785
8.0864239 -166.75159 736.3338
8.4118176 -166.71024 736.15051
8.7335787 -166.60266 735.6748
9.0582237 -166.55588 735.46753
9.3848181 -166.54697 735.42743
9.7126122 -166.55923 735.48077
10.04102 -166.58089 735.57556
10.36609 -166.54753 735.42743
10.683241 -166.3929 734.74371
11.007372 -166.35291 734.56622
11.33553 -166.37434 734.65991
11.661542 -166.36395 734.61304
11.986582 -166.34065 734.50916
12.311775 -166.32065 734.4198
12.637956 -166.31468 734.3924
12.964738 -166.31674 734.40033
13.288505 -166.28096 734.24121
13.608858 -166.20522 733.90558
13.934482 -166.19588 733.8631
14.258815 -166.17192 733.7561
14.583601 -166.15419 733.67651
14.906134 -166.11212 733.4895
15.23094 -166.09668 733.41992
15.555201 -166.07603 733.32739
15.88024 -166.06441 733.27466
16.204914 -166.04948 733.20734
16.526033 -165.99942 732.98486
16.848574 -165.96532 732.83276
17.175093 -165.97098 732.8562
46.445732 -163.45074 721.45654
46.763954 -163.44109 721.40948
47.078545 -163.41895 721.30731
47.3894 -163.38422 721.1496
47.706852 -163.37253 721.09357
48.024338 -163.36115 721.03876
48.339039 -163.34047 720.94305
48.652859 -163.31714 720.83551
48.963947 -163.28499 720.68903
49.280853 -163.27254 720.62939
49.588779 -163.2307 720.44006
49.906631 -163.22185 720.39636
50.222816 -163.20767 720.3291
50.535843 -163.18352 720.21771
50.84721 -163.15433 720.08411
51.163795 -163.14214 720.02551
51.482899 -163.13806 720.00275
51.804161 -163.14087 720.01025
57.684834 -162.55879 717.34363
57.99831 -162.54265 717.26697
58.314682 -162.53474 717.22662
58.633129 -162.5327 717.2121
58.954948 -162.53996 717.23859
59.282211 -162.56207 717.33063
59.609203 -162.58322 717.41833
59.934864 -162.60051 717.48901
60.263306 -162.62512 717.59204
3.8339477 -166.63072 737.26996
4.161921 -166.63411 737.28473
4.4899111 -166.63763 737.29999
4.8175097 -166.62714 737.25323
5.1452065 -166.62117 737.2265
5.4719176 -166.58589 737.07007
5.7993536 -166.57542 737.02332
6.1264825 -166.55775 736.9447
6.4526291 -166.51651 736.76178
6.7796474 -166.50067 736.69116
7.1052914 -166.4541 736.48456
7.4316864 -166.42845 736.37048
7.7591786 -166.4285 736.37012
8.0859528 -166.41377 736.30432
8.4110298 -166.36662 736.09503
8.7360735 -166.32237 735.89856
9.0596972 -166.25526 735.60089
9.3844166 -166.21223 735.40973
9.7133389 -166.24402 735.54962
10.041177 -166.25581 735.60095
10.36471 -166.19781 735.34351
10.685966 -166.10797 734.94513
11.009929 -166.0643 734.75098
11.33453 -166.0325 734.60931
11.661013 -166.02927 734.59399
11.986789 -166.01643 734.53619
12.311911 -165.99544 734.44226
12.63795 -165.98758 734.40643
12.962809 -165.96503 734.30554
13.287601 -165.94272 734.20569
13.609166 -165.88219 733.93671
13.934746 -165.87225 733.89154
14.259817 -165.85686 733.8222
14.584772 -165.84085 733.75006
14.907062 -165.7959 733.54987
15.230624 -165.76671 733.41943
15.553857 -165.73524 733.27881
15.878304 -165.71776 733.20001
16.203886 -165.71255 733.1756
16.527361 -165.68643 733.05859
16.849289 -165.64612 732.87872
17.172522 -165.61993 732.76135
17.498854 -165.62405 732.77802
46.129616 -163.14693 721.55255
46.446327 -163.13176 721.48114
46.762966 -163.11656 721.40955
47.077988 -163.09598 721.31409
47.39476 -163.08171 721.24652
47.70747 -163.05374 721.11835
48.024124 -163.03951 721.0509
48.336189 -163.01001 720.91589
48.649654 -162.9856 720.80341
48.959023 -162.94785 720.63184
49.277447 -162.94055 720.59497
49.589226 -162.91151 720.46191
49.904522 -162.89433 720.38123
50.218803 -162.87408 720.28693
50.531536 -162.84908 720.17163
50.84692 -162.8329 720.09534
51.162521 -162.81761 720.02289
51.478645 -162.80418 719.95868
51.802391 -162.81487 720.00104
57.688625 -162.25015 717.40607
58.003815 -162.23877 717.35028
58.31739 -162.22304 717.27527
58.633656 -162.2149 717.23383
58.954632 -162.21982 717.25
59.28413 -162.248 717.36908
59.611012 -162.26877 717.45532
59.933262 -162.27679 717.48517
4.1618438 -166.30182 737.28149
4.4897256 -166.30165 737.28046
4.8174434 -166.29585 737.25439
5.1453409 -166.2966 737.25739
5.4723244 -166.26949 737.13678
5.7987046 -166.22813 736.95306
6.1258211 -166.21121 736.87756
6.4520702 -166.17363 736.71051
6.7788258 -166.15211 736.61462
7.1050849 -166.12099 736.47607
7.431756 -166.10182 736.3905
7.7585239 -166.0863 736.32117
8.0848465 -166.06294 736.21692
8.4111471 -166.04095 736.11877
8.7376966 -166.02533 736.04883
9.0619259 -165.96835 735.79547
9.3861952 -165.91606 735.56287
9.7116833 -165.88809 735.43811
10.03838 -165.88193 735.40997
10.363347 -165.84848 735.2608
10.688456 -165.81927 735.13043
11.012817 -165.78056 734.95789
11.336481 -165.73386 734.74994
11.660791 -165.69899 734.5943
11.986115 -165.67999 734.50909
12.311472 -165.66248 734.43042
12.637056 -165.64885 734.3689
12.962225 -165.6306 734.28687
13.286611 -165.60349 734.16553
13.610999 -165.5777 734.05005
13.935081 -165.54948 733.92377
14.260454 -165.53755 733.86963
14.584964 -165.51634 733.77435
14.907099 -165.46973 733.56635
15.231929 -165.45436 733.49689
15.553938 -165.40967 733.29736
15.877095 -165.37875 733.15894
16.202686 -165.3739 733.13605
16.52762 -165.36272 733.0849
16.848391 -165.31108 732.85455
17.171989 -165.28864 732.75348
17.498159 -165.29131 732.76379
17.826056 -165.30989 732.8446
46.127998 -162.82008 721.54254
46.446667 -162.81189 721.50183
46.760063 -162.78542 721.38013
47.078121 -162.77545 721.33154
47.398918 -162.77499 721.32513
47.708542 -162.73643 721.14978
48.021721 -162.71046 721.03015
48.337605 -162.69392 720.95233
48.652336 -162.67375 720.8584
48.960873 -162.63329 720.67444
49.275829 -162.61452 720.58667
49.586746 -162.58273 720.44116
49.903904 -162.57172 720.38763
50.218803 -162.55351 720.30225
50.534237 -162.53726 720.22552
50.845608 -162.50824 720.0921
51.161354 -162.49345 720.02179
51.477238 -162.47931 719.95428
51.799206 -162.48442 719.97205
56.084003 -161.90677 717.34149
56.706779 -161.86211 717.133
57.052734 -161.93826 717.46509
57.369652 -161.93164 717.4303
57.687099 -161.92654 717.40234
58.004467 -161.9213 717.37366
58.31715 -161.90309 717.28748
58.636795 -161.90433 717.28748
58.957241 -161.90775 717.29706
59.289875 -161.94438 717.45386
59.614517 -161.95894 717.51276
59.933109 -161.957 717.49854
4.1617322 -165.96822 737.27228
4.4896502 -165.96979 737.27899
4.8172174 -165.95909 737.23114
5.1450887 -165.95953 737.23279
5.47223 -165.93782 737.13593
5.7989664 -165.90697 736.99847
6.1262379 -165.89391 736.94
6.4512129 -165.82315 736.62524
6.7785301 -165.81653 736.59528
7.1053367 -165.79861 736.51514
7.4318051 -165.7747 736.40839
7.7576752 -165.74005 736.25385
8.0847034 -165.73195 736.21722
8.4111977 -165.71394 736.1366
8.7379513 -165.70222 736.0838
9.0624542 -165.65022 735.85205
9.3887768 -165.63393 735.77893
9.7125216 -165.5748 735.51544
10.036712 -165.52686 735.30164
10.361812 -165.49646 735.16583
10.6881 -165.48634 735.12
11.013976 -165.47063 735.04926
11.336454 -165.40627 734.76239
11.66188 -165.38728 734.67712
11.987341 -165.36983 734.59851
12.312646 -165.35123 734.51483
12.636984 -165.32091 734.37909
12.962328 -165.30496 734.30713
13.286289 -165.2726 734.16217
13.611301 -165.25453 734.08081
13.935369 -165.22614 733.95343
14.260349 -165.20961 733.87878
14.585244 -165.19284 733.80304
14.906584 -165.13745 733.55566
15.232251 -165.13132 733.5271
15.55411 -165.08504 733.32013
15.877954 -165.06129 733.21326
16.200701 -165.02733 733.06097
16.526487 -165.02509 733.0495
16.848587 -164.98677 732.87787
17.171299 -164.95584 732.73889
17.497074 -164.95493 732.73328
17.824144 -164.96602 732.78101
45.814415 -162.52536 721.67932
46.130207 -162.50677 721.59241
46.445908 -162.48813 721.50531
46.762695 -162.47354 721.4361
47.079411 -162.45888 721.36658
47.395119 -162.44096 721.28259
47.70882 -162.41647 721.16937
48.024982 -162.4006 721.09442
48.339001 -162.37779 720.98853
48.651169 -162.34906 720.85645
48.962063 -162.31651 720.70728
49.279537 -162.30605 720.65619
49.587917 -162.26595 720.47345
49.904713 -162.25374 720.41461
50.21701 -162.22716 720.29187
50.535339 -162.22028 720.25653
50.845158 -162.18633 720.10101
51.161301 -162.17285 720.03638
51.475601 -162.15373 719.94672
51.793201 -162.14519 719.90387
52.108898 -162.13083 719.83527
54.859131 -161.74069 718.0578
55.203892 -161.8147 718.38116
55.493202 -161.72626 717.98334
55.808834 -161.71509 717.92847
56.122871 -161.69946 717.85382
56.42226 -161.64204 717.59363
56.741749 -161.64253 717.59052
57.064678 -161.65277 717.63055
57.378307 -161.63669 717.55377
57.687138 -161.60733 717.41803
58.003357 -161.59889 717.37512
58.318459 -161.58745 717.31885
58.642422 -161.60054 717.37146
58.962379 -161.60254 717.37476
59.296738 -161.64374 717.55212
59.623386 -161.66362 717.63477
59.931618 -161.63361 717.49591
4.1616302 -165.63499 737.26465
4.4893947 -165.6313 737.24792
4.8170762 -165.62527 737.22083
5.1449642 -165.62665 737.22656
5.4721503 -165.60663 737.13708
5.7989297 -165.57726 737.00592
6.1262417 -165.56541 736.95282
6.4507589 -165.48311 736.58594
6.7787662 -165.49394 736.63367
7.1057849 -165.48076 736.57446
7.4315219 -165.4402 736.39337
7.7578182 -165.41501 736.28064
8.0845747 -165.40125 736.21875
8.4109945 -165.38197 736.13226
8.737915 -165.37361 736.09436
9.0621195 -165.31628 735.83844
9.388689 -165.30463 735.78577
9.7117977 -165.23483 735.47437
10.035544 -165.18011 735.22998
10.362931 -165.18689 735.25928
10.687984 -165.15715 735.12604
11.014108 -165.14528 735.0722
11.336869 -165.08508 734.80341
11.662625 -165.07068 734.73822
11.987713 -165.04784 734.63556
12.312561 -165.02301 734.52405
12.63736 -164.99881 734.41522
12.962253 -164.97705 734.31726
13.286474 -164.94801 734.18683
13.611102 -164.92531 734.08459
13.93726 -164.92175 734.06757
14.260284 -164.88214 733.89001
14.584446 -164.85715 733.77753
14.907197 -164.81766 733.60046
15.23203 -164.80238 733.53113
15.554319 -164.76082 733.34473
15.87701 -164.72513 733.18445
16.201342 -164.70753 733.10474
16.52527 -164.68661 733.01019
16.848137 -164.65616 732.87311
17.169333 -164.61082 732.6698
17.49522 -164.61133 732.67047
17.82127 -164.6133 732.67767
45.505451 -162.24733 721.89081
45.821819 -162.23041 721.81116
46.138695 -162.21548 721.74048
46.44775 -162.17349 721.54926
46.763283 -162.15453 721.46045
47.080433 -162.14139 721.39758
47.395798 -162.1223 721.30823
47.708118 -162.09314 721.17401
48.026695 -162.08549 721.1355
48.341328 -162.06471 721.03845
48.652649 -162.03319 720.89368
48.964012 -162.00221 720.75122
49.281097 -161.99045 720.69421
49.590309 -161.95311 720.5235
49.906067 -161.93752 720.4494
50.215218 -161.9008 720.28137
50.532768 -161.89149 720.23517
50.845669 -161.86748 720.12354
51.157402 -161.84006 719.99677
51.473072 -161.82536 719.92657
51.789032 -161.81177 719.86121
52.103493 -161.79369 719.77582
52.42873 -161.80907 719.83936
54.862705 -161.43163 718.11981
55.203014 -161.4924 718.38501
55.517971 -161.47876 718.31903
55.819942 -161.42769 718.08667
56.132618 -161.408 717.99377
56.4338 -161.35565 717.75562
56.746098 -161.33553 717.66071
57.062687 -161.32773 717.62073
57.377319 -161.31453 717.55658
57.692318 -161.30251 717.49768
58.007416 -161.29086 717.44049
58.322479 -161.2793 717.38348
58.644051 -161.28572 717.40662
58.963619 -161.28662 717.40503
59.300602 -161.33487 717.61407
59.623058 -161.34331 717.646
59.941452 -161.34071 717.62885
4.161447 -165.29857 737.24268
4.4893794 -165.3017 737.25635
4.8169851 -165.29321 737.21814
5.144783 -165.29195 737.21216
5.4722142 -165.27977 737.15753
5.7990713 -165.25264 737.03607
6.1263494 -165.23975 736.97809
6.4519644 -165.18558 736.73608
6.77881 -165.16667 736.65118
7.1045084 -165.1228 736.45502
7.4311905 -165.10468 736.3736
7.7576175 -165.08264 736.27472
8.0840635 -165.06279 736.18555
8.4108667 -165.05148 736.13446
8.7372675 -165.03343 736.05328
9.0615721 -164.97852 735.80762
9.3881226 -164.9669 735.75507
9.7115564 -164.90315 735.46991
10.035549 -164.85272 735.2442
10.363538 -164.86905 735.31616
10.68748 -164.82201 735.10541
11.011966 -164.78584 734.94324
11.335994 -164.74513 734.76074
11.663063 -164.74969 734.78003
11.98858 -164.73264 734.70294
12.312999 -164.70181 734.56445
12.637578 -164.67467 734.44232
12.961582 -164.64159 734.29364
13.286174 -164.61742 734.18469
13.611488 -164.60315 734.11987
13.936374 -164.58449 734.0354
14.259918 -164.55119 733.88568
14.584188 -164.52756 733.77905
14.907537 -164.49483 733.63177
15.232234 -164.47806 733.5556
15.553156 -164.42207 733.30457
15.875982 -164.38811 733.15167
16.201277 -164.38055 733.11652
16.525572 -164.36336 733.03839
16.849138 -164.33971 732.9314
17.169863 -164.28978 732.70721
17.495274 -164.28571 732.6875
17.819481 -164.27071 732.61896
18.145105 -164.26906 732.61005
45.188644 -161.94165 721.97974
45.50605 -161.92822 721.91559
45.823299 -161.91444 721.84985
46.136047 -161.88503 721.71436
46.448357 -161.85451 721.57397
46.768272 -161.85074 721.55273
47.080795 -161.82159 721.4184
47.397945 -161.80864 721.3562
47.712429 -161.78683 721.25446
48.02726 -161.76646 721.15918
48.340973 -161.74266 721.04846
48.652168 -161.71078 720.90179
48.963932 -161.6812 720.76532
49.278343 -161.66069 720.66925
49.586613 -161.62042 720.48511
49.905102 -161.61377 720.45074
50.216183 -161.58337 720.31049
50.531002 -161.56532 720.22522
50.843739 -161.54086 720.11145
51.154289 -161.50981 719.9682
51.46986 -161.49489 719.89685
51.787064 -161.48528 719.84912
52.09882 -161.45886 719.72644
52.418991 -161.45871 719.72089
52.726276 -161.41913 719.53943
53.047272 -161.42171 719.54596
53.388462 -161.48535 719.82465
53.68063 -161.40085 719.44293
54.203442 -161.052 717.87781
54.524281 -161.05621 717.89142
54.861828 -161.10945 718.12354
55.199905 -161.1636 718.35974
55.512341 -161.14272 718.26141
55.81432 -161.09186 718.02948
56.125744 -161.06871 717.92102
56.436665 -161.04437 717.80725
56.75106 -161.03018 717.73865
57.06665 -161.01952 717.68573
57.377174 -160.99475 717.56995
57.696522 -160.99489 717.56512
58.012486 -160.98563 717.51843
58.323563 -160.96298 717.41199
58.644272 -160.96703 717.4245
58.968334 -160.98018 717.4776
59.30365 -161.02376 717.6662
59.624043 -161.02654 717.67303
59.938576 -161.01355 717.60956
4.1612206 -164.96046 737.21295
4.4890132 -164.95921 737.20709
4.8168893 -164.96098 737.21466
5.1446457 -164.95869 737.2041
5.4719491 -164.94304 737.13373
5.7990532 -164.92348 737.0459
6.1262288 -164.90791 736.97595
6.453413 -164.89418 736.91406
6.7787824 -164.83763 736.66083
7.1040831 -164.7847 736.42377
7.4308705 -164.76941 736.35486
7.7573028 -164.74786 736.258
8.0841646 -164.73683 736.20801
8.4108438 -164.72307 736.14587
8.7373018 -164.70618 736.06964
9.0621214 -164.66071 735.86578
9.3873186 -164.62506 735.70569
9.7117205 -164.57834 735.49609
10.035272 -164.52071 735.23767
10.361054 -164.50215 735.15393
10.687533 -164.49544 735.12305
11.012601 -164.46805 734.99969
11.336789 -164.42949 734.82642
11.662851 -164.41951 734.78082
11.988171 -164.39987 734.69208
12.312379 -164.36647 734.54175
12.636803 -164.33759 734.41156
