ply
format ascii 1.0
comment PCL generated
element vertex 1545
property float x
property float y
property float z
element camera 0
property float view_px
property float view_py
property float view_pz
property float x_axisx
property float x_axisy
property float x_axisz
property float y_axisx
property float y_axisy
property float y_axisz
property float z_axisx
property float z_axisy
property float z_axisz
property float focal
property float scalex
property float scaley
property float centerx
property float centery
property int viewportx
property int viewporty
property float k1
property float k2
end_header
2.9956751 -146.81558 695.20135
3.304312 -146.80132 695.13367
3.6126938 -146.77916 695.02844
3.9206917 -146.74611 694.8717
4.2288203 -146.72243 694.75934
4.5367856 -146.69667 694.63708
4.8451366 -146.68588 694.58569
5.153091 -146.6651 694.48694
5.4604301 -146.63016 694.32104
5.7679372 -146.60321 694.19305
6.0761395 -146.59578 694.15741
6.3835487 -146.57086 694.03894
6.6913757 -146.55739 693.97461
6.9986577 -146.53372 693.86194
7.3048482 -146.49011 693.65491
7.6126256 -146.48061 693.60925
7.9192386 -146.45032 693.46515
8.2266607 -146.43668 693.39996
8.5328188 -146.40234 693.23663
8.8413696 -146.41 693.27222
9.1475744 -146.37962 693.12762
9.4512911 -146.31271 692.81
9.7632513 -146.37361 693.09753
21.631615 -145.40157 688.4389
21.937296 -145.3996 688.42755
22.23992 -145.37769 688.32178
22.546383 -145.38115 688.336
22.842695 -145.31995 688.04407
23.144608 -145.29547 687.92609
23.443054 -145.25021 687.70959
23.743416 -145.21779 687.55389
24.044209 -145.18883 687.41449
24.345251 -145.16208 687.28552
24.647373 -145.14233 687.18976
24.948616 -145.11795 687.07202
25.249475 -145.092 686.94672
25.548447 -145.05591 686.7735
25.853741 -145.05614 686.77216
26.151028 -145.01199 686.56067
26.451794 -144.98792 686.44421
26.755192 -144.97865 686.39783
27.05546 -144.95285 686.27307
27.354597 -144.92162 686.12262
27.65554 -144.90053 686.0202
27.954647 -144.87039 685.87488
28.25528 -144.84872 685.76959
28.556671 -144.83138 685.68475
28.854664 -144.79732 685.52081
29.147686 -144.7393 685.24341
29.436272 -144.66069 684.86841
29.730375 -144.61052 684.62811
30.038982 -144.6312 684.72314
30.347439 -144.65074 684.81281
30.662514 -144.70116 685.04852
30.96217 -144.6785 684.93835
31.271318 -144.70023 685.03827
31.573751 -144.69075 684.99042
31.874577 -144.67415 684.90881
32.166187 -144.61647 684.63263
32.459606 -144.56789 684.3996
32.758831 -144.54584 684.29211
33.051666 -144.49626 684.05426
33.347355 -144.45995 683.87915
33.646755 -144.44022 683.78259
33.946129 -144.42076 683.68719
34.243973 -144.39517 683.56281
34.542976 -144.37488 683.46344
34.842705 -144.35796 683.38
35.14172 -144.33838 683.284
35.440819 -144.31947 683.19116
35.736687 -144.28786 683.03809
36.035942 -144.27036 682.95178
36.333244 -144.24536 682.83002
36.623978 -144.19493 682.58777
36.926476 -144.19128 682.56696
37.229431 -144.18945 682.55475
37.5224 -144.14928 682.36102
37.817406 -144.11752 682.20709
38.111465 -144.0827 682.03857
38.41148 -144.07074 681.97833
38.711491 -144.05898 681.91895
39.009521 -144.04007 681.82574
39.305153 -144.01268 681.69232
39.604263 -143.99834 681.62067
39.900558 -143.97408 681.50201
40.196457 -143.94875 681.37823
40.477619 -143.87143 681.00836
40.778625 -143.86526 680.97534
41.08147 -143.86562 680.97308
41.374401 -143.83151 680.80768
41.670528 -143.80894 680.69684
41.970642 -143.80032 680.6521
42.262825 -143.76489 680.48029
42.55999 -143.74677 680.39044
42.858639 -143.73389 680.32538
43.153107 -143.70726 680.19519
43.451092 -143.69263 680.12177
43.746319 -143.66914 680.00647
44.042984 -143.65068 679.91486
44.339249 -143.63116 679.81824
44.629677 -143.59312 679.63397
44.930359 -143.58838 679.60718
45.223133 -143.55859 679.46191
45.515781 -143.52881 679.31653
45.813213 -143.5144 679.24396
46.109493 -143.4966 679.15527
46.403805 -143.47293 679.03882
46.699642 -143.45427 678.94604
46.993847 -143.43086 678.83075
47.295681 -143.43088 678.82635
47.597672 -143.43138 678.82416
47.903038 -143.44197 678.86969
0.83365953 -146.62289 695.76801
1.142858 -146.62228 695.76514
1.451956 -146.61179 695.71533
1.7610325 -146.6032 695.67456
2.0701196 -146.59792 695.64948
2.3790128 -146.58208 695.57422
2.6874981 -146.54765 695.41071
2.9960005 -146.52115 695.28479
3.3046632 -146.50671 695.21613
3.6127112 -146.46982 695.04089
3.9210162 -146.44835 694.93878
4.2289934 -146.41867 694.79761
4.5369196 -146.39139 694.66785
4.8452907 -146.38101 694.61829
5.1530595 -146.35478 694.49347
5.460659 -146.32697 694.36108
5.7683215 -146.30376 694.25055
6.0759993 -146.28325 694.15277
6.3833466 -146.25716 694.02844
6.6911321 -146.24304 693.961
6.9989595 -146.23108 693.90363
7.3058076 -146.2005 693.758
7.613245 -146.18372 693.67773
7.9198923 -146.15367 693.53448
8.2274323 -146.14172 693.47711
8.5346308 -146.12482 693.39618
8.8413343 -146.10088 693.28186
24.04352 -144.879 687.40851
24.342619 -144.84077 687.22485
25.854021 -144.75233 686.79333
26.149979 -144.7009 686.54681
26.449671 -144.67108 686.40283
26.752007 -144.65622 686.32983
27.055328 -144.64699 686.28351
27.358173 -144.63542 686.22601
27.658875 -144.61292 686.11664
27.952183 -144.55266 685.82812
28.25169 -144.52542 685.69617
28.55316 -144.50871 685.6142
28.854841 -144.49339 685.53882
29.154411 -144.46794 685.41528
29.43132 -144.33188 684.76697
29.728128 -144.29521 684.59015
30.036524 -144.31493 684.68091
30.342728 -144.32384 684.72028
30.658916 -144.37959 684.98187
31.266056 -144.37131 684.93671
31.574118 -144.38785 685.01215
31.873518 -144.36481 684.89984
32.16761 -144.31841 684.67664
32.457623 -144.25476 684.37158
32.756691 -144.23213 684.26117
33.052807 -144.19705 684.09161
33.350151 -144.16795 683.95032
33.650135 -144.15067 683.86511
33.948486 -144.12675 683.74847
34.242146 -144.08353 683.5401
34.541332 -144.06412 683.44476
34.841866 -144.0506 683.37732
35.141945 -144.03548 683.30219
35.43961 -144.01079 683.1817
35.740955 -144.00134 683.13354
36.038254 -143.97591 683.00934
36.332645 -143.93936 682.83258
36.626965 -143.90315 682.65729
36.926079 -143.88622 682.57343
37.223831 -143.86429 682.46588
37.51791 -143.82866 682.29321
37.816486 -143.81067 682.20428
38.112793 -143.78442 682.07617
38.41399 -143.77687 682.03668
38.71088 -143.75348 681.922
39.011082 -143.74263 681.86682
39.307178 -143.71695 681.74121
39.605576 -143.7 681.65704
39.904503 -143.68523 681.58313
40.196747 -143.64679 681.39697
40.482796 -143.58694 681.10925
40.779232 -143.56458 680.99921
41.075706 -143.54266 680.89136
41.373779 -143.52661 680.81128
41.669968 -143.50432 680.70148
41.970715 -143.49791 680.66711
42.262901 -143.46254 680.4953
42.560596 -143.44624 680.41394
42.856892 -143.42549 680.3114
43.150768 -143.397 680.17212
43.449978 -143.38651 680.11816
43.746082 -143.36598 680.0166
44.041584 -143.34377 679.90704
44.339592 -143.32994 679.83722
44.634186 -143.30537 679.71643
44.929459 -143.28328 679.60736
45.223534 -143.25771 679.48169
45.514069 -143.22131 679.30475
45.815273 -143.21877 679.28827
46.110786 -143.19858 679.18811
46.406651 -143.17972 679.09424
46.702358 -143.16064 678.99927
46.994297 -143.13033 678.85095
47.298935 -143.13884 678.88678
47.604137 -143.14893 678.93005
47.910503 -143.16237 678.98926
48.214428 -143.16841 679.01324
48.518543 -143.17491 679.03943
0.83360308 -146.29869 695.71124
1.1427655 -146.29753 695.70575
1.4519328 -146.29735 695.7049
1.7609873 -146.28789 695.65985
2.0699897 -146.27756 695.61072
2.378973 -146.26875 695.56873
2.6879013 -146.25897 695.52209
2.9963515 -146.22791 695.37421
3.3047903 -146.20212 695.2514
3.6130469 -146.17339 695.11456
3.9206395 -146.12442 694.88147
4.2289577 -146.10768 694.80164
4.5370898 -146.08725 694.70416
4.845037 -146.06381 694.59241
5.1528544 -146.03955 694.47662
5.4613652 -146.03653 694.46191
5.7689815 -146.01122 694.34106
6.0763431 -145.98235 694.20337
6.383122 -145.94296 694.01556
6.6913409 -145.93861 693.99432
6.9987493 -145.91774 693.89453
7.3062015 -145.89951 693.80725
7.6137142 -145.88391 693.73248
7.9202838 -145.85216 693.58087
8.2280827 -145.84459 693.54419
8.5354853 -145.83078 693.47784
27.360609 -144.34314 686.30084
27.663713 -144.33307 686.25037
27.952845 -144.25113 685.85809
28.250465 -144.21428 685.68024
28.551109 -144.19348 685.57867
28.855999 -144.19434 685.58002
29.151693 -144.14972 685.36511
29.430115 -144.0215 684.75262
29.729626 -143.99805 684.63831
30.035679 -144.00642 684.67535
30.340933 -144.01086 684.69354
30.654808 -144.05571 684.90387
30.969147 -144.10184 685.12024
31.265734 -144.06526 684.94342
31.572943 -144.07788 685.00037
31.873514 -144.06027 684.91357
32.169838 -144.02396 684.73785
32.462139 -143.97047 684.48059
32.754135 -143.91666 684.22156
33.047932 -143.87166 684.00446
33.35257 -143.87425 684.01367
33.650101 -143.84644 683.87817
33.948071 -143.82095 683.75378
34.242714 -143.78197 683.56519
34.54213 -143.76352 683.47424
34.840435 -143.74084 683.36304
35.141788 -143.73099 683.31287
35.439236 -143.70549 683.18823
35.74337 -143.70729 683.19342
36.041279 -143.68427 683.08051
36.335175 -143.64574 682.89392
36.633568 -143.62549 682.79413
36.932209 -143.60654 682.7005
37.223881 -143.56102 682.48053
37.514641 -143.51274 682.2475
37.819046 -143.51704 682.26428
38.113503 -143.48378 682.10254
38.411919 -143.46587 682.01367
38.712307 -143.45554 681.96088
39.012741 -143.44553 681.90961
39.311226 -143.42857 681.8252
39.606785 -143.40128 681.69165
39.901817 -143.37248 681.55103
40.192482 -143.32858 681.33844
40.487888 -143.30211 681.20874
40.78212 -143.2719 681.06122
41.075821 -143.24028 680.90698
41.37336 -143.22243 680.81812
41.669739 -143.20084 680.71149
41.967125 -143.18298 680.62262
42.262615 -143.15897 680.50446
42.55859 -143.13693 680.39563
42.856388 -143.12128 680.31714
43.150928 -143.09508 680.18842
43.448551 -143.07938 680.10962
43.745895 -143.06297 680.02747
44.041973 -143.04268 679.92682
44.339813 -143.02835 679.85449
44.634968 -143.0056 679.74207
44.930092 -142.98308 679.63068
45.221191 -142.94814 679.46021
45.515068 -142.92238 679.33344
45.815285 -142.91673 679.30219
46.112923 -142.90315 679.23328
46.406075 -142.87596 679.09955
46.703636 -142.86261 679.03162
46.997845 -142.83922 678.91595
47.302494 -142.84769 678.95166
47.606731 -142.85478 678.98083
47.913128 -142.86824 679.04022
48.216919 -142.87381 679.06207
48.52005 -142.87737 679.07428
1.1426682 -145.97226 695.64349
1.451836 -145.97556 695.6593
1.7609206 -145.97084 695.63672
2.0699303 -145.96223 695.5957
2.3789093 -145.95398 695.55627
2.6878734 -145.94684 695.52209
2.9965475 -145.92703 695.42755
3.3051701 -145.90868 695.3399
3.613019 -145.8622 695.11823
3.9210234 -145.82884 694.95905
4.22929 -145.8094 694.86615
4.5369434 -145.7729 694.69189
4.8450599 -145.75499 694.6062
5.1530786 -145.73647 694.51752
5.4614429 -145.72925 694.48273
5.768537 -145.69072 694.29871
6.07586 -145.66161 694.15955
6.3831916 -145.6355 694.03461
6.6915884 -145.63499 694.03168
6.9989219 -145.6124 693.9234
7.3064656 -145.5959 693.84424
7.6144032 -145.58827 693.80725
7.9212914 -145.56195 693.68121
8.2286692 -145.54628 693.60583
27.965405 -144.01083 686.17993
28.247099 -143.89226 685.61224
28.550127 -143.8837 685.56879
28.853409 -143.8766 685.53223
29.149532 -143.83432 685.328
29.429363 -143.71336 684.74884
29.728075 -143.68614 684.61633
30.033316 -143.69069 684.63519
30.340004 -143.70201 684.68628
30.648287 -143.72058 684.77185
30.960249 -143.75591 684.93713
31.261694 -143.74214 684.86865
31.571918 -143.76865 684.99188
31.86927 -143.73657 684.83606
32.17057 -143.72276 684.76721
32.459419 -143.65408 684.43689
32.756466 -143.62263 684.28394
33.047592 -143.56606 684.01123
33.351658 -143.56619 684.00873
33.64975 -143.54086 683.88483
33.946354 -143.50969 683.73303
34.242802 -143.47841 683.58075
34.542801 -143.46242 683.50128
34.843525 -143.44971 683.43738
35.143291 -143.4333 683.3559
35.442989 -143.41692 683.27441
35.744835 -143.40939 683.23523
36.042698 -143.38618 683.12115
36.340012 -143.36119 682.9986
36.642433 -143.35658 682.97314
36.94083 -143.33644 682.87366
37.229691 -143.27991 682.60083
37.525959 -143.25259 682.4671
37.818829 -143.21284 682.27411
38.110325 -143.16856 682.05951
38.410213 -143.15625 681.99719
38.709946 -143.14357 681.93304
39.011211 -143.1367 681.89661
39.309868 -143.12044 681.81537
39.607746 -143.10164 681.72198
39.901134 -143.067 681.55316
40.196373 -143.03946 681.41815
40.49181 -143.01305 681.28845
40.781643 -142.96739 681.06702
41.07505 -142.93481 680.90796
41.371948 -142.91481 680.80865
41.668552 -142.89406 680.70581
41.966003 -142.87651 680.61823
42.263557 -142.85956 680.53339
42.560162 -142.83966 680.43451
42.856026 -142.81757 680.3252
43.149158 -142.78676 680.17426
43.445862 -142.7681 680.08124
43.744686 -142.75662 680.02234
44.040344 -142.73505 679.91534
44.337406 -142.71828 679.83124
44.631683 -142.69283 679.70575
44.927006 -142.67107 679.59772
45.219982 -142.64217 679.45581
45.51498 -142.62 679.34583
45.815453 -142.61517 679.31842
46.112041 -142.59837 679.23401
46.407085 -142.57707 679.12805
46.70602 -142.5679 679.07996
47.007225 -142.56575 679.06519
47.308994 -142.56534 679.05865
47.606487 -142.55211 678.99109
47.911282 -142.56076 679.02771
48.218182 -142.57555 679.09351
48.521896 -142.5808 679.11383
1.1426473 -145.65678 695.62775
1.4517658 -145.65648 695.62634
1.7608424 -145.65286 695.60901
2.0698502 -145.64548 695.57367
2.37886 -145.64012 695.54803
2.6877837 -145.63135 695.50598
2.9965258 -145.61555 695.43042
3.3053 -145.60414 695.37573
3.6135614 -145.57402 695.23169
3.9212286 -145.5266 695.00494
4.2297397 -145.51512 694.94989
4.537262 -145.47351 694.75085
4.8452759 -145.45197 694.64764
5.1533895 -145.43581 694.57013
5.4605508 -145.39613 694.38025
5.7679524 -145.36676 694.2395
6.0755625 -145.34535 694.13684
6.3829231 -145.32033 694.01685
6.6914759 -145.32353 694.03156
6.9986076 -145.29694 693.90399
7.3061571 -145.28087 693.82678
7.6146598 -145.28432 693.84259
7.922328 -145.2722 693.78406
8.2300272 -145.26154 693.73242
28.548292 -143.56964 685.53839
28.851065 -143.56013 685.49023
29.150143 -143.53261 685.35602
29.433661 -143.42984 684.86255
29.729513 -143.38867 684.66315
30.03541 -143.39629 684.69659
30.335636 -143.37694 684.60138
30.642632 -143.38966 684.65924
30.950798 -143.40756 684.74176
31.262091 -143.43945 684.89105
31.562771 -143.42252 684.80713
31.866119 -143.41791 684.7821
32.170353 -143.41731 684.77625
32.456951 -143.33887 684.39862
32.758831 -143.32874 684.34711
33.048824 -143.26726 684.05042
33.354012 -143.27217 684.07074
33.651176 -143.24284 683.92749
33.949112 -143.21732 683.80231
34.246964 -143.19185 683.67749
34.544926 -143.16731 683.55701
34.845474 -143.15382 683.48932
35.145935 -143.14023 683.42102
35.449699 -143.1402 683.41748
35.752132 -143.13483 683.38843
36.047535 -143.10164 683.22656
36.350834 -143.1001 683.2157
36.653568 -143.09636 683.1944
36.951942 -143.07582 683.09277
37.23304 -142.98927 682.67603
37.53228 -142.97322 682.59576
37.830055 -142.9519 682.49036
38.108521 -142.85852 682.04089
38.409389 -142.84995 681.99628
38.708336 -142.83441 681.9184
39.008789 -142.82465 681.86804
39.308758 -142.81325 681.80988
39.606846 -142.79526 681.72021
39.902714 -142.76959 681.59387
40.194897 -142.73123 681.40686
40.490902 -142.70691 681.28687
40.783783 -142.67204 681.11646
41.076031 -142.63547 680.93799
41.371517 -142.61061 680.81531
41.665806 -142.58199 680.67468
41.965473 -142.57207 680.62329
42.2617 -142.55069 680.51721
42.558929 -142.53296 680.42853
42.855782 -142.51424 680.33502
43.148708 -142.4828 680.18085
43.446922 -142.46918 680.11157
43.743553 -142.45053 680.01843
44.039589 -142.43027 679.91742
44.331738 -142.39778 679.75806
44.627674 -142.37781 679.65845
44.929947 -142.37817 679.65594
45.223015 -142.34958 679.51508
45.51672 -142.32335 679.3855
45.816025 -142.31485 679.34058
46.113735 -142.30157 679.27271
46.412346 -142.2912 679.21875
46.712494 -142.28564 679.18774
47.014023 -142.28435 679.17706
47.310757 -142.26865 679.0976
47.612728 -142.26881 679.09381
47.916424 -142.27408 679.11432
48.226624 -142.29849 679.2262
1.4515808 -145.32599 695.53851
1.760674 -145.32747 695.54559
2.0698035 -145.3311 695.56287
2.3787963 -145.32541 695.53558
2.6876473 -145.31339 695.47784
2.9964111 -145.29959 695.41174
3.3052082 -145.28986 695.36493
3.6137457 -145.27135 695.27618
3.9216239 -145.23134 695.08447
4.2298737 -145.20995 694.98175
4.5375714 -145.17378 694.80841
4.8455043 -145.14929 694.69086
5.1532545 -145.12257 694.56262
5.4605436 -145.08664 694.39026
5.7677488 -145.05244 694.22614
6.0757632 -145.04103 694.17108
6.3833117 -145.02014 694.07056
6.6911402 -145.00725 694.00836
6.9988136 -144.99228 693.93616
7.3066592 -144.98198 693.88629
7.614686 -144.97597 693.85693
7.9233737 -144.98253 693.8877
8.23137 -144.97641 693.85773
28.846708 -143.23372 685.40039
29.136831 -143.16249 685.05676
29.434563 -143.12973 684.89722
29.734499 -143.10826 684.79163
30.038023 -143.10429 684.76984
30.336262 -143.07552 684.62921
30.641773 -143.08125 684.65375
30.949041 -143.09499 684.71655
31.261934 -143.13422 684.90131
31.553425 -143.07567 684.6181
31.86631 -143.1143 684.79993
32.172535 -143.12256 684.83643
32.457485 -143.03693 684.42352
32.764179 -143.04782 684.47253
33.054207 -142.9864 684.17554
33.355145 -142.97287 684.1076
33.651249 -142.93907 683.94269
33.949574 -142.91521 683.82526
34.249306 -142.89767 683.73804
34.54826 -142.87718 683.63678
34.850525 -142.87065 683.60211
35.151203 -142.85777 683.53717
35.45892 -142.87347 683.60895
35.763512 -142.87643 683.61969
36.060265 -142.84828 683.48151
36.364689 -142.85075 683.48987
36.683105 -142.90767 683.75867
37.835701 -142.66972 682.6059
38.126041 -142.6208 682.36823
38.410545 -142.55099 682.03052
38.706818 -142.52562 681.9054
39.007481 -142.51668 681.85889
39.304794 -142.49571 681.75482
39.60498 -142.48541 681.70178
39.896198 -142.44327 681.49628
40.190845 -142.41388 681.35187
40.490078 -142.40109 681.28674
40.77914 -142.35297 681.05261
41.07262 -142.32086 680.89508
41.369419 -142.30066 680.79443
41.66671 -142.28242 680.70319
41.965225 -142.26859 680.633
42.259007 -142.23903 680.48755
42.558907 -142.23033 680.44183
42.853527 -142.20424 680.31293
43.145397 -142.16946 680.1424
43.445251 -142.16129 680.09906
43.743328 -142.14745 680.02869
44.036064 -142.11656 679.87671
44.333477 -142.10107 679.7984
44.630985 -142.08614 679.7226
44.928455 -142.07126 679.64709
45.222324 -142.04524 679.51837
45.516346 -142.02008 679.39362
45.814705 -142.00868 679.33472
46.114647 -142.00233 679.29987
46.415092 -141.99757 679.27264
46.718342 -142.0014 679.2865
47.013645 -141.9812 679.18536
47.31332 -141.97437 679.14813
47.617313 -141.9805 679.17285
47.931587 -142.01701 679.3429
1.7605649 -145.00708 695.50574
2.0696352 -145.00822 695.51117
2.3786147 -145.00354 695.48859
2.687495 -144.99458 695.44556
2.9963942 -144.98839 695.41571
3.3050795 -144.97398 695.34637
3.613663 -144.95795 695.26929
3.9218712 -144.93057 695.13776
4.2298355 -144.89883 694.98529
4.5378003 -144.87146 694.85364
4.8457155 -144.84607 694.73157
5.1527877 -144.80005 694.51044
5.4610639 -144.79114 694.46735
5.7679496 -144.74831 694.26141
6.0757041 -144.73048 694.17554
6.3829541 -144.70299 694.04315
6.6910467 -144.69623 694.01019
6.9991088 -144.68944 693.97711
7.3068252 -144.67638 693.91388
7.6147108 -144.6676 693.87115
7.9239712 -144.68462 693.95209
8.2326946 -144.69089 693.98157
29.127073 -142.81006 684.84094
29.435148 -142.82806 684.9245
29.735601 -142.8091 684.83069
30.036659 -142.79337 684.75244
30.336887 -142.77406 684.65698
30.6402 -142.76953 684.63226
30.946167 -142.77731 684.66669
31.25843 -142.81372 684.83826
31.557297 -142.78879 684.71576
31.868752 -142.82076 684.86603
32.172501 -142.81795 684.84943
32.464413 -142.76311 684.58337
32.765678 -142.75002 684.51752
33.054573 -142.68381 684.19684
33.357819 -142.68016 684.17621
33.648685 -142.62413 683.9043
33.951962 -142.62122 683.88708
34.252369 -142.60641 683.81287
34.552238 -142.58966 683.72919
34.860119 -142.60596 683.80402
35.162342 -142.59904 683.76752
35.466915 -142.60168 683.77679
35.769104 -142.59477 683.74023
36.080849 -142.62576 683.88538
38.107368 -142.2477 682.04767
38.407711 -142.23726 681.9939
38.705853 -142.21889 681.9021
39.004215 -142.2016 681.81549
39.305927 -142.1967 681.78821
39.604855 -142.18187 681.71332
39.891491 -142.12349 681.42957
40.188988 -142.10439 681.33411
40.488129 -142.09132 681.26764
40.77739 -142.04407 681.03711
41.072128 -142.01642 680.90063
41.367947 -141.99289 680.78387
41.665138 -141.9744 680.69116
41.963009 -141.95845 680.61072
42.261044 -141.9433 680.534
42.555637 -141.9169 680.40332
42.850651 -141.89223 680.28094
43.145508 -141.8674 680.15778
43.442966 -141.85141 680.07697
43.741943 -141.84058 680.02081
44.038475 -141.82202 679.92761
44.33411 -141.80083 679.82178
44.630196 -141.78139 679.72424
44.929394 -141.772 679.67493
45.224659 -141.75041 679.56714
45.519001 -141.72624 679.4469
45.815983 -141.71057 679.36731
46.117645 -141.70947 679.35767
46.419075 -141.70769 679.3446
46.719303 -141.70226 679.31415
47.015503 -141.68478 679.22589
47.318851 -141.68893 679.24121
1.7605566 -144.69499 695.50562
2.0694296 -144.6828 695.44696
2.3784034 -144.67992 695.43298
2.6873314 -144.67523 695.41034
2.9960804 -144.66286 695.35071
3.3048222 -144.65251 695.30078
3.6134264 -144.6384 695.23279
3.9216595 -144.61284 695.10968
4.2298875 -144.59085 695.00372
4.5374475 -144.55057 694.80975
4.8457584 -144.53783 694.74817
5.1531348 -144.50038 694.56787
5.4605994 -144.46953 694.41913
5.7683263 -144.44853 694.31781
6.0753999 -144.41415 694.1521
6.3830509 -144.39615 694.06506
6.690917 -144.38446 694.00836
6.9989133 -144.37646 693.96942
7.3069682 -144.37032 693.93927
7.6150398 -144.36499 693.91302
7.924046 -144.37711 693.97064
29.42939 -142.49567 684.80408
29.732748 -142.49094 684.77856
30.03521 -142.48206 684.73303
30.339886 -142.48375 684.73828
30.639153 -142.46027 684.6225
30.943886 -142.4624 684.62982
31.254307 -142.49043 684.76154
31.861492 -142.48381 684.72369
32.169075 -142.49828 684.7901
32.463997 -142.45691 684.58826
32.765316 -142.44412 684.52362
33.060081 -142.40334 684.32452
33.364777 -142.40569 684.33258
33.654324 -142.34392 684.03253
33.958794 -142.34581 684.03839
34.263103 -142.34698 684.04077
34.565578 -142.34061 684.00684
34.878265 -142.37602 684.17371
35.184135 -142.38322 684.20496
35.483845 -142.3656 684.11688
35.785095 -142.3544 684.05963
39.005127 -141.90178 681.84509
39.299942 -141.87195 681.69806
39.598652 -141.85655 681.62024
39.891258 -141.81967 681.43921
40.185482 -141.78906 681.28827
40.483326 -141.77161 681.2005
40.778191 -141.74402 681.06409
41.07539 -141.72493 680.96838
41.369637 -141.696 680.82538
41.666172 -141.67526 680.72174
41.962132 -141.65288 680.61017
42.263306 -141.6483 680.58411
42.561718 -141.6346 680.51416
42.854939 -141.6039 680.36261
43.146797 -141.56921 680.19177
43.441025 -141.54271 680.06024
43.73967 -141.53085 679.99915
44.038864 -141.52094 679.94727
44.334446 -141.49963 679.84058
44.633373 -141.48921 679.78625
44.934868 -141.487 679.77136
45.229519 -141.46346 679.65381
45.526493 -141.4474 679.57233
45.82613 -141.4398 679.53143
46.124874 -141.42955 679.47778
2.0691545 -144.35262 695.35938
2.3781607 -144.35446 695.36816
2.6870232 -144.34816 695.33771
2.9958413 -144.341 695.3031
3.3046615 -144.3353 695.27545
3.6132281 -144.32045 695.20367
3.9214573 -144.29552 695.08331
4.2296147 -144.27179 694.96875
4.5370755 -144.22913 694.76294
4.8452954 -144.21451 694.6922
5.1529951 -144.18707 694.55969
5.460423 -144.15558 694.40759
5.7678642 -144.12779 694.27332
6.0752645 -144.10184 694.14783
6.3830371 -144.08682 694.07501
6.6909761 -144.07675 694.026
6.9989314 -144.06792 693.98285
7.3070316 -144.0627 693.95715
7.6155367 -144.06554 693.97021
7.9245944 -144.07822 694.03064
29.730089 -142.17377 684.7309
30.035341 -142.17825 684.74963
30.339891 -142.17935 684.75201
30.637062 -142.14619 684.58942
30.941336 -142.14632 684.58704
31.24991 -142.166 684.67883
31.56324 -142.20673 684.87201
32.161366 -142.15974 684.63965
32.463097 -142.14861 684.58289
32.764923 -142.13808 684.52905
33.063084 -142.112 684.40033
33.369072 -142.11972 684.43433
33.669189 -142.10254 684.34833
33.97562 -142.11208 684.39099
34.284935 -142.13339 684.49036
34.593529 -142.15134 684.57355
39.298901 -141.56511 681.6936
39.591209 -141.52689 681.50574
39.892609 -141.5215 681.47595
40.187496 -141.49324 681.33606
40.485283 -141.47557 681.24707
40.781834 -141.45386 681.13861
41.076633 -141.42645 681.00262
41.371151 -141.39847 680.86395
41.667114 -141.37579 680.75073
41.965023 -141.36 680.67072
42.261349 -141.33916 680.56622
42.559128 -141.32339 680.48633
42.856136 -141.30536 680.39532
43.15036 -141.27844 680.26154
43.443432 -141.24815 680.11157
43.740486 -141.23114 680.02545
44.039577 -141.2209 679.97186
44.335827 -141.20174 679.87537
44.634407 -141.19022 679.81561
44.937206 -141.19211 679.82037
45.232582 -141.17079 679.71344
45.532352 -141.16342 679.67352
45.830105 -141.14989 679.604
2.3779283 -144.02968 695.30627
2.6866348 -144.01685 695.24426
2.9955301 -144.01575 695.23877
3.3044555 -144.01617 695.24066
3.6130309 -144.00255 695.17468
3.9212809 -143.97916 695.06146
4.2297201 -143.96561 694.99585
4.5374856 -143.93254 694.83588
4.8452039 -143.90228 694.68945
5.1525521 -143.86531 694.51062
5.4599252 -143.83319 694.3551
5.7680359 -143.82291 694.30505
6.0754342 -143.79677 694.17847
6.3828716 -143.77408 694.06842
6.6909566 -143.76738 694.03552
6.998951 -143.7594 693.99646
7.3069701 -143.75258 693.96301
7.6154532 -143.7551 693.97449
7.9249659 -143.77608 694.0752
29.724535 -141.84285 684.61658
30.032797 -141.86182 684.7052
30.337021 -141.86151 684.70087
30.634527 -141.83009 684.54633
30.938848 -141.83055 684.54559
31.24749 -141.85062 684.6394
32.160084 -141.84972 684.62598
32.466194 -141.8578 684.66187
32.765575 -141.83658 684.55634
33.068325 -141.83022 684.52246
33.373146 -141.83275 684.53149
33.676388 -141.8286 684.50824
33.9888 -141.86279 684.67004
39.305779 -141.28676 681.82654
39.593815 -141.23318 681.56421
39.891502 -141.2146 681.4707
40.19194 -141.20595 681.42505
40.48912 -141.18607 681.32526
40.783363 -141.15633 681.1778
41.077999 -141.12836 681.03888
41.368927 -141.08817 680.84094
41.666069 -141.0696 680.74731
41.965408 -141.05865 680.69055
42.262913 -141.04178 680.60504
42.559097 -141.02075 680.49945
42.858566 -141.01085 680.44751
43.154972 -140.99106 680.3479
43.446774 -140.95659 680.17743
43.740612 -140.9292 680.04102
44.041801 -140.92569 680.01984
44.33865 -140.90843 679.93231
44.638062 -140.89949 679.88489
44.936104 -140.88638 679.81732
45.236824 -140.88179 679.79083
45.540241 -140.88562 679.80487
45.837837 -140.87148 679.73224
2.6863668 -143.69211 695.18201
2.9952216 -143.69069 695.17499
3.3041489 -143.6927 695.18457
3.6126828 -143.67873 695.11676
3.921015 -143.65956 695.0238
4.2294359 -143.64621 694.95892
4.5376334 -143.62762 694.86865
4.8453255 -143.59641 694.71729
5.1529369 -143.5667 694.57318
5.4604926 -143.53886 694.43817
5.7683201 -143.52077 694.35022
6.0755696 -143.49089 694.2052
6.3831439 -143.47118 694.10931
6.6909537 -143.45836 694.04675
6.9989429 -143.45032 694.00732
7.307003 -143.44435 693.97791
7.6153021 -143.44339 693.9726
7.925035 -143.46844 694.0932
30.02845 -141.53693 684.61963
30.333359 -141.54002 684.63171
30.633352 -141.52034 684.53363
30.937485 -141.52 684.52899
31.243729 -141.52921 684.57056
31.55344 -141.5538 684.68652
32.460407 -141.52817 684.55334
32.765297 -141.53105 684.56415
33.068779 -141.52783 684.54541
33.373112 -141.52827 684.54437
33.680367 -141.54103 684.60278
39.315548 -141.01868 682.00964
39.594032 -140.93095 681.5816
39.89172 -140.91238 681.48798
40.190948 -140.89952 681.42188
40.487793 -140.87854 681.31653
40.782814 -140.85158 681.18219
41.079067 -140.82922 681.07019
41.37291 -140.79901 680.9201
41.668442 -140.77495 680.79968
41.967579 -140.76331 680.73938
42.264217 -140.74353 680.63965
42.560078 -140.72145 680.52875
42.858002 -140.70647 680.45215
43.153526 -140.68385 680.33868
43.448898 -140.66109 680.22437
43.747105 -140.64771 680.15552
44.044624 -140.63235 680.07703
44.344414 -140.62439 680.03424
44.642918 -140.61252 679.97247
44.942177 -140.60313 679.92279
45.242226 -140.59633 679.88556
45.547752 -140.60654 679.93054
45.846546 -140.59596 679.875
46.146503 -140.58907 679.83722
46.461693 -140.62836 680.02277
2.6863434 -143.38049 695.18304
2.9949813 -143.36899 695.12714
3.3036346 -143.36029 695.08484
3.6122928 -143.35329 695.05066
3.9208539 -143.34384 695.00464
4.2292838 -143.33134 694.94373
4.537746 -143.32156 694.896
4.845109 -143.28052 694.69666
5.1525879 -143.2476 694.53674
5.4605899 -143.23215 694.46136
5.7680826 -143.20569 694.3327
6.0752325 -143.17384 694.1778
6.382895 -143.15659 694.09363
6.6909609 -143.14955 694.05896
6.9989219 -143.14098 694.01685
7.3070245 -143.13589 693.9917
7.6154881 -143.13803 694.0014
7.9256296 -143.1703 694.15723
30.022402 -141.20413 684.4953
30.329605 -141.2182 684.56061
30.632383 -141.21156 684.52551
30.936111 -141.20941 684.51215
31.240871 -141.21196 684.52155
31.546309 -141.2175 684.54535
31.857246 -141.24733 684.68689
32.764915 -141.22507 684.5697
33.070217 -141.22964 684.58875
33.374447 -141.22963 684.58539
33.691212 -141.28215 684.83679
39.306152 -140.68184 681.86023
39.592403 -140.62215 681.56708
39.892231 -140.61121 681.51025
40.189655 -140.59204 681.41351
40.486248 -140.57028 681.30414
40.785225 -140.55704 681.23602
41.080784 -140.53232 681.11224
41.376102 -140.50714 680.98621
41.670719 -140.47995 680.85046
41.967369 -140.45995 680.74951
42.266525 -140.44859 680.69037
42.562393 -140.42653 680.57935
42.858677 -140.40613 680.47638
43.155132 -140.38661 680.37762
43.450462 -140.36369 680.26239
43.749874 -140.35422 680.21222
44.049564 -140.34572 680.16681
44.349693 -140.33876 680.12878
44.649513 -140.33092 680.08649
44.954338 -140.33879 680.1203
45.253727 -140.32971 680.07196
45.552128 -140.31772 680.00946
45.849953 -140.30411 679.93909
2.9949763 -143.05855 695.13379
3.3034041 -143.04027 695.04474
3.6121109 -143.03618 695.02466
3.9207854 -143.03154 695.00189
4.2293816 -143.02493 694.96954
4.537416 -143.00153 694.85547
4.8448763 -142.96416 694.67358
5.1522446 -142.92873 694.50104
5.4603429 -142.9164 694.44073
5.7678475 -142.89069 694.31537
6.0754423 -142.86972 694.21301
6.3832431 -142.85538 694.14282
6.6909976 -142.84135 694.07422
6.9989581 -142.83279 694.03204
7.3070445 -142.82742 694.00531
7.6159196 -142.83727 694.05255
7.926559 -142.87814 694.25055
8.2169046 -142.56386 692.72278
30.326605 -140.89993 684.50635
30.631573 -140.90355 684.521
30.934978 -140.89996 684.50061
31.239538 -140.90164 684.50586
31.543119 -140.89894 684.48969
31.850937 -140.91504 684.56482
32.765835 -140.92471 684.60248
33.071953 -140.93271 684.63824
33.376812 -140.93527 684.64746
39.293934 -140.33507 681.6618
39.592216 -140.31847 681.57739
39.893402 -140.31236 681.54388
40.192314 -140.2984 681.47217
40.489983 -140.28032 681.38049
40.786118 -140.25725 681.26447
41.078625 -140.22214 681.08997
41.376514 -140.20578 681.00653
41.673195 -140.18559 680.90448
41.97002 -140.16617 680.80609
42.268383 -140.15213 680.73383
42.564686 -140.1315 680.62952
42.85881 -140.10406 680.49213
43.155483 -140.08525 680.39667
43.452621 -140.06821 680.30969
43.752697 -140.06082 680.26959
44.052773 -140.05353 680.22992
44.353306 -140.04778 680.19769
44.656033 -140.04898 680.19928
44.961182 -140.05774 680.23743
45.874783 -140.07762 680.32086
3.3033772 -142.7291 695.04755
3.6119609 -142.72037 695.00476
3.9204907 -142.71101 694.95905
4.2291298 -142.70673 694.93787
4.53724 -142.68642 694.83862
4.8449378 -142.65652 694.69275
5.1523466 -142.62224 694.52539
5.4604411 -142.60974 694.46411
5.7675009 -142.57297 694.28467
6.0755863 -142.56401 694.2406
6.3832283 -142.54604 694.15253
6.6911707 -142.53609 694.10364
6.9989944 -142.52463 694.04724
7.307291 -142.52336 694.04047
7.6162324 -142.53424 694.09283
7.9261494 -142.56184 694.22662
8.2204638 -142.31726 693.03485
30.630859 -140.59598 684.51855
30.934258 -140.59239 684.49817
31.237556 -140.58844 684.47595
31.54137 -140.58687 684.46527
31.846798 -140.59244 684.48932
32.158012 -140.62321 684.63611
33.069584 -140.6183 684.60278
33.381229 -140.64954 684.75165
39.2915 -140.02335 681.63312
39.592503 -140.01648 681.59589
39.893398 -140.00935 681.55731
40.193123 -139.99825 681.49939
40.491978 -139.9843 681.42761
40.783768 -139.94632 681.23877
41.078033 -139.91734 681.09375
41.373859 -139.89404 680.97638
41.674652 -139.88776 680.94177
41.974049 -139.87692 680.88501
42.266056 -139.8418 680.7099
42.562622 -139.82213 680.61005
42.857159 -139.79613 680.47943
43.154831 -139.78064 680.39984
43.453495 -139.76859 680.33698
43.752621 -139.75815 680.28192
44.053314 -139.75284 680.25183
44.355228 -139.75143 680.24072
44.661423 -139.76344 680.29492
3.3039126 -142.4422 695.16864
3.6117709 -142.403 694.97711
3.9201365 -142.38838 694.90558
4.228847 -142.38754 694.90118
4.5368152 -142.36351 694.78363
4.8448615 -142.34483 694.69214
5.1528416 -142.32658 694.60266
5.4607854 -142.30943 694.51862
5.7674146 -142.2617 694.28528
6.0753207 -142.24872 694.22144
6.3833442 -142.23961 694.17645
6.6909966 -142.22343 694.09705
6.9991574 -142.21902 694.07495
7.3073735 -142.21608 694.05994
7.6163259 -142.22711 694.11322
7.9257746 -142.2462 694.20569
8.2251759 -142.09029 693.44415
30.630733 -140.29111 684.52917
30.9368 -140.29965 684.56793
31.236811 -140.28084 684.47314
31.540325 -140.27795 684.45605
31.845963 -140.2845 684.48492
32.155975 -140.31 684.60626
32.476295 -140.37958 684.94269
33.069267 -140.31264 684.60974
33.382999 -140.35258 684.80145
38.996159 -139.74757 681.78333
39.290184 -139.71565 681.62384
39.59198 -139.71164 681.6004
39.894245 -139.70934 681.58533
40.194118 -139.69875 681.52979
40.487762 -139.66684 681.37018
40.78091 -139.63368 681.20453
41.078217 -139.61517 681.11029
41.373455 -139.58995 680.98322
41.672421 -139.57758 680.91882
41.971931 -139.56718 680.86414
42.265175 -139.53627 680.70923
42.558865 -139.50725 680.56354
42.857899 -139.49603 680.5047
43.156418 -139.48329 680.43842
43.45504 -139.47108 680.37463
43.754429 -139.46147 680.32355
44.055298 -139.45668 680.29596
44.358822 -139.46033 680.30939
44.663998 -139.46906 680.34766
44.966812 -139.47034 680.34961
3.6120636 -142.10468 695.04242
3.9196911 -142.06252 694.83606
4.2282467 -142.05772 694.81226
4.5365243 -142.04488 694.74915
4.8447261 -142.03143 694.68304
5.1527777 -142.01547 694.60461
5.4605117 -141.99307 694.49463
5.7676167 -141.95755 694.3205
6.0753288 -141.93985 694.23346
6.3830571 -141.92421 694.15649
6.6909776 -141.91409 694.10651
6.999054 -141.90804 694.07629
7.3072615 -141.90503 694.06097
7.6160841 -141.91373 694.10297
7.9252863 -141.92856 694.1748
8.2301273 -141.86708 693.87347
8.8408384 -141.77351 693.41437
9.1596842 -141.94051 694.23035
30.630522 -139.98586 684.5379
30.936653 -139.99467 684.57812
31.236061 -139.97321 684.47015
31.538931 -139.96751 684.43927
31.841375 -139.96007 684.39978
32.147472 -139.96866 684.43872
32.463085 -140.01813 684.67749
33.067978 -140.00285 684.5965
33.38295 -140.04797 684.81396
38.990414 -139.42395 681.69635
39.290787 -139.41479 681.64777
39.591927 -139.40845 681.61298
39.892464 -139.40012 681.56836
40.190914 -139.38467 681.48895
40.483082 -139.34781 681.30487
40.777779 -139.32016 681.16577
41.076912 -139.30795 681.10211
41.372684 -139.28462 680.98401
41.671833 -139.2729 680.92273
41.970058 -139.25829 680.84723
42.26783 -139.2424 680.76544
42.56398 -139.22142 680.65881
42.859608 -139.19905 680.54529
43.159325 -139.19019 680.49774
43.456646 -139.17375 680.41327
43.756176 -139.16458 680.3642
44.061199 -139.1729 680.40057
44.363487 -139.1725 680.39441
44.673695 -139.19679 680.50885
3.9200146 -141.76454 694.90277
4.2278094 -141.73346 694.75012
4.5359831 -141.71843 694.67621
4.8444753 -141.71468 694.65741
5.1526489 -141.70259 694.59784
5.460525 -141.68414 694.50702
5.768096 -141.6602 694.38916
6.0751309 -141.62619 694.22198
6.382813 -141.60979 694.14117
6.6908092 -141.60159 694.1004
6.9989276 -141.59659 694.07532
7.307096 -141.59296 694.05695
7.6154737 -141.59351 694.05908
7.9249268 -141.61325 694.15515
8.2303104 -141.56151 693.90088
8.5305948 -141.42897 693.25049
8.8428411 -141.49707 693.58356
30.937691 -139.69507 684.6145
31.235054 -139.66444 684.46149
31.537321 -139.65616 684.41779
31.839628 -139.64818 684.37567
32.14735 -139.66389 684.44958
32.466415 -139.72812 684.76123
32.752522 -139.6506 684.37823
33.063408 -139.67924 684.51538
33.374161 -139.70677 684.64709
38.990986 -139.12297 681.71985
39.291569 -139.11455 681.6748
39.592171 -139.10632 681.63068
39.891327 -139.09319 681.56244
40.191334 -139.08318 681.50952
40.485172 -139.05212 681.35352
40.779659 -139.02377 681.21063
41.077068 -139.00571 681.11816
41.373867 -138.98586 681.01691
41.670666 -138.96631 680.91711
41.968842 -138.9516 680.84094
42.270138 -138.94736 680.8161
42.570263 -138.93933 680.77271
42.865524 -138.91568 680.65265
43.162022 -138.89633 680.55371
43.465729 -138.9003 680.56891
43.765839 -138.89279 680.52789
44.074657 -138.91284 680.62189
44.383953 -138.93411 680.7218
4.2282476 -141.43855 694.83179
4.5357194 -141.40077 694.64587
4.8440094 -141.39168 694.60089
5.1520352 -141.37642 694.52557
5.460103 -141.36398 694.46411
5.7677784 -141.34325 694.36182
6.0749688 -141.31337 694.21454
6.3826423 -141.29704 694.13385
6.6907878 -141.29222 694.10962
6.9988132 -141.28537 694.07544
7.3066964 -141.27637 694.03064
7.6149993 -141.27586 694.02759
7.9243622 -141.29431 694.11755
8.2316475 -141.27574 694.02557
8.5342598 -141.18117 693.5603
8.8458071 -141.23589 693.82837
30.636185 -139.40306 684.69128
30.941248 -139.40678 684.70667
31.235073 -139.36031 684.47534
31.536278 -139.34732 684.40857
31.839535 -139.34357 684.38708
32.144451 -139.34709 684.40131
32.451576 -139.36002 684.46167
32.749611 -139.33403 684.33093
33.05928 -139.35757 684.44336
33.368698 -139.37962 684.54846
33.688942 -139.44611 684.87177
36.934639 -139.06236 682.94958
37.238716 -139.06453 682.95667
38.404278 -138.88942 682.08203
38.69223 -138.83502 681.81116
38.991219 -138.82077 681.73737
39.292526 -138.81491 681.70483
39.592171 -138.80331 681.6441
39.892387 -138.7939 681.59399
40.192406 -138.78394 681.5412
40.489513 -138.76414 681.44006
40.781132 -138.72598 681.24872
41.078396 -138.70743 681.15363
41.37326 -138.68111 681.02039
41.671124 -138.66516 680.93805
41.969273 -138.65038 680.86139
42.271267 -138.64842 680.84772
42.571571 -138.64098 680.80713
42.871475 -138.63235 680.76062
43.167896 -138.61266 680.65973
43.471588 -138.61644 680.67413
43.773693 -138.61514 680.66351
44.08688 -138.64873 680.8241
4.5357919 -141.09358 694.66699
4.8428106 -141.04738 694.43921
5.1511827 -141.04378 694.42114
5.4598885 -141.04922 694.44751
5.7670708 -141.01682 694.28754
6.0748105 -141.00066 694.20752
6.3825846 -140.98682 694.13885
6.6904793 -140.97678 694.08893
6.9986176 -140.97255 694.06757
7.3062711 -140.95932 694.00183
7.6142216 -140.95267 693.96844
7.9234438 -140.96915 694.04895
8.2323923 -140.97971 694.10028
8.5393696 -140.95697 693.98761
8.8484812 -140.96982 694.05011
30.6371 -139.10289 684.72522
30.942465 -139.10793 684.74701
31.234921 -139.05539 684.48541
31.535528 -139.03981 684.4057
31.838419 -139.0345 684.37653
32.140984 -139.02788 684.34088
32.44701 -139.03621 684.37878
32.748932 -139.02698 684.33014
33.056667 -139.04236 684.40271
33.364311 -139.05707 684.47192
33.676003 -139.08826 684.62219
33.98938 -139.12576 684.80353
36.934914 -138.75983 682.96808
37.241276 -138.77049 683.01703
37.529461 -138.71385 682.73456
37.813839 -138.64413 682.38782
38.121552 -138.6604 682.46417
38.409367 -138.6046 682.18585
38.692951 -138.53455 681.83734
38.993023 -138.52414 681.78235
39.293751 -138.51622 681.73956
39.59425 -138.5076 681.69336
39.89336 -138.49429 681.62402
40.191578 -138.47812 681.54053
40.488319 -138.45714 681.43335
40.783508 -138.43121 681.30182
41.080723 -138.41248 681.20563
41.375122 -138.38461 681.06451
41.674534 -138.37378 681.00714
41.97213 -138.35713 680.9212
42.272686 -138.3504 680.88397
42.573376 -138.34421 680.84937
42.874271 -138.33878 680.81848
43.17392 -138.32939 680.76819
43.477348 -138.3322 680.77777
43.780544 -138.33421 680.78345
4.8424697 -140.7282 694.40057
5.1509571 -140.72839 694.40125
5.4594474 -140.72865 694.4021
5.7664514 -140.69261 694.22388
6.0744371 -140.683 694.17596
6.3823843 -140.67345 694.1283
6.6901083 -140.66008 694.06183
6.9982977 -140.65724 694.0473
7.306087 -140.64697 693.99597
7.6139302 -140.63849 693.95355
7.9225464 -140.64442 693.98212
8.2321711 -140.66711 694.09344
8.5404768 -140.66647 694.0896
8.8486223 -140.66331 694.0733
9.1583328 -140.68442 694.17657
30.633671 -138.783 684.66193
30.943666 -138.80896 684.78699
31.236116 -138.75647 684.52502
31.539621 -138.75362 684.50793
31.836658 -138.72263 684.35205
32.139198 -138.716 684.31622
32.446365 -138.72928 684.3786
32.750221 -138.72826 684.37048
33.054035 -138.7271 684.36157
33.359211 -138.73163 684.38068
33.665047 -138.73878 684.41278
33.972084 -138.75075 684.46851
34.292259 -138.81564 684.78534
37.245258 -138.48174 683.10358
37.537224 -138.43901 682.88922
37.813282 -138.33878 682.39111
38.112228 -138.32321 682.31067
38.402767 -138.2776 682.08203
38.695961 -138.24222 681.90375
38.994553 -138.22652 681.82251
39.29509 -138.21788 681.77618
39.593739 -138.2028 681.69794
39.892857 -138.18956 681.62878
40.18948 -138.16797 681.51837
40.489326 -138.15768 681.46375
40.784679 -138.13234 681.33478
41.083233 -138.11812 681.26068
41.378826 -138.09424 681.13885
41.674793 -138.07193 681.02484
41.973434 -138.05873 680.95569
42.274017 -138.05209 680.91882
42.574963 -138.04669 680.88812
42.876194 -138.04231 680.86237
5.1510768 -140.42245 694.42786
5.4581652 -140.38651 694.24969
5.7660813 -140.37457 694.19025
6.0741596 -140.36758 694.15521
6.3824229 -140.36534 694.14368
6.6902666 -140.35452 694.0896
6.9980783 -140.34401 694.03705
7.3058248 -140.33311 693.9826
7.6137509 -140.32643 693.94891
7.9216428 -140.31966 693.91479
8.2299194 -140.31995 693.91553
8.540801 -140.36304 694.12793
8.8517361 -140.40396 694.32953
9.1556902 -140.33514 693.98846
9.4624071 -140.31177 693.87207
30.329485 -138.47882 684.67877
30.635962 -138.48904 684.72644
30.945017 -138.51064 684.8302
31.239981 -138.46935 684.62305
31.545027 -138.4731 684.63861
31.83674 -138.41882 684.36719
32.137836 -138.40598 684.3006
32.443256 -138.41183 684.32642
32.749233 -138.41991 684.36322
33.050121 -138.40654 684.29395
33.353191 -138.40248 684.27063
33.660385 -138.41544 684.33148
33.966377 -138.42326 684.36688
34.272556 -138.4317 684.40533
34.587605 -138.47551 684.61859
36.921097 -138.101 682.73938
37.23624 -138.14464 682.95154
37.522301 -138.08055 682.6311
37.812714 -138.0334 682.39429
38.099957 -137.97549 682.10437
38.397583 -137.95583 682.00342
38.700054 -137.9537 681.98926
38.999435 -137.94072 681.92126
39.29726 -137.92245 681.82715
39.593731 -137.89977 681.71118
39.893612 -137.88921 681.65509
40.190262 -137.86772 681.54504
40.491051 -137.86066 681.50616
40.78965 -137.84628 681.43121
41.08498 -137.82117 681.30304
41.379601 -137.79404 681.16498
41.677284 -137.77745 681.07892
41.974976 -137.76111 680.99408
42.275593 -137.75455 680.95758
42.576633 -137.74945 680.92822
42.875957 -137.73891 680.87195
5.4579616 -140.07219 694.2345
5.7656908 -140.05606 694.15411
6.0738811 -140.05219 694.1344
6.3819532 -140.0461 694.10376
6.6898928 -140.03781 694.06213
6.99793 -140.0322 694.03375
7.3057413 -140.02274 693.98627
7.6129961 -140.00378 693.89178
7.920527 -139.9912 693.82874
8.2288561 -139.99316 693.83777
8.5397711 -140.03737 694.05615
8.8513947 -140.08971 694.31482
30.327608 -138.16595 684.64972
30.638144 -138.19456 684.78857
30.946447 -138.21265 684.87524
31.244698 -138.18591 684.73975
31.547834 -138.18111 684.71289
31.836407 -138.1132 684.37335
32.136627 -138.09665 684.28821
32.438538 -138.08759 684.24017
32.744167 -138.09439 684.27075
33.051418 -138.10782 684.33417
33.655502 -138.09122 684.24548
33.960419 -138.09485 684.26019
34.262199 -138.08577 684.21191
34.565746 -138.08391 684.19934
34.87619 -138.10939 684.3222
36.914547 -137.77309 682.63159
37.225414 -137.80099 682.7663
37.509296 -137.7294 682.4079
37.805073 -137.70226 682.26971
38.103374 -137.68466 682.17889
38.40192 -137.66823 682.09381
38.701752 -137.65663 682.03253
38.998981 -137.63602 681.9267
39.297695 -137.62094 681.84814
39.594509 -137.59947 681.73798
39.894508 -137.58931 681.68378
40.191608 -137.5694 681.58124
40.493176 -137.56494 681.5553
40.790897 -137.54761 681.46539
41.085472 -137.51997 681.32452
41.3834 -137.50389 681.24091
41.68063 -137.48575 681.14691
41.97744 -137.46649 681.04749
5.7657485 -139.74846 694.17188
6.0736136 -139.73708 694.11487
6.3815584 -139.72855 694.07202
6.6893568 -139.71774 694.01782
6.9971833 -139.70844 693.97107
7.3051891 -139.70338 693.94537
7.6125393 -139.68668 693.86176
7.9196582 -139.66721 693.7644
8.22752 -139.6618 693.73688
8.5364218 -139.67381 693.79584
8.844348 -139.66959 693.77405
9.1495275 -139.62372 693.54547
9.4603558 -139.66425 693.74591
30.330065 -137.87282 684.71844
30.639748 -137.89743 684.83777
30.946999 -137.91071 684.9007
31.243721 -137.87727 684.73169
31.549587 -137.88445 684.76422
31.838335 -137.81737 684.4281
32.133598 -137.77951 684.237
32.434509 -137.76636 684.16852
32.739437 -137.77034 684.18518
33.049385 -137.7952 684.30542
33.955086 -137.76909 684.16608
34.258686 -137.76755 684.15509
34.562126 -137.76538 684.14099
34.864059 -137.75731 684.09753
35.165405 -137.74706 684.04327
35.475285 -137.77013 684.15442
35.786278 -137.7971 684.28491
36.063938 -137.69637 683.78113
36.341026 -137.59512 683.2749
36.614254 -137.48106 682.70502
36.911858 -137.45967 682.59515
37.211117 -137.44473 682.5174
37.507835 -137.42073 682.39459
37.807949 -137.40947 682.33502
38.106987 -137.39449 682.2569
38.405891 -137.37926 682.17761
38.702244 -137.35522 682.0545
39.001041 -137.34016 681.97601
39.297668 -137.31778 681.86096
39.596481 -137.30328 681.78522
39.895489 -137.28969 681.71387
40.192856 -137.27071 681.61572
40.49456 -137.26671 681.59192
40.794949 -137.25833 681.54639
41.089695 -137.23125 681.4079
41.388866 -137.21922 681.34424
41.683037 -137.1909 681.19958
6.0741014 -139.43935 694.18164
6.3819108 -139.42735 694.12146
6.6890097 -139.40166 693.99304
6.9967937 -139.39189 693.94385
7.3048072 -139.38733 693.92053
7.6122813 -139.37326 693.84991
7.9192066 -139.35063 693.73657
8.2269239 -139.34311 693.69849
8.5350971 -139.34358 693.70007
8.8434906 -139.34747 693.71875
9.1494169 -139.31357 693.54913
9.4577932 -139.31795 693.57013
30.332993 -137.58179 684.79785
30.639606 -137.59244 684.8479
30.947363 -137.60796 684.92212
31.244671 -137.57713 684.76575
31.550917 -137.58591 684.8064
31.836628 -137.50583 684.40472
32.13345 -137.47478 684.24713
32.432384 -137.45328 684.13702
32.736507 -137.45396 684.13727
33.043549 -137.46677 684.19781
34.558315 -137.44615 684.07886
34.859066 -137.43356 684.01282
35.160534 -137.42401 683.96185
35.456043 -137.39151 683.79669
35.75259 -137.36356 683.65411
36.029522 -137.26135 683.14197
36.318844 -137.20764 682.87115
36.610828 -137.16483 682.65448
36.915413 -137.16951 682.67432
37.214977 -137.15562 682.60156
37.51173 -137.13168 682.47876
37.807411 -137.10423 682.33856
38.10688 -137.09087 682.26831
38.405373 -137.07422 682.18176
38.702866 -137.05428 682.0788
39.001717 -137.03944 682.00116
39.299763 -137.02202 681.91064
39.595226 -136.99591 681.77692
39.896259 -136.98935 681.74036
40.195492 -136.97673 681.67371
40.496784 -136.9713 681.6427
40.795666 -136.95782 681.57172
41.097786 -136.95535 681.55542
6.383276 -139.14822 694.28113
6.688674 -139.08586 693.96948
6.9961505 -139.07034 693.89148
7.3035979 -139.05557 693.8172
7.6115556 -139.05132 693.79535
7.9184709 -139.0291 693.68384
8.226162 -139.02167 693.64606
8.5333834 -139.00711 693.57269
8.8410225 -139.00012 693.53711
9.1492243 -139.00217 693.54657
9.4559698 -138.98268 693.44849
9.7684603 -139.04619 693.76459
30.335117 -137.28706 684.85907
30.641689 -137.29739 684.90765
30.948538 -137.30876 684.96136
31.247343 -137.28456 684.83765
31.552652 -137.28912 684.85736
31.83716 -137.20395 684.42944
32.134308 -137.17435 684.27869
32.430336 -137.14056 684.10706
32.733212 -137.13611 684.08167
33.036999 -137.13551 684.0755
34.250446 -137.12643 684.01715
34.557377 -137.13841 684.07361
34.866127 -137.15735 684.16467
