ply
format ascii 1.0
comment PCL generated
element vertex 1497
property float x
property float y
property float z
element camera 0
property float view_px
property float view_py
property float view_pz
property float x_axisx
property float x_axisy
property float x_axisz
property float y_axisx
property float y_axisy
property float y_axisz
property float z_axisx
property float z_axisy
property float z_axisz
property float focal
property float scalex
property float scaley
property float centerx
property float centery
property int viewportx
property int viewporty
property float k1
property float k2
end_header
-133.27539 -169.1721 718.61877
-132.93326 -169.14511 718.51587
-132.59201 -169.11911 718.41718
-132.25351 -169.0965 718.33282
-131.90105 -169.05589 718.172
-131.56694 -169.03867 718.11041
-131.23532 -169.02455 718.06213
-130.86082 -168.95502 717.77832
-130.50687 -168.91171 717.60596
-130.17201 -168.89299 717.53796
-129.81355 -168.84349 717.33917
-129.43678 -168.76984 717.03778
-129.11824 -168.77194 717.05823
-128.7841 -168.75363 716.99188
-128.47926 -168.77371 717.08862
-128.1523 -168.76474 717.06195
-173.13614 -172.76041 733.79742
-172.71056 -172.66321 733.39868
-172.33896 -172.61971 733.22803
-171.974 -172.5827 733.08496
-171.61572 -172.55226 732.96979
-171.2664 -172.53073 732.8924
-170.90974 -172.50174 732.78326
-170.59628 -172.5163 732.85913
-170.23991 -172.48744 732.75055
-169.85701 -172.43155 732.5271
-169.45192 -172.35284 732.20673
-169.07121 -172.29871 731.99066
-168.68413 -172.23784 731.74603
-168.33983 -172.2205 731.68628
-167.98128 -172.18852 731.56427
-167.62013 -172.15372 731.43024
-167.25169 -172.11127 731.26379
-166.9052 -172.09129 731.19275
-166.55891 -172.07147 731.12231
-166.22794 -172.06738 731.11877
-165.88499 -172.05089 731.06244
-165.5443 -172.03665 731.01575
-165.20772 -172.02666 730.987
-164.8367 -171.98068 730.80536
-164.5004 -171.97083 730.77722
-164.16861 -171.96565 730.76886
-163.80426 -171.92628 730.6153
-163.36256 -171.80542 730.1153
-162.97684 -171.74304 729.86383
-162.56476 -171.6526 729.49304
-162.19781 -171.60954 729.32367
-161.83876 -171.57468 729.18903
-161.4962 -171.55719 729.12823
-161.14268 -171.52795 729.01752
-160.81372 -171.52481 729.01764
-160.46986 -171.50572 728.95001
-160.11964 -171.47977 728.85309
-159.73885 -171.42085 728.61621
-159.38805 -171.39398 728.51538
-159.03618 -171.36584 728.40918
-158.69354 -171.34756 728.34485
-158.33347 -171.31033 728.19995
-157.97806 -171.27802 728.07593
-157.6055 -171.22693 727.87207
-157.23177 -171.17433 727.6618
-156.90091 -171.16832 727.64948
-156.57442 -171.16704 727.65735
-156.20859 -171.12267 727.48193
-155.88759 -171.1273 727.51489
-155.56244 -171.12744 727.52863
-155.25116 -171.14284 727.60724
-134.64983 -168.96519 719.07117
-134.31444 -168.94727 719.00671
-133.96776 -168.91501 718.88129
-133.61215 -168.87129 718.70709
-133.2589 -168.83038 718.54474
-132.92914 -168.81911 718.50848
-132.59329 -168.80003 718.43909
-132.24185 -168.76096 718.28442
-131.89722 -168.73038 718.16602
-131.56786 -168.71927 718.13037
-131.20848 -168.66953 717.93024
-130.85504 -168.62715 717.76154
-130.50687 -168.59138 717.62091
-130.16496 -168.56358 717.5141
-129.80217 -168.5085 717.2912
-129.44139 -168.45578 717.07825
-129.12129 -168.45587 717.09015
-128.78745 -168.43797 717.02545
-128.47029 -168.44188 717.05353
-128.14336 -168.43295 717.02698
-173.48059 -172.44817 733.86548
-173.12251 -172.41858 733.75378
-172.72514 -172.34969 733.47473
-172.33687 -172.28963 733.23328
-171.9785 -172.25929 733.11829
-171.59976 -172.2084 732.91577
-171.265 -172.20152 732.90057
-170.92409 -172.18842 732.85889
-170.60513 -172.19745 732.91138
-170.2578 -172.17781 732.84174
-169.87198 -172.11906 732.60577
-169.4572 -172.03075 732.24377
-169.09564 -171.99619 732.11066
-168.69597 -171.92267 731.81165
-168.32454 -171.87769 731.63409
-167.97633 -171.85629 731.55695
-167.62654 -171.83319 731.47247
-167.26112 -171.79395 731.31927
-166.90556 -171.76469 731.20862
-166.55864 -171.74423 731.13531
-166.22975 -171.74232 731.14099
-165.88005 -171.71887 731.05493
-165.51196 -171.67625 730.88727
-165.17909 -171.67006 730.87463
-164.8298 -171.64674 730.78912
-164.45731 -171.59911 730.60004
-164.13522 -171.60402 730.63464
-163.7222 -171.51366 730.26361
-163.33098 -171.44582 729.9884
-162.97676 -171.41664 729.87781
-162.58365 -171.34636 729.59216
-162.21239 -171.29886 729.4035
-161.8649 -171.27632 729.32111
-161.50856 -171.24432 729.19836
-161.14374 -171.20316 729.03662
-160.81526 -171.20055 729.039
-160.47192 -171.18205 728.97375
-160.11031 -171.14395 728.82495
-159.72849 -171.08406 728.58337
-159.3914 -171.07193 728.5451
-159.0325 -171.03629 728.40674
-158.68295 -171.01059 728.31067
-158.32809 -170.97905 728.1897
-157.96036 -170.93343 728.00873
-157.59346 -170.88852 727.83087
-157.22731 -170.84425 727.65564
-156.88188 -170.82239 727.57574
-156.56339 -170.82979 727.62054
-156.20399 -170.7925 727.47498
-155.8735 -170.78674 727.46368
-155.51744 -170.75288 727.33264
-155.17383 -170.73256 727.25928
-154.87183 -170.75806 727.38104
-135.01663 -168.70122 719.31744
-134.636 -168.62683 719.01221
-134.29196 -168.59802 718.90125
-133.96802 -168.59438 718.89752
-133.62576 -168.56763 718.79523
-133.28609 -168.54401 718.7063
-132.93094 -168.50064 718.53314
-132.59134 -168.47682 718.44336
-132.24863 -168.44893 718.33612
-131.89944 -168.41266 718.19312
-131.57338 -168.40578 718.17542
-131.21002 -168.35103 717.95361
-130.85368 -168.30501 717.76904
-130.50305 -168.26616 717.61493
-130.17445 -168.25557 717.58136
-129.80606 -168.19337 717.32764
-129.45514 -168.15358 717.16943
-129.12636 -168.14241 717.1333
-128.78125 -168.10988 717.00598
-128.46825 -168.11917 717.05713
-128.13661 -168.10408 717.00421
-127.81972 -168.10831 717.03363
-173.82518 -172.13593 733.93378
-173.47025 -172.1096 733.83575
-173.09708 -172.06508 733.6601
-172.70601 -172.00255 733.40759
-172.34653 -171.9713 733.28851
-171.98769 -171.94055 733.17157
-171.6237 -171.90454 733.0321
-171.27274 -171.88147 732.94781
-170.93796 -171.87459 732.9325
-170.61601 -171.8806 732.97223
-170.26009 -171.85234 732.86572
-169.86383 -171.78319 732.58484
-169.4599 -171.70598 732.26959
-169.09975 -171.67294 732.14264
-168.69247 -171.59181 731.81061
-168.30882 -171.53447 731.57996
-167.97723 -171.53004 731.57501
-167.61815 -171.49748 731.45001
-167.25165 -171.4572 731.29205
-166.91136 -171.44368 731.24823
-166.55437 -171.4129 731.13086
-166.21983 -171.40517 731.11163
-165.86411 -171.3755 730.9989
-165.49739 -171.33435 730.83716
-165.1512 -171.31433 730.7655
-164.79872 -171.28767 730.66559
-164.40712 -171.22018 730.39142
-164.08363 -171.2235 730.41925
-163.68744 -171.15082 730.12286
-163.33275 -171.12132 730.01068
-162.99419 -171.10861 729.97015
-162.59421 -171.03128 729.65387
-162.21439 -170.97488 729.42682
-161.87486 -170.9608 729.38037
-161.51256 -170.92256 729.23077
-161.14671 -170.88042 729.06445
-160.81888 -170.87848 729.06976
-160.46858 -170.85263 728.97296
-160.09676 -170.8037 728.77765
-159.70872 -170.73726 728.50763
-159.37729 -170.73114 728.495
-159.03201 -170.71019 728.41895
-158.66734 -170.66826 728.25348
-158.32278 -170.64783 728.17969
-157.94887 -170.59561 727.97021
-157.59152 -170.56111 727.8363
-157.22217 -170.51346 727.64624
-156.87442 -170.48909 727.55554
-156.55522 -170.4957 727.59705
-156.1989 -170.46181 727.4657
-155.86528 -170.45264 727.43976
-155.49287 -170.40089 727.23218
-155.1153 -170.34328 726.99945
-154.78607 -170.33861 726.99274
-154.44733 -170.32343 726.9411
-154.10326 -170.30231 726.86407
-153.59161 -170.09552 725.99457
-152.20164 -169.99289 725.6087
-151.899 -170.01715 725.72528
-151.61028 -170.05713 725.90894
-135.4395 -168.50652 719.86053
-135.0305 -168.39738 719.40625
-134.63438 -168.3038 719.01837
-134.28806 -168.27222 718.89526
-133.97191 -168.27834 718.93329
-133.63933 -168.26382 718.88312
-133.26756 -168.19977 718.62122
-132.92906 -168.17751 718.5379
-132.5858 -168.14909 718.42828
-132.24348 -168.12175 718.32312
-131.90053 -168.09344 718.21393
-131.55147 -168.05721 718.0708
-131.20352 -168.02223 717.93298
-130.86002 -167.99277 717.81873
-130.52045 -167.96823 717.72546
-130.18637 -167.95067 717.66205
-129.81396 -167.88344 717.38629
-129.48195 -167.86826 717.33295
-129.11809 -167.8116 717.10236
-128.76933 -167.77431 716.95453
-128.4586 -167.78654 717.01825
-128.13646 -167.78387 717.01831
-127.81156 -167.77759 717.00287
-127.48537 -167.76956 716.97992
-173.81952 -171.80202 733.92395
-173.46935 -171.78046 733.84607
-173.08955 -171.72942 733.64221
-172.68893 -171.6575 733.34912
-172.35039 -171.64713 733.31897
-171.99359 -171.6185 733.21082
-171.63322 -171.5862 733.08691
-171.29799 -171.57893 733.07001
-170.95247 -171.56134 733.00885
-170.61163 -171.54839 732.96759
-170.25476 -171.5192 732.85693
-169.84323 -171.43477 732.51019
-169.4339 -171.35219 732.17139
-169.07631 -171.32175 732.0553
-168.6722 -171.24396 731.73682
-168.30249 -171.20087 731.56659
-167.96214 -171.18752 731.5235
-167.59862 -171.15045 731.37903
-167.24689 -171.12531 731.28546
-166.90472 -171.10989 731.2334
-166.55594 -171.08757 731.15192
-166.21425 -171.07249 731.10132
-165.84439 -171.02831 730.92627
-165.4646 -170.97368 730.7066
-165.11903 -170.95427 730.63739
-164.77171 -170.93297 730.56012
-164.38747 -170.8732 730.31836
-164.06296 -170.8754 730.34149
-163.68359 -170.82037 730.12
-163.32671 -170.78862 729.99799
-163.00218 -170.79065 730.02026
-162.61273 -170.72452 729.75128
-162.22 -170.65469 729.46637
-161.849 -170.60747 729.27814
-161.52008 -170.60451 729.27905
-161.16171 -170.57037 729.14667
-160.8145 -170.54793 729.06427
-160.45468 -170.51199 728.92413
-160.08676 -170.4673 728.74658
-159.71016 -170.41313 728.5285
-159.37234 -170.40024 728.48682
-159.02794 -170.38022 728.41461
-158.66943 -170.34499 728.2774
-158.31015 -170.30876 728.13599
-157.92422 -170.24367 727.87103
-157.56923 -170.21173 727.7478
-157.21321 -170.17856 727.61926
-156.87662 -170.16631 727.5802
-156.55006 -170.16489 727.58746
-156.19566 -170.13318 727.46515
-155.8407 -170.10069 727.33948
-155.49481 -170.07802 727.25574
-155.11107 -170.01375 726.99408
-154.76787 -169.99376 726.92175
-154.40569 -169.95274 726.75958
-154.02046 -169.88618 726.4881
-153.58601 -169.76491 725.9826
-153.2533 -169.75581 725.95679
-152.89166 -169.71458 725.79352
-152.57072 -169.71846 725.82312
-152.2448 -169.71678 725.82898
-151.90169 -169.69588 725.75262
-151.55301 -169.66867 725.64923
-151.2542 -169.69728 725.78461
-150.9416 -169.71054 725.85425
-135.41977 -168.16063 719.77051
-135.01402 -168.05568 719.33325
-134.63242 -167.98036 719.02277
-134.28232 -167.94409 718.87939
-133.96718 -167.95145 718.92273
-133.62718 -167.92763 718.83258
-133.27206 -167.88464 718.6604
-132.92076 -167.84627 718.50793
-132.58641 -167.82916 718.44641
-132.24091 -167.79784 718.32404
-131.90871 -167.78326 718.27338
-131.56206 -167.7502 718.14349
-131.19356 -167.68903 717.89331
-130.8477 -167.6566 717.76611
-130.5088 -167.63292 717.67639
-130.18259 -167.62547 717.65607
-129.83395 -167.58905 717.51172
-129.5023 -167.57442 717.46063
-129.12737 -167.50356 717.16876
-128.77888 -167.46677 717.02271
-128.45859 -167.46652 717.03314
-128.12686 -167.45132 716.97955
-127.7866 -167.4249 716.87781
-127.46439 -167.42203 716.87689
-127.13227 -167.40611 716.82013
-174.19212 -171.51723 734.10999
-173.82118 -171.47536 733.94501
-173.46164 -171.44458 733.82751
-173.08125 -171.39305 733.62115
-172.70973 -171.35011 733.45154
-172.36101 -171.32968 733.37823
-172.00357 -171.30049 733.26746
-171.64629 -171.27135 733.1568
-171.30876 -171.26183 733.13019
-170.97643 -171.25748 733.12567
-170.63057 -171.23956 733.06305
-170.26083 -171.19756 732.89728
-169.8084 -171.07205 732.37402
-169.39377 -170.98425 732.01215
-169.06108 -170.97897 732.00348
-168.67719 -170.92178 731.77264
-168.32668 -170.89827 731.68591
-167.96608 -170.8644 731.55481
-167.5882 -170.81277 731.34772
-167.23842 -170.78966 731.26263
-166.89876 -170.77679 731.22144
-166.55162 -170.75621 731.14716
-166.21927 -170.75073 731.13757
-165.83743 -170.69432 730.90979
-165.43704 -170.61855 730.59912
-165.10733 -170.61549 730.59985
-164.75305 -170.58701 730.49164
-164.38109 -170.54004 730.30426
-164.03726 -170.52216 730.24139
-163.67438 -170.48434 730.09314
-163.3252 -170.46066 730.00543
-162.9985 -170.46043 730.01807
-162.60957 -170.39497 729.7514
-162.20573 -170.31361 729.41656
-161.85783 -170.29076 729.33228
-161.5154 -170.27357 729.27222
-161.16718 -170.25018 729.18567
-160.82402 -170.23209 729.1217
-160.44876 -170.17989 728.91162
-160.07475 -170.12878 728.70624
-159.71167 -170.08911 728.54974
-159.36588 -170.06772 728.47162
-158.99557 -170.02003 728.28076
-158.65317 -170.00203 728.2171
-158.30525 -169.97806 728.12781
-157.93449 -169.92941 727.9328
-157.56599 -169.883 727.74731
-157.20828 -169.84802 727.61084
-156.87521 -169.83958 727.58801
-156.54655 -169.83594 727.58563
-156.17978 -169.79079 727.40552
-155.81091 -169.74323 727.21497
-155.49252 -169.75052 727.25946
-155.10683 -169.68423 726.98871
-154.74779 -169.64688 726.84186
-154.3996 -169.62131 726.74542
-154.02007 -169.5611 726.50067
-153.58284 -169.43701 725.98212
-153.27597 -169.45651 726.07874
-152.93163 -169.43456 725.99774
-152.58681 -169.41199 725.91412
-152.25797 -169.40712 725.90625
-151.9099 -169.38075 725.80634
-151.55698 -169.34889 725.6828
-151.23659 -169.3533 725.71466
-150.89296 -169.33165 725.63489
-150.50423 -169.25919 725.33728
-135.70596 -167.79572 719.58649
-135.36967 -167.77719 719.51904
-134.99065 -167.70551 719.22351
-134.62872 -167.65477 719.01782
-134.28763 -167.62978 718.92255
-133.96909 -167.63292 718.94788
-133.62044 -167.5983 718.81122
-133.28406 -167.57892 718.73993
-132.92764 -167.53419 718.55994
-132.58649 -167.50854 718.46167
-132.24979 -167.48842 718.38708
-131.90767 -167.46133 718.28259
-131.56 -167.42702 718.14716
-131.19249 -167.36725 717.9024
-130.84131 -167.32805 717.74591
-130.51036 -167.31461 717.69989
-130.18037 -167.30232 717.65881
-129.83263 -167.26709 717.51923
-129.50391 -167.25627 717.48438
-129.14719 -167.20917 717.29382
-128.77951 -167.14757 717.04108
-128.45731 -167.14482 717.04083
-128.11473 -167.11554 716.92664
-127.7718 -167.08562 716.80969
-127.4568 -167.09216 716.84918
-127.12357 -167.07477 716.78601
-174.15717 -171.15448 733.97668
-173.81487 -171.14084 733.93237
-173.46184 -171.11652 733.84235
-173.08701 -171.07059 733.65955
-172.74423 -171.05621 733.61212
-172.38327 -171.02374 733.48706
-172.01048 -170.97939 733.31097
-171.67146 -170.96849 733.27838
-171.31934 -170.9445 733.18958
-170.9635 -170.91667 733.08435
-170.58606 -170.86711 732.88586
-168.38464 -170.62981 731.95203
-167.97737 -170.54872 731.61816
-167.57887 -170.47624 731.32117
-167.21878 -170.44264 731.19092
-166.89093 -170.44183 731.20129
-166.54704 -170.42461 731.1413
-166.20947 -170.41379 731.1087
-165.83508 -170.3651 730.91364
-165.42455 -170.27902 730.55817
-165.08618 -170.26703 730.52051
-164.74133 -170.24831 730.45392
-164.38239 -170.21489 730.32428
-164.04163 -170.20021 730.27502
-163.68382 -170.16776 730.14954
-163.31897 -170.12784 729.99194
-162.98793 -170.12305 729.98505
-162.61407 -170.07346 729.78589
-162.20685 -169.98869 729.43579
-161.8582 -169.9651 729.34821
-161.52168 -169.95418 729.31488
-161.18019 -169.93797 729.25891
-160.83652 -169.91939 729.19275
-160.46542 -169.8717 729.00165
-160.07912 -169.80769 728.74042
-159.69836 -169.7493 728.50336
-159.37134 -169.74792 728.51093
-158.98921 -169.68773 728.26599
-158.64064 -169.66315 728.17395
-158.30618 -169.65363 728.14648
-157.92809 -169.59718 727.9176
-157.55939 -169.55063 727.73114
-157.21124 -169.52603 727.63892
-156.86877 -169.50749 727.57263
-156.54637 -169.51057 727.59918
-156.18866 -169.47536 727.46136
-155.80157 -169.40808 727.18579
-155.47314 -169.40442 727.18329
-155.1134 -169.36653 727.03394
-154.74538 -169.31946 726.84503
-154.39203 -169.28825 726.72424
-154.05228 -169.27187 726.66705
-153.6277 -169.162 726.20856
-153.30777 -169.16716 726.24384
-152.95076 -169.13132 726.10303
-152.57373 -169.07315 725.86639
-152.2737 -169.10023 725.99573
-151.95274 -169.10416 726.02557
-151.59492 -169.06697 725.87897
-151.24344 -169.03673 725.76208
-150.88506 -168.99861 725.61139
-150.49707 -168.92711 725.31732
-135.70024 -167.46739 719.57092
-135.35556 -167.43854 719.45886
-135.02159 -167.42278 719.40314
-134.61603 -167.31801 718.96484
-134.2825 -167.30246 718.90991
-133.94949 -167.28751 718.85754
-133.60753 -167.26125 718.75653
-133.28648 -167.26112 718.76782
-132.94423 -167.23431 718.66443
-132.60623 -167.21275 718.58356
-132.27193 -167.19574 718.52222
-131.91937 -167.15553 718.36115
-131.59073 -167.14551 718.32971
-131.22049 -167.08247 718.0705
-130.85277 -167.02232 717.82367
-130.51828 -167.00441 717.7583
-130.18448 -166.98726 717.69623
-129.84599 -166.96402 717.60797
-129.49646 -166.92647 717.45807
-129.1488 -166.89111 717.31769
-128.76622 -166.81035 716.98206
-128.4631 -166.83235 717.08813
-128.10901 -166.78813 716.90955
-127.76466 -166.75639 716.78455
-127.44885 -166.76186 716.81946
-127.12673 -166.75905 716.81879
-126.79847 -166.74815 716.78333
-174.60526 -170.94331 734.4798
-174.15503 -170.82408 733.98169
-173.79919 -170.79713 733.88019
-173.46402 -170.79042 733.8656
-173.11401 -170.76907 733.78809
-172.78818 -170.7715 733.81274
-172.4095 -170.72165 733.61267
-172.03011 -170.67087 733.40869
-167.21336 -170.11017 731.18134
-166.88228 -170.10606 731.17755
-166.53389 -170.08426 731.09772
-166.19113 -170.06812 731.04218
-165.81808 -170.02087 730.85297
-165.42294 -169.95073 730.56525
-165.07924 -169.93326 730.50397
-164.73581 -169.91602 730.4436
-164.38612 -169.89223 730.3551
-164.0491 -169.88147 730.32257
-163.6922 -169.85002 730.20111
-163.33679 -169.82001 730.08582
-162.98819 -169.79697 730.00043
-162.62146 -169.75491 729.83325
-162.21771 -169.67398 729.49896
-161.86447 -169.64563 729.39069
-161.51628 -169.62247 729.30475
-161.16753 -169.59865 729.21588
-160.83376 -169.59053 729.19452
-160.46707 -169.54759 729.02344
-160.0741 -169.47664 728.73187
-159.7159 -169.44229 728.59766
-159.37558 -169.42682 728.54462
-159.01199 -169.38649 728.38464
-158.65889 -169.35719 728.27209
-158.30238 -169.32411 728.14331
-157.93338 -169.27753 727.95636
-157.58022 -169.24774 727.84167
-157.21721 -169.20726 727.68091
-156.86191 -169.17493 727.55518
-156.54909 -169.18834 727.62622
-156.18665 -169.14809 727.46637
-155.78706 -169.06734 727.13239
-155.45946 -169.06456 727.13367
-155.10803 -169.0358 727.02319
-154.75685 -169.00719 726.91333
-154.41884 -168.99286 726.86487
-154.08363 -168.98155 726.82941
-153.70084 -168.91789 726.56873
-153.34819 -168.88716 726.44971
-152.98889 -168.84897 726.29852
-152.61357 -168.79289 726.07043
-152.30818 -168.81407 726.17462
-152.00658 -168.83957 726.2973
-151.68358 -168.84135 726.31799
-135.68277 -167.12463 719.49304
-135.34277 -167.10155 719.40564
-135.02583 -167.10689 719.44055
-134.64091 -167.02792 719.11255
-134.26743 -166.96278 718.84399
-133.93358 -166.94678 718.78693
-133.60878 -166.94197 718.77808
-133.29518 -166.95117 718.82953
-132.95822 -166.93109 718.75488
-132.63087 -166.92302 718.73193
-132.30885 -166.92162 718.73767
-131.95625 -166.88155 718.57684
-131.6465 -166.89558 718.64905
-131.27136 -166.8266 718.36371
-130.90065 -166.76294 718.1012
-130.55177 -166.72682 717.95734
-130.20323 -166.69096 717.81451
-129.86815 -166.67221 717.74536
-129.5453 -166.6691 717.74353
-129.18631 -166.61934 717.54083
-128.77312 -166.49928 717.03528
-128.43582 -166.47697 716.95074
-128.10831 -166.46727 716.92047
-127.76442 -166.43622 716.79816
-127.43926 -166.42944 716.7804
-127.11167 -166.41945 716.74878
-126.78664 -166.4128 716.73145
-174.65585 -170.66423 734.70667
-174.16167 -170.50224 734.02362
-173.80211 -170.47173 733.90649
-173.47295 -170.47095 733.91742
-173.11739 -170.44417 733.81635
-172.81689 -170.47162 733.94873
-172.47139 -170.4547 733.89008
-172.13802 -170.44971 733.88281
-166.85649 -169.7529 731.07874
-166.51534 -169.73845 731.0304
-166.15781 -169.70721 730.90979
-165.80566 -169.6814 730.81238
-165.43564 -169.63712 730.6355
-165.08472 -169.6123 730.54242
-164.74599 -169.59991 730.50293
-164.39201 -169.57178 730.39545
-164.0442 -169.54988 730.31494
-163.68527 -169.5164 730.18445
-163.32333 -169.47966 730.03986
-162.97896 -169.46104 729.97333
-162.61398 -169.42087 729.81396
-162.20467 -169.33424 729.45447
-161.87482 -169.33041 729.4516
-161.52061 -169.30103 729.33862
-161.14888 -169.25311 729.14581
-160.81346 -169.24323 729.11676
-160.46381 -169.21829 729.02289
-160.10748 -169.18619 728.89813
-159.74745 -169.15004 728.75592
-159.39516 -169.12196 728.64844
-159.00172 -169.05002 728.35193
-158.66789 -169.04129 728.32776
-158.29156 -168.98714 728.10791
-157.94267 -168.96213 728.01349
-157.58771 -168.9305 727.89062
-157.22047 -168.88556 727.71039
-156.85004 -168.83699 727.5144
-156.54031 -168.8537 727.59979
-156.17928 -168.81503 727.44641
-155.78642 -168.74171 727.1438
-155.45758 -168.73759 727.13928
-155.11499 -168.71849 727.07019
-154.76797 -168.69447 726.97992
-154.44144 -168.69275 726.98566
-154.12433 -168.70132 727.03583
-153.77831 -168.67819 726.94934
-153.43199 -168.65469 726.86115
-153.05212 -168.5941 726.61316
-152.67851 -168.54016 726.3938
-152.33589 -168.52029 726.32123
-152.0363 -168.54802 726.4538
-136.03334 -166.83932 719.65063
-135.6971 -166.82104 719.58374
-135.35429 -166.7946 719.48163
-135.0105 -166.76678 719.37366
-134.63219 -166.69611 719.08069
-134.24742 -166.61708 718.75171
-133.92174 -166.61118 718.7381
-133.61316 -166.62659 718.81647
-133.29701 -166.63258 718.85419
-132.97432 -166.63045 718.85675
-132.67073 -166.65227 718.96271
-132.34795 -166.65004 718.96484
-132.03078 -166.65488 718.9975
-131.70103 -166.64384 718.96161
-131.37968 -166.64337 718.97131
-131.01643 -166.58965 718.75116
-130.59859 -166.46605 718.22961
-130.21748 -166.38881 717.90796
-129.89984 -166.39247 717.93536
-129.58397 -166.39844 717.97266
-129.21194 -166.33212 717.69812
-128.7903 -166.20146 717.14587
-128.43307 -166.15349 716.95038
-128.10559 -166.14383 716.92017
-127.74426 -166.09012 716.69989
-127.42635 -166.09276 716.72266
-127.10157 -166.08641 716.70673
-126.78286 -166.088 716.72498
-174.69601 -170.37474 734.88953
-174.1855 -170.1972 734.13806
-173.83183 -170.17255 734.04596
-173.4465 -170.11674 733.81952
-173.07849 -170.07774 733.66553
-172.80299 -170.12967 733.90375
-172.54044 -170.19456 734.19794
-172.22243 -170.2049 734.25671
-166.09157 -169.31288 730.63251
-165.7724 -169.32066 730.67993
-165.42685 -169.30145 730.61084
-165.07462 -169.27531 730.51184
-164.73822 -169.26535 730.48267
-164.37694 -169.22972 730.34265
-164.03421 -169.2131 730.28467
-163.67349 -169.1778 730.14606
-163.30547 -169.1348 729.97418
-162.97838 -169.13411 729.98492
-162.61319 -169.0938 729.82465
-162.21005 -169.01378 729.49298
-161.87157 -169.00093 729.45117
-161.5265 -168.98117 729.37946
-161.15262 -168.93111 729.17694
-160.80266 -168.90599 729.08209
-160.45479 -168.88293 728.99615
-160.1163 -168.86971 728.95258
-159.74777 -168.82466 728.77167
-159.3754 -168.77536 728.57239
-159.00658 -168.72964 728.38849
-158.66058 -168.70799 728.30847
-158.29878 -168.66942 728.1554
-157.93587 -168.62952 727.99652
-157.5959 -168.61397 727.94281
-157.24312 -168.58463 727.82953
-156.87831 -168.54225 727.65991
-156.54659 -168.53531 727.64331
-156.18193 -168.49281 727.47314
-155.79758 -168.42885 727.21027
-155.45868 -168.41386 727.15881
-155.11629 -168.395 727.09064
-154.78305 -168.38605 727.06519
-154.45807 -168.38603 727.07837
-154.13344 -168.38641 727.0932
-153.78468 -168.36038 726.99396
-153.41788 -168.31444 726.80872
-153.06599 -168.2847 726.69342
-152.70537 -168.24521 726.53601
-152.35313 -168.21481 726.41785
-152.02579 -168.21184 726.41803
-136.76105 -166.62158 720.08862
-136.38371 -166.55348 719.8064
-136.04262 -166.52943 719.71448
-135.71947 -166.52725 719.7171
-135.37462 -166.49841 719.60443
-135.01271 -166.44838 719.40015
-134.60205 -166.33789 718.93451
-134.23322 -166.27864 718.69037
-133.91232 -166.27867 718.70239
-133.59828 -166.28722 718.75122
-133.29196 -166.30544 718.8418
-133.02599 -166.37419 719.15082
-132.76707 -166.45216 719.49963
-130.31792 -166.1965 718.47656
-129.92067 -166.09869 718.06531
-129.58557 -166.08005 717.99634
-129.22185 -166.02455 717.76794
-128.82373 -165.92445 717.3468
-128.44434 -165.84808 717.02808
-128.09265 -165.80716 716.86267
-127.74193 -165.76727 716.70166
-127.42484 -165.77097 716.72906
-127.09124 -165.75313 716.66339
-126.77315 -165.75548 716.68494
-126.44975 -165.75087 716.67639
-126.09704 -165.70775 716.50128
-174.76146 -170.10974 735.17883
-174.29259 -169.97328 734.60339
-173.80681 -169.81976 733.95422
-172.76053 -169.7597 733.73737
-172.5083 -169.83456 734.0752
-172.2885 -169.94168 734.55243
-165.77814 -168.99982 730.7193
-165.42325 -168.97113 730.60907
-165.08807 -168.96249 730.58557
-164.74397 -168.94467 730.52228
-164.37521 -168.90144 730.34918
-164.04184 -168.89447 730.33282
-163.68355 -168.86177 730.20514
-163.30748 -168.81055 729.99738
-162.97421 -168.80347 729.98047
-162.60367 -168.75768 729.79614
-162.21011 -168.68776 729.50745
-161.86 -168.66283 729.41327
-161.51683 -168.64503 729.34998
-161.15343 -168.60603 729.19489
-160.8027 -168.58014 729.0965
-160.45087 -168.55298 728.99261
-160.09392 -168.52032 728.86493
-159.72876 -168.47888 728.69922
-159.36911 -168.44308 728.55792
-159.00058 -168.39775 728.37531
-158.67207 -168.3947 728.37555
-158.30821 -168.35402 728.21307
-157.96016 -168.33005 728.1228
-157.60991 -168.3036 728.02179
-157.25648 -168.27367 727.9057
-156.90913 -168.25012 727.8172
-156.58162 -168.24777 727.82043
-156.23662 -168.22661 727.74219
-155.89465 -168.20862 727.67767
-155.48993 -168.1227 727.31927
-155.10222 -168.05487 727.03912
-154.78181 -168.05981 727.07373
-154.43192 -168.0327 726.9696
-154.04584 -167.96602 726.69434
-153.68892 -167.93092 726.55566
-153.34261 -167.90727 726.46649
-152.99098 -167.87772 726.35175
-152.67717 -167.8896 726.41632
-152.35371 -167.8909 726.435
-152.02391 -167.88521 726.42346
-137.10847 -166.33148 720.22705
-136.74847 -166.28484 720.03717
-136.38414 -166.23265 719.8233
-136.06218 -166.23204 719.83264
-135.71617 -166.20195 719.71442
-135.37604 -166.17892 719.62671
-134.98169 -166.08908 719.24963
-134.55693 -165.9613 718.70819
-134.22112 -165.94287 718.64032
-133.91335 -165.95914 718.72266
-133.6068 -165.97696 718.81171
-133.34352 -166.0488 719.13464
-133.09622 -166.14088 719.54535
-129.21498 -165.69543 717.74469
-128.88699 -165.68568 717.71399
-128.48717 -165.5833 717.28198
-128.10521 -165.50349 716.94775
-127.73927 -165.44403 716.70166
-127.41145 -165.43375 716.66858
-127.07299 -165.40958 716.57532
-126.74635 -165.40071 716.54828
-126.43013 -165.40544 716.58014
-126.0984 -165.38985 716.52393
-174.77345 -169.79254 735.24323
-174.39128 -169.74075 735.03326
-172.73262 -169.40416 733.63281
-172.52634 -169.52397 734.16589
-172.30074 -169.62521 734.61859
-165.76985 -168.6647 730.6969
-165.42523 -168.64651 730.63196
-165.09583 -168.6438 730.63403
-164.74779 -168.62198 730.55334
-164.37358 -168.57327 730.35608
-164.03246 -168.55833 730.30518
-163.68582 -168.53769 730.22943
-163.30225 -168.47884 729.98822
-162.94594 -168.44794 729.86804
-162.60681 -168.43469 729.8244
-162.23741 -168.39 729.64441
-161.8638 -168.34073 729.44458
-161.51208 -168.31409 729.34277
-161.15633 -168.28313 729.22223
-160.8087 -168.26054 729.13794
-160.44688 -168.22298 728.98877
-160.08295 -168.18304 728.82928
-159.72641 -168.15073 728.70276
-159.37576 -168.12448 728.60254
-159.00694 -168.07895 728.4187
-158.67101 -168.06804 728.38489
-158.31543 -168.03624 728.26056
-158.0015 -168.0486 728.32758
-157.64503 -168.0157 728.19836
-157.28445 -167.97824 728.04944
-156.9568 -167.97591 728.05267
-156.62538 -167.96947 728.03815
-156.29654 -167.96581 728.03564
-155.96585 -167.96014 728.02441
-155.46129 -167.76682 727.19971
-154.93726 -167.55161 726.28015
-154.58528 -167.52196 726.16486
-154.21982 -167.47754 725.98553
-153.92804 -167.51314 726.15302
-153.64223 -167.55537 726.3493
-153.35223 -167.59322 726.52649
-153.01886 -167.58372 726.49847
-152.71017 -167.60127 726.58771
-152.37407 -167.58875 726.54651
-152.05402 -167.59386 726.58173
-137.77217 -166.03459 720.32434
-137.43591 -166.01697 720.26007
-137.10208 -166.00223 720.20819
-136.75111 -165.9666 720.06573
-136.4028 -165.93402 719.93652
-136.06471 -165.91377 719.86072
-135.70113 -165.86227 719.64929
-135.35744 -165.83488 719.54248
-134.98729 -165.77489 719.29413
-134.54834 -165.62993 718.67706
-134.21568 -165.6154 718.62598
-133.91524 -165.64067 718.7475
-133.61455 -165.66574 718.86823
-133.36522 -165.75476 719.26636
-133.10884 -165.83543 719.6283
-128.91628 -165.40298 717.89191
-128.5209 -165.30661 717.48517
-128.0974 -165.17349 716.91888
-127.73248 -165.11543 716.67841
-127.41486 -165.11838 716.70264
-127.07307 -165.08995 716.59064
-126.735 -165.06621 716.49902
-126.41596 -165.06721 716.51471
-126.08289 -165.04985 716.45068
-175.11786 -169.47864 735.30762
-174.77516 -169.46533 735.26434
-174.42184 -169.44168 735.17603
-172.49069 -169.16068 734.0282
-165.41151 -168.30592 730.58551
-165.0853 -168.30643 730.60156
-164.74278 -168.29027 730.54529
-164.37784 -168.25111 730.3891
-164.02399 -168.22318 730.28162
-163.67848 -168.2037 730.21082
-163.29684 -168.14694 729.97821
-162.94272 -168.11835 729.86774
-162.61093 -168.11272 729.85706
-162.24895 -168.07581 729.71045
-161.8676 -168.01862 729.47589
-161.51015 -167.98608 729.34827
-161.15001 -167.95059 729.20782
-160.80136 -167.92697 729.11884
-160.446 -167.89624 728.99896
-160.07378 -167.84767 728.8017
-159.71237 -167.81029 728.65289
-159.36642 -167.78903 728.5741
-159.01231 -167.75906 728.45752
-158.69589 -167.76881 728.51337
-158.34706 -167.74429 728.42035
-158.04449 -167.76878 728.5401
-157.71893 -167.76889 728.55402
-157.40144 -167.77762 728.60535
-157.00926 -167.70659 728.3103
-156.74487 -167.77203 728.60791
-154.26195 -167.19884 726.19818
-154.03326 -167.30298 726.66376
-153.75584 -167.35451 726.90076
-153.41437 -167.3364 726.83527
-153.093 -167.34018 726.86487
-152.76524 -167.33698 726.86407
-152.48387 -167.38469 727.08447
-143.03046 -166.21634 722.34149
-142.69212 -166.19809 722.27466
-142.35768 -166.18427 722.22711
-142.02892 -166.17705 722.20819
-141.69359 -166.16209 722.15564
-141.3815 -166.17439 722.2215
-138.83707 -165.83229 720.82086
-138.48653 -165.79802 720.68414
-138.11423 -165.73746 720.43311
-137.77655 -165.71828 720.36188
-137.42986 -165.68814 720.24304
-137.09105 -165.66737 720.16492
-136.75981 -165.65567 720.12616
-136.3981 -165.60695 719.92639
-136.07161 -165.60083 719.91193
-135.71834 -165.56203 719.75525
-135.32126 -165.46948 719.36493
-134.94783 -165.40546 719.09857
-134.56526 -165.32991 718.7821
-134.21599 -165.29503 718.64233
-133.92929 -165.3372 718.83765
-133.62671 -165.35992 718.94836
-133.38188 -165.45439 719.37097
-133.13721 -165.54953 719.79645
-128.114 -164.87494 717.02661
-127.72734 -164.78902 716.66437
-127.4217 -164.80742 716.75592
-127.07853 -164.77728 716.63623
-126.7166 -164.72258 716.40979
-126.40957 -164.73917 716.49329
-126.07047 -164.71393 716.3949
-125.74968 -164.71255 716.40027
-175.78787 -169.16132 735.34302
-175.44821 -169.15105 735.31287
-175.09619 -169.12881 735.23059
-174.78976 -169.15062 735.33972
-172.47246 -168.81454 733.96454
-165.41312 -167.98093 730.60663
-165.07619 -167.97054 730.57532
-164.73958 -167.96043 730.54523
-164.38225 -167.92912 730.42285
-164.02861 -167.90146 730.31635
-163.6521 -167.85023 730.1073
-163.28889 -167.81248 729.95685
-162.93761 -167.78685 729.85907
-162.59596 -167.77106 729.80408
-162.24181 -167.74225 729.6925
-161.86055 -167.68527 729.45831
-161.52922 -167.67989 729.44855
-161.14748 -167.62202 729.21051
-160.79228 -167.59163 729.09186
-160.44269 -167.56696 728.99811
-160.06854 -167.51648 728.79211
-159.70631 -167.47829 728.63953
-159.38982 -167.48801 728.69531
-159.05298 -167.47632 728.65802
-158.74599 -167.49611 728.75757
-158.39206 -167.46634 728.6416
-158.07643 -167.47704 728.7016
-157.75873 -167.48557 728.75214
-157.44226 -167.49544 728.80853
-154.41121 -167.03584 726.91522
-154.13907 -167.093 727.17719
-153.81963 -167.09904 727.21667
-153.53734 -167.14552 727.43219
-153.19911 -167.13121 727.38306
-142.68634 -165.86882 722.25983
-142.35661 -165.86052 722.23621
-142.03036 -165.85626 722.2301
-141.68227 -165.8264 722.11255
-141.36812 -165.83623 722.16772
-139.87064 -165.59081 721.14844
-139.53445 -165.57404 721.08777
-139.19235 -165.55017 720.99609
-138.83928 -165.51312 720.84698
-138.45728 -165.4413 720.54645
-138.12131 -165.42432 720.48468
-137.79077 -165.41377 720.45093
-137.43056 -165.36745 720.26129
-137.10484 -165.36252 720.25195
-136.76184 -165.33667 720.15155
-136.40944 -165.29932 720.00092
-136.0677 -165.27473 719.90588
-135.70013 -165.21857 719.67334
-135.2914 -165.11194 719.22083
-134.92979 -165.06241 719.01709
-134.55505 -164.99657 718.74225
-134.2258 -164.98631 718.70953
-133.94855 -165.04007 718.95563
-133.68491 -165.11092 719.27612
-133.40784 -165.16547 719.5257
-128.16345 -164.61852 717.31818
-127.73797 -164.48291 716.73877
-127.40028 -164.45995 716.65021
-127.04565 -164.41498 716.46564
-126.71478 -164.40059 716.41437
-126.40401 -164.41226 716.47662
-126.06429 -164.38625 716.37463
-125.74358 -164.38495 716.38037
-176.03568 -168.75453 735.00336
-175.74721 -168.79335 735.18683
-175.39783 -168.77368 735.11554
-175.07562 -168.78012 735.15802
-174.783 -168.81517 735.32513
-172.49602 -168.50932 734.07874
-165.07581 -167.64355 730.58771
-164.73857 -167.63283 730.55481
-164.38176 -167.60211 730.43481
-164.03546 -167.582 730.36096
-163.6445 -167.51608 730.08746
-163.28268 -167.47981 729.94318
-162.94727 -167.47054 729.91644
-162.59009 -167.4388 729.79187
-162.23361 -167.40764 729.6698
-161.87341 -167.37253 729.53046
-161.51677 -167.34096 729.40649
-161.13695 -167.2852 729.17712
-160.79066 -167.26408 729.09869
-160.43994 -167.23828 728.99982
-160.10196 -167.22566 728.95844
-159.77048 -167.2198 728.94647
-159.42558 -167.19984 728.87299
-159.1185 -167.21956 728.97247
-158.77751 -167.20364 728.91656
-158.42622 -167.17679 728.81299
-158.10709 -167.18381 728.85712
-157.8214 -167.2263 729.05585
-154.83366 -166.81619 727.37463
-154.50479 -166.81209 727.37006
-154.2235 -166.85947 727.58984
-142.02139 -165.52332 722.19904
-141.67563 -165.49623 722.09326
-141.32716 -165.46584 721.97308
-140.98161 -165.43872 721.86719
-140.55385 -165.31479 721.33881
-140.20763 -165.28642 721.22742
-139.88823 -165.28963 721.25372
-139.54439 -165.26387 721.15369
-139.19926 -165.23648 721.04645
-138.84596 -165.19928 720.8963
-138.48718 -165.15529 720.71667
-138.12859 -165.11137 720.53723
-137.79114 -165.09258 720.46741
-137.43196 -165.04759 720.28326
-137.10304 -165.03883 720.25714
-136.75365 -165.00533 720.12305
-136.42117 -164.9921 720.07745
-136.08853 -164.97862 720.0307
-135.7113 -164.91092 719.74725
-135.29666 -164.7973 719.26343
-134.92302 -164.73322 718.99573
-134.53922 -164.65637 718.6723
-134.23718 -164.67947 718.7851
-133.95729 -164.72992 719.01721
-133.72377 -164.8378 719.5
-133.44301 -164.88779 719.7301
-128.26921 -164.43402 717.92487
-127.78819 -164.22763 717.03528
-127.42947 -164.1778 716.82916
-127.0427 -164.09148 716.46375
-126.69908 -164.06061 716.34039
-126.37334 -164.05275 716.3175
-126.05363 -164.05275 716.32886
-125.73586 -164.05525 716.35114
-176.30966 -168.37337 734.77405
-176.00394 -168.39542 734.8847
-175.69275 -168.41229 734.97284
-175.35686 -168.40552 734.9577
-175.07097 -168.44684 735.1524
-174.77039 -168.47414 735.28595
-172.55487 -168.23842 734.34314
-164.73036 -167.29791 730.53253
-164.37314 -167.26682 730.41052
-164.00694 -167.22644 730.24805
-163.65199 -167.19739 730.13501
-163.27704 -167.14775 729.93201
-162.93784 -167.1346 729.88831
-162.59309 -167.11568 729.81946
-162.22021 -167.0677 729.62366
-161.86214 -167.03482 729.49377
-161.51234 -167.01038 729.4007
-161.14546 -166.96811 729.22974
-160.79123 -166.93881 729.11542
-160.44585 -166.91862 729.04083
-160.11668 -166.91522 729.03961
-159.79198 -166.91649 729.05872
-159.45181 -166.90158 729.00714
-159.13252 -166.90849 729.0509
-158.77368 -166.87387 728.91321
-158.44048 -166.8661 728.89276
-158.14442 -166.89752 729.04352
-141.65228 -165.14659 721.98877
-141.32607 -165.1422 721.98199
-140.96405 -165.09587 721.79187
-140.55965 -164.99956 721.38318
-140.22369 -164.98332 721.32458
-139.8719 -164.94836 721.18408
-139.54449 -164.94205 721.16882
-139.18257 -164.89482 720.97461
-138.82776 -164.8558 720.81628
-138.50113 -164.85017 720.80389
-138.12112 -164.78081 720.51288
-137.77814 -164.7554 720.414
-137.41953 -164.71115 720.23267
-137.08548 -164.69621 720.1795
-136.74612 -164.6748 720.09802
-136.41138 -164.65884 720.04034
-136.08273 -164.65022 720.01471
-135.70709 -164.58453 719.73956
-135.28423 -164.46112 719.21191
-134.9028 -164.38765 718.90259
-134.52281 -164.31557 718.5993
-134.24088 -164.36319 718.81952
-133.97757 -164.4339 719.14075
-133.7112 -164.50119 719.44696
-133.45235 -164.57808 719.7951
-128.2579 -164.09921 717.87634
-127.77236 -163.88741 716.96124
-127.43868 -163.86981 716.89581
-127.04911 -163.78009 716.51471
-126.69184 -163.73163 716.31415
-126.36716 -163.72517 716.29736
-126.05323 -163.73264 716.34137
-125.72701 -163.72412 716.31549
-125.40965 -163.72716 716.34015
-176.66368 -168.06874 734.87842
-176.30415 -168.03946 734.76489
-175.98734 -168.05086 734.82922
-175.67061 -168.06238 734.89404
-175.36273 -168.08244 734.99615
-175.08318 -168.12976 735.21753
-174.75418 -168.12968 735.23163
-172.62514 -167.97839 734.65607
-164.7153 -166.9561 730.4798
-164.3616 -166.9286 730.37335
-163.99442 -166.88727 730.20636
-163.66054 -166.87975 730.18726
-163.2876 -166.83228 729.99335
-162.92007 -166.79016 729.82281
-162.58812 -166.78436 729.81122
-162.22031 -166.7417 729.63824
-161.89226 -166.73979 729.64362
-161.52417 -166.69656 729.46814
-161.16324 -166.66058 729.32434
-160.82146 -166.64427 729.2666
-160.48001 -166.62827 729.21021
-160.14058 -166.61427 729.1626
-159.80934 -166.60878 729.15216
-159.46991 -166.59468 729.104
-159.14311 -166.59378 729.11365
-158.7973 -166.57292 729.03583
-158.47536 -166.57706 729.0675
-140.93217 -164.73633 721.64307
-140.5661 -164.68503 721.43079
-140.23186 -164.67087 721.3811
-139.87764 -164.63313 721.22815
-139.52657 -164.59894 721.0907
-139.185 -164.57582 721.00171
-138.85548 -164.56688 720.97479
-138.50116 -164.52843 720.8186
-138.12207 -164.46031 720.53241
-137.80058 -164.4606 720.54596
-137.43488 -164.408 720.3277
-137.08076 -164.36908 720.16931
-136.7506 -164.35873 720.13611
-136.411 -164.33699 720.05298
-136.08971 -164.33727 720.06622
-135.71678 -164.27501 719.80554
-135.28044 -164.13553 719.20642
-134.8934 -164.05534 718.86707
-134.22197 -164.01927 718.73297
-133.9724 -164.1066 719.12762
-128.22777 -163.74042 717.72241
-127.79499 -163.59647 717.10297
-127.44202 -163.55424 716.92932
-127.02861 -163.43402 716.41382
-126.68298 -163.40062 716.27887
-126.36892 -163.40787 716.32208
-126.05277 -163.41245 716.35352
-125.73048 -163.40906 716.35004
-125.40414 -163.40039 716.32343
-176.66144 -167.7379 734.88287
-176.30826 -167.71471 734.79578
-175.97757 -167.71288 734.80219
-175.67206 -167.73506 734.91388
-175.37347 -167.76398 735.05499
-175.08369 -167.80142 735.23352
-164.69701 -166.61105 730.41272
-164.35873 -166.59921 730.37463
-163.99951 -166.56606 730.2431
-163.65451 -166.54723 730.17438
-163.29037 -166.5088 730.01978
-162.93246 -166.47661 729.8924
-162.58089 -166.45078 729.79285
-162.22162 -166.41693 729.6582
-161.84932 -166.36957 729.46423
-161.51318 -166.35924 729.43268
-161.17751 -166.34935 729.40302
-160.84933 -166.34718 729.40717
-160.50447 -166.32771 729.33545
-160.17563 -166.3248 729.3363
-159.82573 -166.29997 729.24103
-159.47098 -166.26997 729.12311
-159.14693 -166.27194 729.14526
-158.80685 -166.25713 729.09387
-158.53972 -166.31877 729.37775
-140.5788 -164.37781 721.5105
-140.23787 -164.35585 721.42651
-139.90193 -164.33969 721.36792
-139.53786 -164.29031 721.16351
-139.16634 -164.23193 720.91956
-138.834 -164.21962 720.87781
-138.48566 -164.18828 720.7525
-138.14359 -164.16423 720.65918
-137.8078 -164.14757 720.59827
-137.44565 -164.09933 720.39874
-137.09348 -164.06284 720.25067
-136.76366 -164.05296 720.21948
-136.41852 -164.02463 720.10724
-136.09187 -164.01846 720.09229
-135.70448 -163.93886 719.75488
-135.29198 -163.82849 719.28235
-134.91182 -163.75684 718.9798
-134.21651 -163.69182 718.71826
-133.97545 -163.7894 719.15869
-128.2038 -163.38963 717.60297
-127.80703 -163.29192 717.1853
-127.42225 -163.20905 716.83282
-127.01433 -163.09604 716.34796
-126.68301 -163.08107 716.2937
-126.36385 -163.08174 716.30804
-126.0395 -163.07568 716.29285
-125.72258 -163.07924 716.31982
-125.41132 -163.09016 716.37921
-176.65355 -167.40173 734.86383
-176.30717 -167.38503 734.80505
-175.97404 -167.38087 734.80127
-175.66248 -167.39725 734.88763
-175.37032 -167.43221 735.05554
-175.0793 -167.46838 735.22888
-164.69382 -166.28133 730.41254
-164.35432 -166.26828 730.36908
-164.02271 -166.26315 730.36041
-163.65698 -166.22339 730.19952
-163.28769 -166.17979 730.02185
-162.9276 -166.14542 729.88464
-162.58574 -166.12956 729.82874
-162.21225 -166.08124 729.63019
-161.85277 -166.04707 729.49384
-161.524 -166.04436 729.49561
-161.17369 -166.01944 729.39984
-160.86198 -166.03427 729.47864
-160.5256 -166.02365 729.44562
-160.19809 -166.02216 729.45276
-159.83287 -165.98151 729.28772
-159.46103 -165.93379 729.09174
-159.14772 -165.94695 729.16309
-158.83177 -165.95738 729.22247
-140.24039 -164.03673 721.45398
-139.90709 -164.0237 721.409
-139.56158 -163.99625 721.30066
-139.16774 -163.91174 720.94135
-138.83775 -163.90224 720.9118
-138.50598 -163.89058 720.8728
-138.17494 -163.87971 720.83728
-137.81387 -163.83311 720.64453
-137.44681 -163.77914 720.41937
-137.1031 -163.75284 720.3158
-136.76678 -163.73524 720.25055
-136.42053 -163.70561 720.13239
-136.08327 -163.68669 720.06122
-135.7345 -163.65381 719.92865
-135.29196 -163.50743 719.29681
-134.93709 -163.46657 719.12909
-134.6013 -163.44868 719.06238
-134.26578 -163.43102 718.9967
-133.98596 -163.48125 719.22968
-128.52655 -163.0726 717.61993
-128.14186 -162.99068 717.271
-127.79274 -162.9537 717.11981
-127.4361 -162.90692 716.92542
-127.04515 -162.81593 716.5365
-126.6798 -162.7574 716.29034
-126.36142 -162.75905 716.30902
-126.03305 -162.7478 716.27094
-125.72307 -162.7603 716.33734
-125.40265 -162.75932 716.34442
-125.08789 -162.76573 716.38391
-177.01299 -167.10196 734.9903
-176.66801 -167.08672 734.93774
-176.30139 -167.05089 734.79468
-175.98251 -167.06027 734.8504
-175.67267 -167.07825 734.94403
-175.36694 -167.10023 735.05518
-164.69801 -165.95908 730.44513
-164.35126 -165.93872 730.36945
-164.00011 -165.91385 730.2738
-163.64107 -165.88087 730.14252
-163.28751 -165.85332 730.0351
-162.9431 -165.83498 729.96814
-162.58922 -165.8069 729.85834
-162.21495 -165.75789 729.65637
-161.87407 -165.74284 729.60388
-161.54568 -165.74059 729.60767
-161.21182 -165.73268 729.58655
-160.88208 -165.72896 729.58386
-160.56737 -165.74077 729.64948
-160.20403 -165.70232 729.4939
-159.82007 -165.64235 729.24347
-159.44592 -165.59232 729.03687
-159.15126 -165.6248 729.19342
-158.88193 -165.68382 729.46686
-139.89415 -163.68651 721.35681
-139.54536 -163.65523 721.23132
-139.16998 -163.59256 720.96747
-138.8622 -163.60922 721.05322
-138.52693 -163.59354 720.99634
-138.18945 -163.57512 720.92749
-137.8299 -163.53046 720.74286
-137.44513 -163.45557 720.42505
-137.10574 -163.43446 720.34418
-136.75981 -163.40541 720.22833
-136.43643 -163.40324 720.2309
-136.09064 -163.37415 720.11481
-135.7187 -163.31348 719.85944
-135.2821 -163.17451 719.25897
-134.94409 -163.15408 719.18097
-134.62617 -163.1579 719.20984
-134.30447 -163.15714 719.21851
-134.0071 -163.186 719.35767
-129.99713 -162.58882 716.85504
-129.72035 -162.64294 717.10535
-129.38776 -162.6272 717.04761
-129.09476 -162.66125 717.20941
-128.81168 -162.70804 717.42731
-128.52979 -162.75653 717.65271
-128.11539 -162.63705 717.13751
-127.74564 -162.57382 716.87018
-127.44524 -162.59874 716.99158
-127.0661 -162.52307 716.66937
-126.69281 -162.4545 716.37854
-126.35459 -162.43069 716.28497
-126.02352 -162.41597 716.23145
-125.69661 -162.40656 716.20129
-125.38902 -162.42212 716.28131
-125.08125 -162.43752 716.3606
-177.03819 -166.79697 735.10864
-176.68755 -166.77643 735.03271
-176.30916 -166.72958 734.84076
-176.0034 -166.75137 734.95135
-175.68414 -166.76045 735.0058
-164.35081 -165.61182 730.38147
-163.96831 -165.55531 730.14618
-163.65053 -165.5641 730.19873
-163.28419 -165.52367 730.0343
-162.93369 -165.49918 729.94
-162.58839 -165.47987 729.86871
-162.23685 -165.45412 729.76886
-161.90038 -165.44366 729.73657
-161.56615 -165.43547 729.71411
-161.25362 -165.44951 729.78973
-160.90498 -165.42647 729.70184
-160.55344 -165.40036 729.60034
-160.0965 -165.26534 729.01837
-159.74236 -165.23608 728.90295
-159.45238 -165.27324 729.08044
-159.18553 -165.33453 729.3645
-139.89473 -163.36516 721.37421
-139.54396 -163.33165 721.23859
-139.18925 -163.29333 721.08179
-138.84546 -163.26767 720.98077
-138.50145 -163.24165 720.87817
-138.17264 -163.23346 720.85425
-137.81949 -163.19641 720.70288
-137.44501 -163.13387 720.4389
-137.10901 -163.11682 720.37585
-136.76431 -163.08932 720.26654
-136.41312 -163.05392 720.12238
-136.07686 -163.03624 720.05646
-135.69568 -162.96454 719.75183
-135.30447 -162.88042 719.39246
-134.9547 -162.8459 719.25201
-134.64227 -162.85638 719.31036
-134.32474 -162.86073 719.34155
-134.01752 -162.87762 719.42816
-133.7345 -162.9241 719.64545
-130.01682 -162.29352 716.97815
-129.77083 -162.38614 717.39905
-129.44437 -162.37828 717.37598
-129.14601 -162.40572 717.50885
-128.85617 -162.44403 717.68976
-128.5406 -162.45001 717.72778
-128.12424 -162.32831 717.20166
-127.71812 -162.21904 716.73041
-127.39391 -162.21349 716.71741
-127.06149 -162.19743 716.65802
-126.69076 -162.13228 716.38159
-126.35314 -162.10928 716.29144
-126.02338 -162.09627 716.24536
-125.68463 -162.07161 716.14777
-125.36574 -162.07248 716.16302
-125.07462 -162.10934 716.33728
-124.76083 -162.11696 716.3822
-177.04514 -166.4747 735.15118
-176.69629 -166.4559 735.08276
-176.315 -166.40645 734.87891
-176.01721 -166.43575 735.02277
-175.64769 -166.39719 734.867
-164.34848 -165.283 730.38507
-163.98012 -165.24089 730.21277
-163.65761 -165.24486 730.24426
-163.28972 -165.20299 730.073
-162.95409 -165.19362 730.04541
-162.62431 -165.19016 730.04395
-162.28273 -165.17468 729.98932
-161.94456 -165.16261 729.94977
-161.58623 -165.12988 729.81885
-161.29556 -165.16631 729.99359
-160.93727 -165.1335 729.8623
-160.45381 -164.97188 729.16162
-160.01921 -164.85994 728.68048
-159.73921 -164.9071 728.90265
-159.47157 -164.9673 729.18231
-159.22784 -165.05251 729.57257
-139.54218 -163.0076 721.24377
-139.17686 -162.95694 721.03204
-138.85382 -162.95566 721.03864
-138.50549 -162.92464 720.9137
-138.16814 -162.90637 720.84521
-137.81696 -162.87173 720.70416
-137.457 -162.82652 720.51636
-137.11839 -162.80644 720.4397
-136.76892 -162.77332 720.3053
-136.42076 -162.74161 720.17719
-136.04134 -162.67239 719.88293
-135.67976 -162.62422 719.68195
-135.31348 -162.57018 719.45483
-134.95453 -162.52469 719.26562
-134.64221 -162.53531 719.32458
-134.33539 -162.55258 719.41309
-134.01947 -162.55894 719.45325
-133.71892 -162.58401 719.57617
-133.46152 -162.66179 719.93237
-130.01685 -161.97365 716.99292
-129.77328 -162.06912 717.42725
-129.48686 -162.11139 717.62604
-129.19264 -162.14409 717.78247
-128.89218 -162.16911 717.90491
-128.54152 -162.13094 717.7475
-128.14098 -162.02951 717.31006
-127.72191 -161.90408 716.7663
-127.34982 -161.83771 716.48401
-127.03869 -161.84868 716.54407
-126.68994 -161.81166 716.39166
-126.33511 -161.76665 716.20386
-126.00922 -161.75858 716.17957
-125.67061 -161.73409 716.08252
-125.35067 -161.73357 716.09161
-125.0451 -161.75163 716.18292
-124.7511 -161.78479 716.34106
-177.40007 -166.17027 735.25818
-177.03517 -166.13654 735.12347
-176.6971 -166.1279 735.09985
-176.34753 -166.1084 735.02814
-176.01292 -166.10295 735.01855
-164.34839 -164.95648 730.39868
-163.97749 -164.91188 730.21509
-163.64781 -164.90863 730.21454
-163.30051 -164.88757 730.13519
-162.9507 -164.86392 730.04425
