ply
format ascii 1.0
comment PCL generated
element vertex 1496
property float x
property float y
property float z
element camera 0
property float view_px
property float view_py
property float view_pz
property float x_axisx
property float x_axisy
property float x_axisz
property float y_axisx
property float y_axisy
property float y_axisz
property float z_axisx
property float z_axisy
property float z_axisz
property float focal
property float scalex
property float scaley
property float centerx
property float centery
property int viewportx
property int viewporty
property float k1
property float k2
end_header
-228.31819 -137.25862 746.79132
-227.91699 -137.21855 746.59082
-227.54189 -137.19411 746.47528
-227.10718 -137.13359 746.16351
-226.69809 -137.08839 745.93506
-226.29535 -137.04689 745.72675
-225.92564 -137.02531 745.62683
-225.54768 -136.99866 745.49921
-225.15445 -136.96265 745.32062
-224.76938 -136.93147 745.16846
-224.45737 -136.94479 745.25836
-224.13266 -136.95041 745.30634
-223.71417 -136.89864 745.04199
-223.2518 -136.81982 744.63043
-222.82417 -136.7621 744.33368
-222.45241 -136.73854 744.22278
-222.15855 -136.76288 744.37262
-221.80679 -136.75157 744.32843
-221.48184 -136.75681 744.37421
-221.131 -136.74603 744.33289
-220.7439 -136.71277 744.16919
-220.46465 -136.74629 744.36902
-200.54741 -135.00899 735.7879
-200.20099 -134.99736 735.74109
-199.83734 -134.97406 735.63055
-199.49585 -134.96565 735.60132
-199.15479 -134.95752 735.57343
-198.79871 -134.93915 735.48987
-198.42706 -134.91016 735.34827
-198.05847 -134.88313 735.21747
-197.62317 -134.81052 734.83813
-197.26822 -134.79256 734.75665
-196.89516 -134.76216 734.60736
-196.49039 -134.70992 734.33893
-196.10907 -134.6736 734.15735
-195.79082 -134.68053 734.21149
-195.43593 -134.66225 734.12817
-195.06454 -134.63252 733.98248
-194.68286 -134.59558 733.7973
-194.31868 -134.57062 733.67761
-193.96077 -134.54994 733.58112
-193.59244 -134.52194 733.4447
-193.21024 -134.48418 733.25513
-192.81645 -134.43825 733.02087
-192.4675 -134.42346 732.95642
-192.08527 -134.38531 732.76465
-191.71841 -134.35783 732.63098
-191.37598 -134.34738 732.59021
-191.02336 -134.32977 732.51031
-190.63359 -134.2859 732.28717
-190.29681 -134.27928 732.26721
-189.91591 -134.24146 732.07697
-189.52637 -134.19737 731.85266
-189.18642 -134.18831 731.81927
-188.82135 -134.16138 731.68848
-188.43445 -134.1188 731.47229
-188.05786 -134.08344 731.29541
-187.71753 -134.07385 731.25909
-187.32474 -134.02669 731.01788
-186.9183 -133.96959 730.72235
-186.55649 -133.94432 730.60046
-186.23193 -133.94577 730.62427
-185.92317 -133.95859 730.71008
-185.58986 -133.95375 730.69958
-237.16101 -137.58887 750.02094
-236.74742 -137.54396 749.79382
-236.27995 -137.46756 749.39508
-235.8781 -137.42918 749.20355
-234.91994 -137.26184 748.32666
-234.65111 -137.30083 748.55695
-234.43158 -137.36882 748.94531
-234.17511 -137.41534 749.21667
-233.91711 -137.46109 749.48376
-228.61029 -136.89859 746.64532
-228.31583 -136.92264 746.79407
-227.96066 -136.91032 746.74445
-227.56268 -136.87219 746.55402
-227.13147 -136.81396 746.25385
-226.74292 -136.78128 746.09308
-226.28557 -136.70694 745.70508
-225.9118 -136.68297 745.59174
-225.55092 -136.66669 745.52045
-225.19775 -136.65508 745.47455
-224.79767 -136.61491 745.27289
-224.47026 -136.61887 745.31183
-224.08223 -136.58586 745.14929
-223.67464 -136.54083 744.92096
-223.24692 -136.48335 744.62482
-222.81754 -136.4247 744.32214
-222.45642 -136.40771 744.24689
-222.11842 -136.40488 744.24878
-221.78432 -136.40443 744.26373
-221.44211 -136.39899 744.25134
-221.09224 -136.38881 744.21313
-220.72063 -136.36517 744.10144
-220.41893 -136.3847 744.22534
-220.13293 -136.41405 744.40277
-201.34242 -134.77144 736.26581
-200.93742 -134.72075 736.00543
-200.53784 -134.67351 735.76398
-200.20009 -134.66772 735.7489
-199.84172 -134.64803 735.65784
-199.49741 -134.63774 735.61823
-199.14784 -134.62387 735.55896
-198.7943 -134.60727 735.48474
-198.41817 -134.5753 735.32654
-198.01283 -134.52338 735.05927
-197.61096 -134.47362 734.80389
-197.23529 -134.44159 734.64526
-196.87515 -134.42003 734.54388
-196.49794 -134.38673 734.37836
-196.13626 -134.36397 734.27032
-195.81021 -134.36557 734.29547
-195.43166 -134.33109 734.12335
-195.03322 -134.28281 733.87579
-194.67189 -134.25995 733.76727
-194.29973 -134.22955 733.61737
-193.95595 -134.21864 733.5741
-193.59247 -134.19406 733.45605
-193.21735 -134.16135 733.29346
-192.80908 -134.10544 733.00415
-192.43373 -134.07228 732.83905
-192.086 -134.05827 732.77875
-191.72121 -134.03232 732.65302
-191.37891 -134.02199 732.61279
-191.01112 -133.99377 732.47467
-190.62134 -133.95 732.25146
-190.2793 -133.93967 732.21118
-189.90848 -133.909 732.05963
-189.52501 -133.86932 731.85876
-189.1898 -133.86365 731.84381
-188.81277 -133.82829 731.66656
-188.42816 -133.78743 731.45923
-188.05328 -133.75337 731.28906
-187.70085 -133.73517 731.20551
-187.30878 -133.68861 730.96698
-186.90955 -133.63678 730.69952
-186.59441 -133.645 730.76038
-186.2594 -133.63899 730.74341
-185.94789 -133.64986 730.81873
-185.61171 -133.64297 730.797
-237.16916 -137.25742 750.05701
-236.74677 -137.2075 749.802
-236.28874 -137.13676 749.43323
-235.9312 -137.12425 749.38257
-235.54369 -137.09424 749.23627
-234.95175 -136.94501 748.43835
-234.59897 -136.93492 748.40094
-234.36362 -136.99345 748.73853
-234.13026 -137.05333 749.08356
-233.91051 -137.12134 749.47296
-228.67233 -136.60115 746.8584
-228.34761 -136.6071 746.90851
-227.95711 -136.57367 746.74329
-227.55283 -136.53186 746.53217
-227.10164 -136.46175 746.16638
-226.7021 -136.42252 745.9693
-226.27495 -136.36652 745.6806
-225.8913 -136.33661 745.53461
-225.54506 -136.32922 745.51166
-225.17812 -136.30928 745.4201
-224.76768 -136.26294 745.18408
-224.46783 -136.28358 745.31439
-224.01828 -136.21326 744.9472
-223.52725 -136.11746 744.44073
-223.15022 -136.0909 744.31287
-222.82869 -136.09816 744.37
-222.45364 -136.07272 744.24823
-222.11473 -136.06932 744.24701
-221.74071 -136.04439 744.12799
-221.38756 -136.0322 744.07867
-221.06876 -136.04112 744.14478
-220.65958 -135.99435 743.90631
-220.36769 -136.01984 744.06305
-220.05327 -136.03148 744.14404
-201.70102 -134.46162 736.36694
-201.31975 -134.42702 736.19403
-200.9595 -134.40634 736.09741
-200.56256 -134.36102 735.86578
-200.20268 -134.34042 735.76959
-199.84564 -134.32167 735.68341
-199.49417 -134.30661 735.61743
-199.12833 -134.28178 735.49805
-198.75958 -134.25493 735.36749
-198.40283 -134.2361 735.28082
-198.03311 -134.20842 735.14569
-197.65015 -134.17168 734.96088
-197.23799 -134.11493 734.6665
-196.88486 -134.09821 734.59131
-196.50313 -134.06192 734.40894
-196.14294 -134.04024 734.30658
-195.81828 -134.0428 734.33698
-195.43541 -134.00545 734.14874
-195.02771 -133.95091 733.86633
-194.68324 -133.93971 733.82123
-194.30836 -133.90752 733.66119
-193.9283 -133.87163 733.48083
-193.57768 -133.85596 733.41132
-193.2244 -133.83842 733.33148
-192.82378 -133.78798 733.07129
-192.4539 -133.75871 732.92719
-192.09294 -133.73557 732.81659
-191.71072 -133.69749 732.62421
-191.36166 -133.68248 732.55804
-191.01505 -133.66911 732.50098
-190.63448 -133.6319 732.31323
-190.27031 -133.60609 732.18793
-189.91273 -133.58481 732.0874
-189.53938 -133.55237 731.92566
-189.20584 -133.5479 731.91724
-188.81158 -133.50047 731.6734
-188.41649 -133.45229 731.42535
-188.02632 -133.40744 731.19556
-187.68782 -133.39915 731.1662
-187.29828 -133.35451 730.93738
-186.89017 -133.29645 730.63519
-186.61836 -133.33559 730.8656
-186.30481 -133.34497 730.93298
-185.9745 -133.34236 730.93469
-185.64713 -133.34189 730.94794
-236.74321 -136.86938 749.80109
-236.28198 -136.79697 749.42212
-235.93279 -136.78931 749.39789
-235.50484 -136.73589 749.12299
-234.98755 -136.63039 748.56268
-234.58601 -136.59198 748.36993
-234.32249 -136.63393 748.61749
-234.10475 -136.70274 749.01227
-233.93137 -136.79768 749.55017
-229.00764 -136.26694 746.85339
-228.6898 -136.27698 746.92596
-228.34616 -136.27164 746.91425
-227.95795 -136.23965 746.75653
-227.51488 -136.17473 746.41821
-227.10768 -136.13112 746.19672
-226.68417 -136.07761 745.92084
-226.3037 -136.04979 745.78589
-225.95163 -136.03899 745.7442
-225.54597 -135.99586 745.52527
-225.17769 -135.97517 745.42932
-224.84018 -135.97301 745.43494
-224.44553 -135.93626 745.25085
-224.04616 -135.89653 745.05054
-223.59894 -135.82761 744.69006
-223.17786 -135.7744 744.41571
-222.80899 -135.75281 744.31482
-222.42252 -135.72043 744.15466
-222.09576 -135.72446 744.19415
-221.71663 -135.69644 744.05786
-221.34749 -135.67445 743.95465
-221.02357 -135.68018 744.00336
-220.64925 -135.65489 743.88214
-220.2822 -135.63403 743.7851
-220.0258 -135.68135 744.06189
-202.11636 -134.18932 736.6745
-201.69643 -134.12921 736.36121
-201.30319 -134.08673 736.14453
-200.94984 -134.07069 736.07312
-200.58955 -134.04996 735.97595
-200.22144 -134.02394 735.84961
-199.85985 -134.0022 735.74683
-199.50392 -133.98418 735.66449
-199.1245 -133.9503 735.495
-198.72348 -133.90178 735.24506
-198.38304 -133.89397 735.21869
-198.04012 -133.88445 735.18292
-197.67101 -133.85716 735.04956
-197.24716 -133.79266 734.71185
-196.87561 -133.76347 734.56799
-196.51962 -133.7448 734.48181
-196.15266 -133.71855 734.35413
-195.8187 -133.71475 734.34967
-195.44547 -133.6841 734.19769
-195.05336 -133.6404 733.97406
-194.68018 -133.60954 733.82092
-194.31166 -133.5818 733.68488
-193.93866 -133.55084 733.53119
-193.58252 -133.53145 733.44092
-193.231 -133.51517 733.3678
-192.84526 -133.47514 733.16418
-192.47681 -133.44698 733.0257
-192.08505 -133.40253 732.79773
-191.72382 -133.37914 732.68549
-191.36717 -133.35889 732.59045
-191.01259 -133.34 732.50287
-190.63046 -133.30179 732.30914
-190.26974 -133.27844 732.19702
-189.91185 -133.257 732.09534
-189.56088 -133.24034 732.01996
-189.20993 -133.22366 731.94434
-188.82608 -133.18372 731.74091
-188.42599 -133.13214 731.47363
-188.0325 -133.08505 731.23096
-187.68668 -133.07161 731.17303
-187.30588 -133.03328 730.97845
-186.89835 -132.97577 730.67847
-186.64175 -133.02567 730.96857
-186.32399 -133.03206 731.01965
-185.9986 -133.033 731.04077
-236.73703 -136.52974 749.79169
-236.2625 -136.44983 749.37054
-235.93089 -136.45235 749.40216
-235.54134 -136.4213 749.24939
-235.09193 -136.35545 748.90546
-234.6132 -136.27238 748.46698
-234.35641 -136.31818 748.73621
-234.09789 -136.36308 749.00061
-233.90717 -136.44769 749.48303
-229.28647 -135.89926 746.66443
-229.0211 -135.94034 746.90771
-228.69183 -135.94357 746.94305
-228.34149 -135.93427 746.90948
-227.92616 -135.8862 746.6629
-227.45334 -135.80363 746.22681
-227.08971 -135.78613 746.14819
-226.65402 -135.72543 745.83215
-226.29297 -135.70932 745.76111
-225.95346 -135.70607 745.7608
-225.57912 -135.68188 745.64532
-225.22281 -135.66847 745.58917
-224.82668 -135.63101 745.40076
-224.43723 -135.59747 745.23389
-224.06824 -135.57622 745.13452
-223.58769 -135.48729 744.66321
-223.22293 -135.46837 744.57666
-222.78979 -135.40784 744.26129
-222.36649 -135.35309 743.97784
-221.03876 -135.35632 744.06512
-220.66399 -135.33086 743.94244
-220.21428 -135.25929 743.56641
-219.91212 -135.27827 743.68811
-219.71983 -135.36502 744.18225
-218.77019 -135.19008 743.25513
-218.42104 -135.17999 743.21692
-218.10222 -135.18867 743.28192
-217.7621 -135.18414 743.27435
-217.38321 -135.15552 743.13416
-202.85138 -133.90993 736.9278
-202.48674 -133.88681 736.81732
-202.0957 -133.84615 736.61023
-201.73616 -133.82625 736.51733
-201.33694 -133.77991 736.27899
-200.9619 -133.74953 736.12836
-200.60493 -133.73108 736.04346
-200.22319 -133.69601 735.86713
-199.85851 -133.67227 735.75293
-199.52798 -133.67131 735.76428
-199.15656 -133.64293 735.62457
-198.75185 -133.59206 735.36108
-198.40103 -133.57733 735.29651
-198.02734 -133.54707 735.14655
-197.66664 -133.52554 735.04443
-197.28542 -133.49004 734.86542
-196.91 -133.45836 734.70752
-196.5229 -133.41862 734.50519
-196.1494 -133.388 734.35309
-195.80002 -133.37372 734.29083
-195.44795 -133.35754 734.2182
-195.06404 -133.31956 734.02545
-194.66127 -133.26854 733.76086
-194.3105 -133.25301 733.69171
-193.92564 -133.214 733.49323
-193.57716 -133.19991 733.43188
-193.21602 -133.17703 733.3222
-192.82487 -133.13335 733.09796
-192.44807 -133.09946 732.92755
-192.08916 -133.07782 732.82465
-191.72966 -133.05571 732.71912
-191.38176 -133.0416 732.65759
-191.00905 -133.01015 732.50061
-190.6246 -132.97041 732.29791
-190.2565 -132.94196 732.15735
-189.91084 -132.92909 732.10272
-189.55183 -132.90685 731.99628
-189.20586 -132.89368 731.93988
-188.82431 -132.85545 731.74536
-188.40544 -132.79077 731.40515
-188.05994 -132.77766 731.349
-187.69482 -132.75063 731.21613
-187.31389 -132.7123 731.021
-186.93968 -132.67863 730.8515
-186.65259 -132.70674 731.02234
-186.34515 -132.72049 731.11401
-186.02519 -132.72534 731.15674
-236.69154 -136.16753 749.6579
-236.25589 -136.11017 749.35986
-235.90691 -136.10263 749.33618
-235.53371 -136.0811 749.23535
-235.1459 -136.05106 749.08771
-234.67809 -135.97456 748.68427
-234.39737 -136.00641 748.87732
-234.08571 -136.02039 748.97198
-233.85855 -136.08354 749.33752
-229.62955 -135.56978 746.68481
-229.375 -135.6171 746.96307
-229.03073 -135.61145 746.94958
-228.69502 -135.61086 746.96393
-228.34073 -135.59923 746.91748
-227.95523 -135.569 746.76855
-227.52448 -135.51173 746.47064
-227.06981 -135.44005 746.09326
-226.66959 -135.40065 745.89386
-226.32626 -135.39519 745.88129
-225.94562 -135.36736 745.74542
-225.59958 -135.36018 745.72345
-225.20505 -135.32387 745.54089
-224.82529 -135.29634 745.40668
-224.45638 -135.27524 745.30798
-224.06204 -135.23877 745.12445
-223.56134 -135.13788 744.586
-223.18199 -135.11014 744.45062
-220.15292 -134.88878 743.36987
-219.80615 -134.88028 743.34033
-219.47917 -134.88393 743.37781
-219.13445 -134.87665 743.35504
-218.70592 -134.8177 743.04742
-218.40079 -134.83475 743.15869
-218.08537 -134.84549 743.23517
-217.76578 -134.85368 743.29761
-217.46219 -134.87183 743.41492
-217.07996 -134.84117 743.26318
-203.59224 -133.63379 737.20038
-203.19818 -133.59157 736.98419
-202.82068 -133.56009 736.82727
-202.46521 -133.54306 736.75
-202.08853 -133.51196 736.59515
-201.74347 -133.50168 736.55505
-201.366 -133.46989 736.3963
-200.97661 -133.43007 736.19324
-200.60251 -133.4003 736.04559
-200.22551 -133.3685 735.88678
-199.86124 -133.34506 735.77405
-199.52559 -133.3407 735.76654
-199.15747 -133.31459 735.63904
-198.74617 -133.25943 735.3512
-198.37746 -133.2327 735.22015
-198.00406 -133.20271 735.07129
-197.65128 -133.18654 734.99847
-197.3027 -133.17313 734.94098
-196.91275 -133.13171 734.72888
-196.51732 -133.08644 734.49548
-196.16376 -133.06943 734.41803
-195.8143 -133.05513 734.35553
-195.44424 -133.02678 734.21545
-195.05051 -132.98219 733.98572
-194.70985 -132.97369 733.9552
-194.319 -132.93083 733.73492
-193.92287 -132.8842 733.4939
-193.58475 -132.87726 733.4718
-193.21536 -132.84875 733.33087
-192.8329 -132.81119 733.13971
-192.44321 -132.76848 732.92023
-192.10489 -132.76112 732.89587
-191.72676 -132.7262 732.7193
-191.38005 -132.71294 732.66229
-191.02095 -132.69102 732.5575
-190.64154 -132.65491 732.37427
-190.24989 -132.61012 732.14319
-189.90263 -132.59619 732.0824
-189.54388 -132.57416 731.97687
-189.19997 -132.56245 731.92841
-188.84254 -132.54123 731.82727
-188.40085 -132.46068 731.39856
-188.04941 -132.44342 731.31934
-187.69098 -132.42117 731.21246
-187.32971 -132.39682 731.09406
-187.01788 -132.40741 731.16852
-186.6785 -132.39848 731.13519
-186.36806 -132.41008 731.21527
-236.72935 -135.85324 749.7879
-236.26144 -135.7775 749.3877
-235.91144 -135.76941 749.36078
-235.52892 -135.74257 749.23041
-235.11958 -135.70016 749.0141
-234.72777 -135.66776 748.85303
-234.40012 -135.67241 748.89642
-234.06522 -135.67287 748.91669
-233.76329 -135.69246 749.0426
-233.58673 -135.78499 749.57111
-229.71498 -135.28555 746.97296
-229.38214 -135.28668 746.99677
-229.03125 -135.27713 746.96167
-228.681 -135.26794 746.92853
-228.32558 -135.25566 746.8783
-227.92558 -135.2169 746.68182
-227.53586 -135.18413 746.51849
-227.03908 -135.08755 746.00275
-226.67181 -135.06789 745.91162
-226.32339 -135.0594 745.88232
-225.98521 -135.05699 745.8866
-225.59502 -135.02345 745.71887
-225.22354 -135.00105 745.61267
-224.90292 -135.00909 745.67456
-224.67479 -135.07277 746.04376
-219.78114 -134.53217 743.26642
-219.44005 -134.5271 743.25586
-219.08807 -134.51538 743.20837
-218.72284 -134.49544 743.11554
-218.39073 -134.49585 743.13513
-218.05739 -134.49551 743.15051
-217.73802 -134.50378 743.21356
-204.3029 -133.33734 737.36194
-203.96645 -133.33307 737.35504
-203.61079 -133.31619 737.2785
-203.1877 -133.25505 736.95715
-202.80443 -133.21986 736.77924
-202.45648 -133.20782 736.72931
-202.08713 -133.18159 736.60095
-201.76196 -133.18448 736.63361
-201.38934 -133.15598 736.49268
-200.97783 -133.10165 736.2088
-200.57851 -133.05522 735.96857
-200.21829 -133.03462 735.87128
-199.86935 -133.02144 735.815
-199.52811 -133.01337 735.78693
-199.16412 -132.99007 735.67462
-198.73418 -132.92259 735.31793
-198.35117 -132.88634 735.13385
-198.00359 -132.87372 735.08057
-197.64742 -132.8553 734.99518
-197.29906 -132.84207 734.93854
-196.93253 -132.81654 734.81378
-196.52661 -132.76434 734.54132
-196.1658 -132.74245 734.43671
-195.80951 -132.72359 734.34875
-195.42215 -132.68353 734.14355
-195.03499 -132.64349 733.93842
-194.70901 -132.64502 733.9632
-194.3334 -132.61266 733.80048
-193.96519 -132.58525 733.66522
-193.59955 -132.55951 733.53906
-193.20552 -132.51422 733.30475
-192.84503 -132.49179 733.19696
-192.47227 -132.46086 733.04205
-192.09991 -132.4301 732.88806
-191.70403 -132.383 732.64355
-191.35345 -132.36708 732.57172
-191.01083 -132.3566 732.52991
-190.6557 -132.3374 732.43988
-190.27141 -132.29787 732.23724
-189.91122 -132.27499 732.12677
-189.53709 -132.24231 731.96198
-189.19049 -132.22873 731.90295
-188.8221 -132.19987 731.75934
-188.38837 -132.12509 731.36139
-188.02588 -132.1001 731.23907
-187.67664 -132.08432 731.16785
-187.3488 -132.0836 731.17987
-187.04221 -132.09789 731.2749
-186.69598 -132.08417 731.21503
-186.39391 -132.10167 731.32794
-236.26047 -135.44107 749.39478
-235.94283 -135.4516 749.4707
-235.56003 -135.42468 749.3396
-235.09848 -135.35234 748.95709
-234.73685 -135.33742 748.89227
-234.41106 -135.34312 748.94159
-234.03505 -135.31981 748.83038
-233.72101 -135.33234 748.91742
-233.46605 -135.37914 749.19415
-230.45113 -134.98997 747.16425
-230.07736 -134.96713 747.05548
-229.72746 -134.95827 747.02399
-229.38058 -134.95113 747.00208
-229.02304 -134.93767 746.94525
-228.6559 -134.91853 746.85693
-228.32132 -134.91858 746.87482
-227.91171 -134.87422 746.64685
-227.53549 -134.84952 746.52765
-227.08159 -134.77864 746.15289
-226.6797 -134.73848 745.94806
-226.32835 -134.72826 745.90906
-226.00061 -134.73209 745.94781
-225.60005 -134.69247 745.74603
-218.75093 -134.17999 743.22162
-218.43822 -134.19235 743.30737
-218.11736 -134.19972 743.36554
-217.73091 -134.1667 743.19995
-217.43221 -134.18773 743.33374
-205.09357 -133.09244 737.81
-204.68234 -133.03972 737.53455
-204.30106 -133.00632 737.36621
-203.97124 -133.00638 737.3833
-203.61731 -132.99069 737.31311
-203.22916 -132.95256 737.11841
-202.81934 -132.90012 736.84442
-202.45164 -132.87514 736.72266
-202.08736 -132.85233 736.61285
-201.75803 -132.85245 736.63025
-201.37302 -132.81586 736.44403
-200.96864 -132.76634 736.18616
-200.58356 -132.72943 735.99811
-200.22614 -132.71074 735.91107
-199.87985 -132.69937 735.86469
-199.53612 -132.68968 735.82751
-199.14389 -132.64766 735.61102
-198.70639 -132.57526 735.22614
-198.34695 -132.55481 735.12927
-198.01128 -132.5502 735.12024
-197.64938 -132.52798 735.01355
-197.28722 -132.50554 734.90552
-196.94862 -132.49886 734.88495
-196.54465 -132.44809 734.61987
-196.13258 -132.39169 734.32349
-195.78036 -132.37556 734.25049
-195.39644 -132.33794 734.05817
-195.00629 -132.29593 733.84155
-194.67328 -132.29262 733.8396
-194.32024 -132.27567 733.7619
-193.96689 -132.25845 733.68274
-193.60284 -132.23387 733.56274
-193.19295 -132.17783 733.26813
-192.85275 -132.16937 733.23755
-192.49976 -132.1521 733.15796
-192.10234 -132.1042 732.90851
-191.70992 -132.0596 732.67737
-191.35722 -132.04225 732.59735
-191.00923 -132.02811 732.53497
-190.62486 -131.98871 732.33264
-190.27391 -131.97235 732.25806
-189.91504 -131.95044 732.15265
-189.53084 -131.91083 731.94897
-189.18323 -131.89661 731.88617
-188.81526 -131.8681 731.74408
-188.38913 -131.7988 731.37561
-188.02104 -131.76994 731.23157
-187.69057 -131.7674 731.23346
-187.36441 -131.76787 731.25214
-187.05185 -131.77792 731.32391
-186.72328 -131.7767 731.33319
-236.25673 -135.10309 749.39313
-235.92886 -135.10771 749.43658
-235.5284 -135.07072 749.24915
-235.08957 -135.0116 748.93896
-234.73705 -135.00192 748.90308
-234.41658 -135.0107 748.96948
-234.04318 -134.98897 748.8667
-233.68787 -134.9776 748.82147
-233.35556 -134.97954 748.84991
-233.07381 -135.01074 749.04077
-232.67545 -134.9744 748.85693
-232.27029 -134.93402 748.65057
-231.93475 -134.93399 748.66821
-231.43144 -134.83623 748.14349
-230.88672 -134.71404 747.48315
-230.45909 -134.6599 747.20038
-230.08298 -134.63574 747.08405
-229.72806 -134.62395 747.03619
-229.38232 -134.61751 747.01813
-229.01523 -134.59848 746.93018
-228.66025 -134.58653 746.88153
-228.29465 -134.56831 746.79797
-227.90692 -134.53694 746.64154
-227.52734 -134.51031 746.51135
-227.08516 -134.44655 746.17499
-226.6985 -134.41551 746.02032
-226.33684 -134.39922 745.94751
-226.00465 -134.40041 745.97168
-225.68993 -134.412 746.05359
-217.40343 -133.83728 743.24603
-205.85416 -132.82715 738.14703
-205.44485 -132.77609 737.88007
-205.08263 -132.75533 737.78156
-204.69087 -132.71535 737.57617
-204.31642 -132.68648 737.43262
-203.97675 -132.68013 737.41412
-203.61499 -132.65939 737.31561
-203.25479 -132.6396 737.22235
-202.81195 -132.56572 736.82849
-202.44884 -132.54381 736.72339
-202.09296 -132.52657 736.64423
-201.75053 -132.51808 736.61383
-201.35646 -132.47562 736.39441
-200.95557 -132.4285 736.14917
-200.59329 -132.40674 736.04486
-200.23557 -132.38789 735.95679
-199.87254 -132.36548 735.84875
-199.51862 -132.34903 735.77399
-199.13727 -132.31432 735.59753
-198.70778 -132.24744 735.24231
-198.33885 -132.22072 735.11029
-197.99318 -132.20943 735.06409
-197.64159 -132.19415 734.99567
-197.2793 -132.17165 734.88702
-196.92542 -132.15471 734.80939
-196.54614 -132.12065 734.63647
-196.14517 -132.07187 734.38171
-195.76825 -132.03914 734.21613
-195.37341 -131.99422 733.98273
-194.99466 -131.96001 733.8089
-194.66347 -131.95793 733.81372
-194.31334 -131.94298 733.74701
-193.96416 -131.92862 733.68353
-193.58826 -131.89603 733.51855
-193.19217 -131.84953 733.27637
-192.84134 -131.83383 733.20526
-192.46851 -131.80299 733.05011
-192.09644 -131.77257 732.89716
-191.71184 -131.73344 732.6958
-191.37151 -131.72467 732.66321
-191.02328 -131.7104 732.6001
-190.63124 -131.66582 732.36829
-190.26189 -131.6368 732.22302
-189.91531 -131.62346 732.16498
-189.5327 -131.58502 731.96741
-189.14624 -131.54382 731.75433
-188.79823 -131.52925 731.68933
-188.39389 -131.4753 731.40533
-188.03772 -131.45485 731.30768
-187.71994 -131.4612 731.35907
-187.37781 -131.45052 731.31561
-187.06837 -131.46275 731.39978
-186.77046 -131.48314 731.52924
-235.9218 -134.76782 749.42438
-235.52287 -134.7318 749.24182
-235.09863 -134.68117 748.97803
-234.73886 -134.66737 748.91913
-234.38823 -134.65878 748.8891
-234.02205 -134.64124 748.80927
-233.65842 -134.62509 748.7373
-233.30917 -134.61722 748.7113
-232.92004 -134.58627 748.55688
-232.57449 -134.58046 748.5423
-232.18759 -134.55066 748.39429
-231.86081 -134.55565 748.43982
-231.33824 -134.44688 747.85248
-230.80417 -134.33112 747.2262
-230.44872 -134.31911 747.17706
-230.09096 -134.30571 747.1203
-229.72787 -134.28918 747.04596
-229.36438 -134.27234 746.96997
-229.00067 -134.25536 746.89307
-228.65395 -134.24826 746.87128
-228.2515 -134.20839 746.66711
-227.8689 -134.18011 746.52734
-227.41505 -134.10971 746.15332
-227.03677 -134.08376 746.02643
-226.71278 -134.08981 746.0777
-226.3972 -134.10086 746.15686
-226.06442 -134.10176 746.17938
-217.3821 -133.49147 743.18372
-206.94189 -132.55902 738.453
-206.59959 -132.55141 738.42749
-206.25024 -132.53925 738.37659
-205.85553 -132.49785 738.16284
-205.45236 -132.45085 737.91791
-205.07542 -132.42065 737.76648
-204.6844 -132.38126 737.56384
-204.3248 -132.36206 737.47369
-203.99013 -132.35899 737.47345
-203.61542 -132.32991 737.32812
-203.21957 -132.28696 737.10559
-202.78767 -132.22035 736.75122
-202.45004 -132.2151 736.73871
-202.08017 -132.18874 736.60852
-201.71404 -132.16475 736.49152
-201.34613 -132.13951 736.36761
-200.97231 -132.11031 736.2215
-200.59364 -132.07782 736.05713
-200.24498 -132.06499 736.00232
-199.87534 -132.03828 735.87012
-199.51274 -132.01614 735.76331
-199.1402 -131.98735 735.61938
-198.72223 -131.92828 735.30682
-198.33839 -131.89172 735.11963
-197.97968 -131.87178 735.02496
-197.63631 -131.862 734.987
-197.28357 -131.84593 734.914
-196.90746 -131.81416 734.75342
-196.54091 -131.78871 734.62799
-196.13086 -131.73395 734.33917
-195.77003 -131.71211 734.23395
-195.3808 -131.67108 734.02161
-194.99518 -131.63232 733.82196
-194.64522 -131.61757 733.75604
-194.30809 -131.61143 733.73828
-193.95323 -131.59325 733.65332
-193.57878 -131.56171 733.49377
-193.20161 -131.52821 733.32336
-192.82744 -131.49661 733.16351
-192.44939 -131.46228 732.98834
-192.1084 -131.45319 732.95398
-191.71976 -131.41141 732.73724
-191.35992 -131.38925 732.63
-191.0121 -131.37529 732.5683
-190.62733 -131.33582 732.36444
-190.27032 -131.31538 732.26666
-189.91768 -131.29788 732.1853
-189.53856 -131.26198 732.00122
-189.18874 -131.24629 731.92987
-188.80492 -131.20691 731.72638
-188.41856 -131.16565 731.51239
-188.07239 -131.15224 731.45367
-187.75551 -131.15927 731.50897
-187.4053 -131.14297 731.43414
-187.09921 -131.15758 731.53162
-235.93417 -134.43901 749.47382
-235.51262 -134.39018 749.21936
-235.08798 -134.33943 748.95422
-234.73557 -134.32988 748.91876
-234.36397 -134.3093 748.82178
-233.9892 -134.28683 748.71436
-233.63116 -134.27394 748.66022
-233.27235 -134.26056 748.60339
-232.86005 -134.21629 748.37433
-232.50136 -134.20285 748.31714
-232.09691 -134.16293 748.11224
-231.72069 -134.13922 747.9978
-231.29808 -134.08855 747.73297
-230.80104 -133.99452 747.22632
-230.43634 -133.97717 747.14728
-230.08578 -133.968 747.11383
-229.70561 -133.94154 746.98389
-229.35963 -133.93497 746.9649
-228.98865 -133.91374 746.8642
-228.62877 -133.89897 746.79944
-228.24042 -133.86745 746.64124
-227.85669 -133.83855 746.49768
-227.38226 -133.75621 746.05609
-227.03778 -133.75018 746.0401
-226.72919 -133.76534 746.14209
-226.47391 -133.812 746.42004
-209.65517 -132.48158 739.75726
-209.30649 -132.47044 739.71204
-208.85167 -132.39198 739.29095
-208.4572 -132.35156 739.08228
-208.0336 -132.29253 738.76953
-207.63747 -132.25078 738.55334
-207.31357 -132.25499 738.59381
-206.95143 -132.23477 738.49786
-206.60657 -132.22556 738.46326
-206.2587 -132.21437 738.41772
-205.85013 -132.16418 738.1543
-205.45758 -132.12413 737.94751
-205.09212 -132.10143 737.83746
-204.68797 -132.05365 737.58752
-204.32594 -132.03294 737.48871
-203.98752 -132.02747 737.47491
-203.61327 -131.99873 737.33118
-203.18188 -131.9328 736.97974
-202.80096 -131.89949 736.81036
-202.46295 -131.89403 736.79663
-202.06653 -131.85042 736.56976
-201.69197 -131.82097 736.42194
-201.34534 -131.80969 736.37561
-200.97128 -131.7804 736.2287
-200.61029 -131.7596 736.12915
-200.25012 -131.73926 736.03217
-199.84422 -131.68874 735.76648
-199.48738 -131.67043 735.68079
-199.13875 -131.65744 735.62494
-198.74736 -131.61615 735.41077
-198.38287 -131.59254 735.29547
-198.00102 -131.55733 735.11523
-197.65164 -131.54359 735.05505
-197.27928 -131.51451 734.90906
-196.8802 -131.46747 734.66272
-196.51985 -131.4462 734.5603
-196.13721 -131.40991 734.37402
-195.78227 -131.39209 734.29089
-195.37172 -131.33682 733.99847
-194.98236 -131.29564 733.78473
-194.62895 -131.27859 733.70581
-194.30504 -131.28139 733.73785
-193.94536 -131.25998 733.63458
-193.58913 -131.24086 733.54407
-193.22302 -131.21497 733.41565
-192.82732 -131.16884 733.17419
-192.47923 -131.155 733.11316
-192.11661 -131.13121 732.99646
-191.72864 -131.08998 732.78229
-191.32921 -131.04079 732.5235
-190.98955 -131.03242 732.49298
-190.61903 -131.00281 732.34369
-190.25835 -130.97989 732.23175
-189.92424 -130.97519 732.22168
-189.54298 -130.93793 732.02954
-189.15146 -130.89343 731.79688
-188.81041 -130.88374 731.75891
-188.44038 -130.85393 731.60828
-188.09062 -130.83809 731.53583
-187.78777 -130.85489 731.64587
-187.46066 -130.85481 731.66144
-187.13123 -130.8531 731.66803
-235.9895 -134.1346 749.65973
-235.50201 -134.04839 749.19574
-235.08012 -133.99933 748.93939
-234.73067 -133.99149 748.91333
-234.37408 -133.97952 748.86432
-233.98405 -133.94841 748.70813
-233.58176 -133.91016 748.51208
-233.18253 -133.87355 748.32526
-232.84486 -133.87225 748.33575
-232.51239 -133.87392 748.36285
-232.09836 -133.82858 748.12714
-231.67067 -133.77521 747.84656
-231.24921 -133.7253 747.58521
-230.84956 -133.68787 747.39374
-230.45265 -133.65192 747.21039
-230.09703 -133.63985 747.16058
-229.68861 -133.59703 746.9389
-229.349 -133.59416 746.94055
-228.98325 -133.57603 746.85687
-228.57997 -133.53595 746.65039
-228.26364 -133.54659 746.72754
-227.87314 -133.51382 746.56195
-227.40381 -133.43469 746.13715
-227.0809 -133.44139 746.1922
-226.77364 -133.45731 746.29877
-210.31487 -132.14908 739.72534
-209.94899 -132.12717 739.61975
-209.5972 -132.11407 739.56348
-209.24062 -132.09789 739.48999
-208.83809 -132.05264 739.2536
-208.4537 -132.01871 739.08069
-208.06783 -131.98372 738.90186
-207.6739 -131.94353 738.69379
-207.32643 -131.93277 738.65045
-206.97244 -131.9178 738.58362
-206.62704 -131.90829 738.5473
-206.24762 -131.87697 738.38885
-205.82709 -131.81924 738.08252
-205.47372 -131.80441 738.01636
-205.09595 -131.77383 737.86206
-204.70547 -131.735 737.66144
-204.33722 -131.71036 737.54028
-203.9791 -131.69218 737.45532
-203.60182 -131.66154 737.3006
-203.19321 -131.61053 737.03168
-202.83665 -131.59314 736.95099
-202.47546 -131.57265 736.85303
-202.09387 -131.53882 736.6803
-201.68761 -131.4888 736.41693
-201.31636 -131.46147 736.28058
-200.95381 -131.43976 736.17566
-200.60283 -131.42554 736.11273
-200.25558 -131.41373 736.06323
-199.8373 -131.35518 735.75195
-199.50177 -131.35092 735.74475
-199.13791 -131.32799 735.63287
-198.7506 -131.28947 735.43378
-198.37242 -131.25687 735.2677
-198.00941 -131.23422 735.15735
-197.66411 -131.22324 735.11243
-197.30301 -131.20174 735.00848
-196.86273 -131.1274 734.60858
-196.51524 -131.11473 734.55414
-196.1449 -131.08673 734.41376
-195.79805 -131.0744 734.36108
-195.37869 -131.01338 734.03571
-194.97836 -130.96497 733.78082
-194.62935 -130.95088 733.71832
-194.30127 -130.95085 733.73462
-193.92958 -130.92142 733.586
-193.57861 -130.90588 733.51532
-193.21182 -130.87956 733.38422
-192.82764 -130.84135 733.18646
-192.483 -130.8299 733.13861
-192.10934 -130.79865 732.9798
-191.72594 -130.76065 732.78308
-191.33711 -130.71881 732.56488
-190.99213 -130.70683 732.51398
-190.62369 -130.67873 732.37274
-190.25888 -130.65302 732.24487
-189.93327 -130.65421 732.2677
-189.55656 -130.62016 732.09308
-189.14461 -130.56168 731.78149
-188.81227 -130.55804 731.77728
-188.45648 -130.53816 731.68195
-188.12384 -130.53427 731.67621
-187.79759 -130.53479 731.69525
-187.48318 -130.54358 731.76062
-235.53369 -133.73065 749.3067
-235.08055 -133.66397 748.95093
-234.71277 -133.64571 748.86633
-234.37956 -133.64711 748.89203
-233.99246 -133.61774 748.74524
-233.60469 -133.58789 748.59576
-233.17625 -133.53467 748.31537
-232.83366 -133.53052 748.30994
-232.45494 -133.50565 748.18823
-232.08502 -133.48572 748.09436
-231.64438 -133.42502 747.77191
-231.22493 -133.37637 747.51697
-230.92271 -133.39531 747.64081
-230.49277 -133.34038 747.35071
-230.07271 -133.29105 747.09192
-229.67305 -133.2534 746.89856
-229.3512 -133.26085 746.95801
-228.91667 -133.20274 746.65002
-228.55421 -133.18646 746.57648
-228.21146 -133.18166 746.56714
-227.83363 -133.15634 746.44287
-227.43884 -133.121 746.26245
-227.14037 -133.14203 746.39789
-226.88046 -133.18575 746.66064
-210.30209 -131.81009 739.6911
-209.9113 -131.77258 739.49768
-209.55602 -131.75729 739.42889
-209.18768 -131.73372 739.31366
-208.77942 -131.68489 739.05664
-208.42958 -131.67282 739.00592
-208.06274 -131.64996 738.89459
-207.68506 -131.62013 738.7442
-207.34386 -131.61339 738.72327
-206.98778 -131.59715 738.64911
-206.63397 -131.58232 738.58282
-206.25839 -131.55356 738.43823
-205.83545 -131.49445 738.12335
-205.44652 -131.45688 737.92938
-205.07974 -131.43341 737.81451
-204.68417 -131.39139 737.59546
-204.3252 -131.37276 737.50775
-203.98573 -131.36664 737.49017
-203.6237 -131.34592 737.39075
-203.23492 -131.30786 737.19385
-202.87064 -131.28554 737.08527
-202.48859 -131.25162 736.91162
-202.08429 -131.20314 736.65625
-201.70242 -131.16911 736.48193
-201.34053 -131.14796 736.37988
-200.98393 -131.13022 736.29694
-200.62221 -131.10904 736.1947
-200.26163 -131.08855 736.09631
-199.83051 -131.02174 735.73785
-199.45537 -130.9915 735.58466
-199.13609 -130.99788 735.63708
-198.74916 -130.95972 735.43939
-198.354 -130.91597 735.21039
-197.99678 -130.89719 735.12146
-197.66541 -130.89545 735.12823
-197.33205 -130.89238 735.12756
-196.87535 -130.80737 734.66669
-196.51595 -130.78682 734.56775
-196.15514 -130.76527 734.4632
-195.78036 -130.7343 734.30573
-195.36479 -130.67596 733.99451
-194.97046 -130.63165 733.76208
-194.64191 -130.63135 733.77673
-194.30045 -130.62233 733.74255
-193.91734 -130.58528 733.55078
-193.55812 -130.56418 733.44867
-193.22311 -130.55939 733.43811
-192.84669 -130.52655 733.27002
-192.48274 -130.50204 733.14868
-192.11389 -130.47415 733.00824
-191.73267 -130.43773 732.81989
-191.34445 -130.39642 732.60413
-190.99542 -130.38171 732.53778
-190.62163 -130.35004 732.37598
-190.233 -130.30807 732.15643
-189.92444 -130.32091 732.24475
-189.56255 -130.29713 732.12732
-189.13481 -130.22794 731.7547
-188.82605 -130.24057 731.84186
-188.48759 -130.23273 731.8139
-188.15108 -130.2262 731.79333
-187.82095 -130.22406 731.79749
-187.52985 -130.24902 731.95386
-235.54959 -133.40387 749.36737
-235.06584 -133.32001 748.91412
-234.69733 -133.30138 748.82727
-234.36559 -133.30359 748.85748
-233.99297 -133.28252 748.75702
-233.63034 -133.26711 748.68817
-233.21712 -133.22272 748.45667
-232.80374 -133.17813 748.22394
-232.42557 -133.15359 748.10388
-232.06671 -133.14006 748.04553
-231.66541 -133.10208 747.84998
-231.24371 -133.05229 747.58789
-230.92896 -133.06395 747.6712
-230.47563 -132.9957 747.30542
-230.06711 -132.95312 747.08392
-229.66269 -132.91281 746.87506
-229.35823 -132.93033 746.99115
-228.94107 -132.88246 746.73987
-228.51476 -132.82913 746.45789
-228.11697 -132.79225 746.26831
-227.82465 -132.81676 746.42371
-227.49635 -132.82034 746.46143
-227.19742 -132.84108 746.5957
-209.18111 -131.39883 739.30115
-208.77504 -131.3515 739.05188
-208.41917 -131.33565 738.97974
-208.05916 -131.31714 738.89258
-207.71181 -131.30658 738.85016
-207.36554 -131.29665 738.81128
-207.00546 -131.27794 738.72296
-206.66541 -131.27191 738.70599
-206.26947 -131.23029 738.48871
-205.83266 -131.16248 738.12402
-205.42935 -131.11586 737.87854
-205.09174 -131.11108 737.86853
-204.69412 -131.06786 737.64215
-204.33296 -131.04788 737.54657
-203.96524 -131.02362 737.42688
-203.61615 -131.01126 737.37421
-203.23692 -130.97946 737.21198
-202.85591 -130.9464 737.04266
-202.45947 -130.90324 736.81659
-202.06786 -130.86308 736.60724
-201.70633 -130.8423 736.50702
-201.36028 -130.8315 736.46295
-200.99126 -130.80573 736.33459
-200.63066 -130.78535 736.23663
-200.26706 -130.76295 736.1272
-199.8116 -130.6804 735.67914
-199.41438 -130.63574 735.4444
-199.10648 -130.64952 735.53864
-198.72324 -130.61383 735.35431
-198.34805 -130.58336 735.19928
-197.98994 -130.56403 735.10706
-197.66101 -130.56389 735.12286
-197.32857 -130.56145 735.12567
-196.93233 -130.51669 734.89026
-196.56192 -130.48895 734.75055
-196.13937 -130.42647 734.41516
-195.73959 -130.37889 734.16382
-195.35049 -130.33832 733.95178
-194.9709 -130.30396 733.77472
-194.63522 -130.29887 733.76251
-194.29106 -130.28809 733.7182
-193.9207 -130.25966 733.57452
-193.57872 -130.25023 733.53784
-193.22818 -130.23499 733.46838
-192.85387 -130.20366 733.30829
-192.47987 -130.17244 733.1488
-192.10941 -130.14351 733.00214
-191.73222 -130.10992 732.82928
-191.3515 -130.07381 732.64215
-190.99242 -130.05231 732.53729
-190.61269 -130.01663 732.35266
-190.26439 -130.00233 732.28833
-189.92772 -129.99593 732.26849
-189.54797 -129.95998 732.08215
-189.12398 -129.89352 731.72394
-188.8222 -129.9109 731.83801
-188.50131 -129.91519 731.8783
-188.18619 -129.92345 731.94098
-187.83939 -129.90984 731.88043
-235.05894 -132.98053 748.90228
-234.70073 -132.96776 748.84821
-234.34854 -132.95836 748.81317
-233.98898 -132.94476 748.75439
-233.61227 -132.92137 748.64044
-233.22208 -132.89021 748.48279
-232.83276 -132.85947 748.32739
-232.42484 -132.81801 748.11163
-232.02025 -132.77834 747.90594
-231.6712 -132.77037 747.87891
-231.26479 -132.72948 747.66626
-230.90556 -132.71558 747.60571
-230.51808 -132.68535 747.45325
-230.03429 -132.59955 746.98761
-229.66936 -132.58211 746.90704
-229.38353 -132.61034 747.0838
-229.00592 -132.58551 746.96167
-228.50554 -132.48944 746.43805
-228.10692 -132.45218 746.24579
-227.81522 -132.47696 746.40308
-227.48979 -132.48218 746.4502
-208.42822 -131.01074 739.02252
-208.05536 -130.98421 738.88983
-207.71156 -130.97589 738.85992
-207.36594 -130.9664 738.82343
-207.02104 -130.95737 738.78937
-206.65939 -130.93767 738.69519
-206.24036 -130.88148 738.3952
-205.83183 -130.8318 738.1319
-205.42032 -130.78008 737.85687
-205.08737 -130.77826 737.86359
-204.70648 -130.74583 737.69751
-204.34402 -130.72508 737.59729
-203.95546 -130.68753 737.40228
-203.6129 -130.67941 737.37323
-203.23503 -130.64854 737.21594
-202.84937 -130.61256 737.02972
-202.46803 -130.57925 736.85852
-202.07986 -130.54143 736.6618
-201.72147 -130.52272 736.57306
-201.36743 -130.50682 736.5
-200.98869 -130.47481 736.33606
-200.64514 -130.46556 736.30066
-200.28801 -130.44745 736.21509
-199.85713 -130.38115 735.85767
-199.416 -130.30795 735.46118
-199.03389 -130.27313 735.28131
-198.69064 -130.2637 735.24469
-198.35297 -130.25787 735.22839
-198.00565 -130.24568 735.17621
-197.66037 -130.23482 735.13141
-197.31194 -130.22182 735.07465
-196.9623 -130.20798 735.01306
-196.61365 -130.19475 734.9549
-196.16263 -130.11357 734.51312
-195.74966 -130.0574 734.21259
-195.36259 -130.0183 734.00824
-194.97765 -129.98044 733.81104
-194.63402 -129.97008 733.76898
-194.29628 -129.96362 733.7489
-193.92746 -129.93629 733.61108
-193.58434 -129.92613 733.57007
-193.21719 -129.8998 733.43774
-192.84996 -129.87329 733.3045
-192.47534 -129.84172 733.14264
-192.11659 -129.82079 733.04065
-191.74002 -129.78769 732.87012
-191.37123 -129.75977 732.72876
-191.00804 -129.73555 732.60828
-190.63313 -129.70328 732.44232
-190.27232 -129.68051 732.32996
-189.92424 -129.66634 732.26617
-189.49579 -129.59717 731.89172
-189.13383 -129.5733 731.77313
-188.83389 -129.59192 731.89447
-188.5206 -129.60143 731.96423
-188.23965 -129.63324 732.1601
-187.93344 -129.64772 732.25806
-235.06238 -132.64688 748.92328
-234.68837 -132.62521 748.81885
-234.33014 -132.61243 748.76447
-233.97908 -132.60365 748.73279
-233.61951 -132.59004 748.67371
-233.24672 -132.56886 748.57196
-232.86684 -132.54358 748.44702
-232.47749 -132.51285 748.29132
-232.06422 -132.46837 748.05786
-231.68068 -132.44073 747.91968
-231.26682 -132.39569 747.68298
-230.92664 -132.39273 747.68408
-230.5316 -132.35829 747.50732
-230.08234 -132.29256 747.15381
-229.68469 -132.25635 746.9671
-229.36554 -132.26532 747.03546
-228.96927 -132.22977 746.85236
-228.46136 -132.12955 746.30402
-228.13368 -132.13341 746.34351
-227.86653 -132.17241 746.58148
-227.60121 -132.2126 746.82611
-207.70622 -130.64203 738.85168
-207.37137 -130.63934 738.85352
-207.02545 -130.62967 738.81586
-206.66931 -130.61351 738.74139
-206.23848 -130.55002 738.39923
-205.80815 -130.48663 738.05768
-205.40904 -130.44289 737.82715
-205.06834 -130.43614 737.80591
-204.70116 -130.41251 737.68909
-204.32344 -130.38208 737.53381
-203.95177 -130.35539 737.39978
-203.59911 -130.34079 737.33405
-203.21893 -130.30852 737.16827
-202.81734 -130.26239 736.92413
-202.45113 -130.23888 736.80786
-202.08614 -130.21605 736.69556
-201.72285 -130.19426 736.58905
-201.37071 -130.17961 736.52289
-201.02429 -130.16859 736.47736
-200.70566 -130.17557 736.53351
-200.34204 -130.15335 736.42456
-199.94597 -130.10995 736.19568
-199.50522 -130.03729 735.80115
-199.04797 -129.9536 735.3443
-198.68655 -129.93231 735.24042
-198.34431 -129.92351 735.20721
-198.00227 -129.91481 735.17462
-197.65691 -129.90388 735.12946
-197.29416 -129.88148 735.01923
-196.96169 -129.87898 735.02161
-196.62759 -129.87543 735.01801
-196.22108 -129.8239 734.74298
-195.81427 -129.772 734.46582
-195.38892 -129.70766 734.1181
-194.98549 -129.65765 733.85156
-194.64912 -129.65215 733.83685
-194.29692 -129.63609 733.76233
-193.93013 -129.61018 733.63214
-193.59711 -129.60681 733.62946
-193.21661 -129.57159 733.44653
-192.83528 -129.53569 733.25964
-192.45894 -129.50304 733.09113
-192.10373 -129.4845 733.00256
-191.7216 -129.44772 732.81073
-191.35608 -129.42206 732.6817
-191.01822 -129.41507 732.65839
-190.64369 -129.38313 732.4939
-190.27658 -129.35614 732.35736
-189.89499 -129.31921 732.16443
-189.50407 -129.27577 731.93475
-189.15109 -129.25812 731.85095
-188.86012 -129.28285 732.0072
-188.53551 -129.28459 732.0332
-188.2663 -129.32442 732.27484
-234.68304 -132.2867 748.81195
-234.32155 -132.27208 748.74707
-233.96242 -132.25876 748.68958
-233.6127 -132.25075 748.66205
-233.26251 -132.24242 748.63275
-232.87524 -132.21304 748.48425
-232.48355 -132.18105 748.32092
-232.07111 -132.13715 748.09015
-231.69563 -132.1142 747.97809
-231.28667 -132.07207 747.75732
-230.92168 -132.05496 747.67822
-230.49855 -132.0045 747.41028
-230.09785 -131.96677 747.21442
-229.71072 -131.93672 747.06201
-229.3822 -131.94026 747.09985
-228.8163 -131.80711 746.36359
-228.40672 -131.76375 746.13574
-228.1458 -131.80614 746.39343
-227.90121 -131.85809 746.70538
-207.36603 -130.30547 738.84515
-206.98109 -130.27127 738.66821
-206.57907 -130.2262 738.42957
-206.19504 -130.19232 738.25446
-205.81244 -130.15923 738.0838
-205.41223 -130.1149 737.8493
-205.05482 -130.09756 737.76801
-204.70769 -130.08672 737.72333
-204.32881 -130.05562 737.5639
-203.98058 -130.04398 737.51465
-203.60641 -130.01572 737.37128
-203.22421 -129.98224 737.1983
-202.80182 -129.9229 736.87848
-202.44997 -129.90863 736.81439
-202.08878 -129.88829 736.71588
-201.74045 -129.87621 736.66406
-201.40274 -129.87091 736.65076
-201.07831 -129.87418 736.6861
-200.74666 -129.87277 736.69489
-200.37688 -129.84665 736.56342
-200.0463 -129.84592 736.57593
-199.63219 -129.79085 736.28027
-199.11101 -129.66588 735.58801
-198.6869 -129.60382 735.25256
-198.33345 -129.58771 735.1778
-197.99611 -129.58209 735.1626
-197.64847 -129.5697 735.10889
-197.3006 -129.55714 735.0542
-196.96623 -129.55341 735.04956
-196.63344 -129.55069 735.05072
-196.27319 -129.52985 734.94904
-195.85258 -129.46902 734.62048
-195.3483 -129.35262 733.97638
-194.97916 -129.32542 733.83862
-194.64 -129.31808 733.81342
-194.29523 -129.30698 733.76678
-193.93167 -129.28331 733.64893
-193.59769 -129.2793 733.64258
-193.22665 -129.2505 733.49561
-192.81857 -129.19678 733.20709
-192.44455 -129.16574 733.0473
-192.09984 -129.1543 732.99872
-191.72519 -129.12267 732.83545
-191.35947 -129.09692 732.70575
-191.01768 -129.0873 732.6673
-190.64189 -129.0546 732.49805
-190.28387 -129.03383 732.39642
-189.89397 -128.99133 732.17151
-189.53499 -128.96976 732.06519
-189.1965 -128.96205 732.03772
-188.8889 -128.97542 732.12976
-188.58994 -128.99475 732.25568
-188.36131 -129.06233 732.65546
-234.31917 -131.93524 748.74951
-233.94901 -131.91576 748.65674
-233.59198 -131.90361 748.60571
-233.23372 -131.89073 748.55048
-232.85477 -131.8661 748.42853
-232.48215 -131.845 748.32654
-232.09706 -131.81674 748.18396
-231.70406 -131.78392 748.01544
-231.2776 -131.73192 747.73816
-230.96178 -131.7429 747.81824
-230.53519 -131.69061 747.53925
-230.11194 -131.64011 747.27026
-229.72015 -131.60747 747.10278
-229.33916 -131.58093 746.96991
-228.718 -131.41634 746.05316
-228.3734 -131.41037 746.03705
-228.12605 -131.46045 746.33899
-227.86969 -131.50546 746.6123
-206.96045 -129.9279 738.60522
-206.5163 -129.85641 738.21588
-206.18279 -129.85439 738.22125
-205.80449 -129.8241 738.06604
-205.41853 -129.78886 737.88269
-205.10257 -129.79781 737.95044
-204.71011 -129.75832 737.7428
-204.32103 -129.72083 737.54657
-203.96736 -129.70572 737.4776
-203.59682 -129.67984 737.34729
-203.19525 -129.63409 737.104
-202.82574 -129.60866 736.9762
-202.45088 -129.57971 736.82843
-202.09604 -129.56352 736.75317
-201.75929 -129.55888 736.74365
-201.43964 -129.56525 736.79657
-201.15692 -129.59541 736.98486
-200.81378 -129.58669 736.95203
-200.4633 -129.5732 736.89203
-200.11877 -129.56351 736.85364
-199.75414 -129.54074 736.74091
-198.69939 -129.28323 735.30963
-198.32446 -129.25319 735.1554
-197.98209 -129.24428 735.1214
-197.64008 -129.2356 735.08862
-197.29579 -129.22539 735.04712
-196.95541 -129.21773 735.02008
-196.61824 -129.21213 735.00482
-196.25479 -129.18919 734.89099
-195.86089 -129.14613 734.66254
-195.35161 -129.0267 733.99969
-194.97826 -128.99683 733.84619
-194.64638 -128.99432 733.84839
-194.29347 -128.97783 733.77106
-193.92677 -128.95215 733.6413
-193.57156 -128.93402 733.55463
-193.23672 -128.92941 733.5448
-192.82886 -128.87598 733.2572
-192.47169 -128.85631 733.16168
-192.10703 -128.83156 733.03717
-191.71927 -128.79118 732.82379
-191.36902 -128.77591 732.75323
-191.028 -128.76685 732.7179
-190.64578 -128.72989 732.52399
-190.28621 -128.70816 732.4165
-189.95204 -128.70354 732.40649
-189.60242 -128.68842 732.33667
-189.272 -128.68629 732.34088
-188.92979 -128.67615 732.29932
-188.65387 -128.71118 732.51489
-234.32916 -131.60538 748.7915
-233.94131 -131.576 748.64221
-233.58501 -131.56427 748.59338
-233.20369 -131.53842 748.46411
-232.84869 -131.52737 748.41907
-232.51511 -131.5284 748.44275
-232.15187 -131.51262 748.37079
-231.75023 -131.47501 748.17462
-231.29037 -131.40422 747.78955
-230.83989 -131.33855 747.43365
-230.52907 -131.35228 747.52954
-230.09311 -131.29463 747.2193
-229.70715 -131.2654 747.07068
-229.35941 -131.25795 747.04602
-228.76636 -131.10988 746.22107
-228.38341 -131.08197 746.0799
-228.12329 -131.12459 746.34015
-206.18683 -129.52673 738.2464
-205.80309 -129.4931 738.07166
-205.43324 -129.46811 737.94617
-205.10341 -129.46829 737.96417
-204.69382 -129.41806 737.69476
-204.27858 -129.36409 737.40405
-203.9173 -129.34416 737.30731
-203.58031 -129.3396 737.29822
-203.18378 -129.29715 737.07306
-202.81276 -129.27083 736.93982
-202.44157 -129.24428 736.80536
-202.12398 -129.25194 736.86578
-201.83162 -129.27579 737.01855
-201.52054 -129.28769 737.10321
-201.23027 -129.31302 737.2644
-200.91609 -129.32303 737.33826
-198.3315 -128.92908 735.19226
-197.967 -128.90581 735.07617
-197.63022 -128.90056 735.06281
-197.28482 -128.88962 735.01709
-196.95006 -128.88564 735.01093
-196.5842 -128.86125 734.88843
-196.19675 -128.8226 734.68457
-195.83839 -128.80296 734.58911
-195.35753 -128.70253 734.03284
-194.99034 -128.67679 733.90253
-194.64304 -128.66411 733.84668
-194.30418 -128.65698 733.82251
-193.93275 -128.62822 733.67487
-193.56972 -128.60492 733.55847
-193.23067 -128.59755 733.53278
-192.84558 -128.55942 733.33173
-192.48206 -128.53557 733.21204
-192.09312 -128.49466 732.99506
-191.70634 -128.45505 732.7854
-191.36777 -128.44765 732.75952
-191.00868 -128.42642 732.65479
-190.64455 -128.40173 732.53021
-190.29794 -128.38878 732.4726
-189.96577 -128.38556 732.47046
-189.62668 -128.37761 732.44135
-189.31573 -128.38875 732.52112
-188.99234 -128.39145 732.5528
-233.92241 -131.22995 748.59167
-233.55458 -131.21179 748.50592
